ply
format ascii 1.0
comment PCL generated
element vertex 2372
property float x
property float y
property float z
property uchar red
property uchar green
property uchar blue
element camera 0
property float view_px
property float view_py
property float view_pz
property float x_axisx
property float x_axisy
property float x_axisz
property float y_axisx
property float y_axisy
property float y_axisz
property float z_axisx
property float z_axisy
property float z_axisz
property float focal
property float scalex
property float scaley
property float centerx
property float centery
property int viewportx
property int viewporty
property float k1
property float k2
end_header
92 94 240 39 47 55
92 94 241 40 48 57
92 95 241 42 50 58
93 94 240 39 47 55
93 94 241 41 49 58
93 95 241 41 50 58
92 95 242 42 49 57
94 94 240 40 47 54
94 95 240 41 49 57
94 95 241 42 50 58
95 95 240 41 48 56
64 96 243 29 36 43
64 96 244 31 37 44
64 97 244 34 40 47
65 96 244 30 37 44
65 97 244 31 39 46
65 97 245 32 39 46
64 98 244 35 41 48
64 98 245 35 41 48
64 99 245 36 42 50
65 98 245 33 40 48
65 99 245 35 42 49
65 99 246 37 43 51
66 96 244 30 37 44
66 97 244 31 38 45
66 97 245 32 39 46
67 96 244 29 36 43
67 96 245 31 37 44
67 97 245 32 39 46
66 98 245 33 40 47
67 98 245 33 40 47
66 98 246 33 40 48
66 99 246 36 43 50
67 98 246 34 40 48
67 99 246 35 42 49
64 100 245 37 43 51
64 100 246 36 43 51
64 101 246 37 43 51
65 100 246 37 44 51
65 101 246 38 44 51
64 102 246 36 43 51
64 103 246 35 42 50
65 102 246 37 44 51
65 102 247 37 44 51
65 103 247 37 44 51
66 100 246 38 44 51
66 101 246 38 44 51
66 101 247 38 44 51
67 100 246 37 43 50
67 100 247 37 43 51
67 101 247 37 43 51
66 102 247 37 44 51
66 103 247 38 44 51
67 102 247 37 44 51
67 103 247 37 43 51
68 96 245 30 37 44
68 97 245 31 38 45
69 96 245 30 37 44
68 97 246 32 39 46
69 96 246 30 37 44
69 97 246 31 38 45
68 98 246 32 39 46
68 99 246 34 41 48
68 99 247 34 41 49
69 98 246 32 39 46
69 99 246 33 40 47
69 99 247 34 41 48
70 96 245 29 37 44
70 96 246 30 37 45
70 97 246 30 38 45
71 96 246 29 37 44
71 97 246 30 38 45
70 98 246 31 39 46
70 99 247 33 40 48
71 98 246 31 38 46
71 98 247 32 39 46
71 99 247 33 40 47
68 100 247 36 42 50
68 101 247 36 43 50
69 100 247 34 41 49
69 101 247 35 42 50
68 102 247 37 44 51
69 102 247 36 43 50
70 100 247 34 41 49
70 101 247 35 42 49
71 100 247 34 41 48
67 103 248 37 44 51
68 102 248 37 44 51
68 103 248 37 43 50
69 102 248 37 44 51
69 103 248 37 44 51
69 103 249 37 44 51
70 101 248 34 41 49
71 100 248 34 41 48
71 101 248 34 41 48
71 101 249 36 41 49
70 102 248 36 43 50
70 102 249 36 42 50
70 103 249 36 43 50
71 102 249 35 41 49
71 103 249 35 41 49
71 103 250 36 42 49
64 104 246 36 43 51
64 104 247 36 43 50
64 105 246 36 43 51
64 105 247 36 43 50
65 104 247 36 43 50
65 105 247 36 43 50
64 106 247 36 42 50
66 104 247 37 44 51
65 105 248 36 43 50
64 106 248 35 42 50
64 107 248 35 42 50
64 107 249 35 42 49
65 106 248 36 43 50
65 107 248 35 42 49
65 107 249 36 43 50
66 104 248 37 44 51
66 105 248 37 44 51
67 104 248 37 43 51
67 105 248 38 44 51
67 105 249 37 44 51
66 106 248 37 43 51
66 106 249 37 44 51
66 107 249 37 44 51
67 106 249 38 44 51
66 107 250 38 44 51
67 106 250 37 44 51
67 107 250 37 44 51
64 108 248 36 43 50
64 108 249 36 43 50
64 109 249 37 43 50
65 108 249 38 44 51
64 108 250 38 44 51
64 109 250 38 44 51
65 108 250 39 45 52
65 109 250 39 45 52
65 109 251 41 47 53
64 110 250 37 44 50
64 110 251 39 45 52
64 111 251 40 46 54
65 110 251 41 47 54
65 111 251 40 47 54
66 108 250 39 45 52
66 108 251 39 45 52
66 109 251 40 46 53
67 108 250 38 44 51
67 108 251 39 45 52
67 109 251 39 46 53
66 110 251 40 47 54
64 111 252 40 47 55
65 111 252 40 47 55
67 109 252 39 45 53
66 110 252 40 47 55
66 111 252 39 47 55
67 110 252 40 46 53
67 111 252 39 46 54
67 111 253 37 45 53
68 104 248 37 43 51
68 104 249 37 43 51
68 105 249 37 44 51
69 104 249 38 45 52
69 105 249 39 45 52
68 105 250 38 44 51
69 104 250 38 44 51
69 105 250 38 45 51
68 106 250 38 44 51
68 107 250 38 44 51
68 107 251 40 46 52
69 106 250 39 45 52
69 106 251 39 45 51
69 107 251 40 45 52
70 104 249 37 43 51
70 104 250 37 43 50
70 105 250 37 44 51
70 105 251 37 44 50
71 104 250 36 42 49
71 105 251 35 42 49
70 106 251 37 44 51
70 107 251 38 44 51
70 106 252 37 43 50
70 107 252 38 44 51
71 106 252 35 42 49
71 107 252 36 43 49
71 107 253 35 41 48
68 108 251 39 45 52
68 108 252 39 45 52
68 109 252 38 45 52
69 108 252 39 45 52
69 109 252 37 44 51
69 109 253 36 43 51
68 110 252 38 45 53
68 110 253 37 44 52
68 111 253 35 43 51
69 110 253 35 43 51
69 111 253 33 41 49
68 111 254 33 41 49
69 111 254 32 39 48
70 108 252 37 43 51
70 108 253 35 42 50
70 109 253 35 42 50
71 108 252 36 42 49
71 108 253 35 41 48
71 109 253 35 41 49
71 109 254 33 40 47
70 110 253 34 41 49
70 110 254 32 40 48
70 111 254 32 40 47
71 110 254 32 40 47
71 111 254 32 39 47
71 111 255 32 39 46
72 96 246 30 37 44
72 97 246 31 38 45
73 96 246 31 37 44
73 97 246 31 38 45
73 97 247 32 38 45
72 98 246 31 38 45
72 98 247 33 39 46
72 99 247 34 40 47
73 98 247 33 39 46
73 99 247 34 40 46
74 96 246 31 38 45
74 97 246 31 38 45
74 97 247 32 38 45
75 96 246 32 38 45
75 97 246 32 38 45
75 97 247 32 38 45
74 98 247 33 39 46
74 99 247 34 40 46
75 98 247 32 39 46
75 99 247 33 39 46
76 96 246 32 38 45
76 97 246 33 39 45
76 97 247 32 39 45
77 96 246 33 39 45
77 97 246 33 38 45
77 97 247 33 39 45
76 98 247 32 39 46
76 99 247 32 39 46
77 98 247 32 39 45
77 99 247 32 39 46
78 96 246 33 39 46
78 97 246 33 39 45
78 97 247 33 39 45
79 96 246 33 39 46
79 97 246 33 39 46
79 97 247 34 39 46
78 98 247 32 39 45
78 99 247 32 39 46
79 98 247 34 39 46
79 99 247 33 39 46
72 99 248 34 40 47
73 99 248 35 41 47
74 99 248 36 41 47
75 99 248 34 40 46
72 100 248 35 41 48
72 101 248 36 42 48
72 101 249 36 41 48
73 100 248 36 41 47
73 101 248 36 42 48
73 101 249 36 41 47
72 102 249 35 41 48
73 102 249 35 41 47
72 102 250 35 41 48
72 103 250 35 42 48
73 102 250 35 41 48
73 103 250 36 41 47
73 103 251 37 42 48
74 100 248 36 41 47
74 101 249 36 41 47
75 100 248 35 40 47
75 100 249 35 41 47
75 101 249 37 42 48
75 102 249 36 42 48
74 102 250 36 41 48
74 103 250 37 42 48
74 103 251 37 42 48
75 102 250 37 42 48
75 103 250 37 42 48
75 103 251 38 43 49
76 99 248 33 40 47
77 99 248 33 40 47
78 99 248 33 40 47
79 99 248 33 40 47
76 100 248 33 40 47
76 100 249 34 41 48
76 101 249 36 42 49
77 100 248 33 40 47
77 101 249 35 42 49
76 102 250 36 42 49
76 103 250 36 42 49
76 103 251 37 43 49
77 102 250 35 42 49
77 103 250 36 43 49
77 103 251 36 42 49
78 100 248 33 40 48
78 101 249 35 41 48
79 100 248 33 41 48
79 101 249 34 41 48
78 102 250 35 42 49
78 103 251 35 41 48
79 102 250 34 41 48
79 103 251 35 41 48
72 104 250 35 41 48
72 104 251 35 41 48
72 105 251 35 41 48
73 104 251 36 41 48
73 105 251 35 41 47
74 104 251 37 42 48
75 104 251 37 42 49
72 105 252 35 41 48
73 104 252 36 41 47
73 105 252 36 42 48
72 106 252 36 41 48
72 106 253 36 42 48
72 107 253 36 41 48
73 106 252 36 41 47
73 106 253 35 41 47
73 107 253 35 41 47
73 107 254 35 40 46
74 104 252 37 42 48
74 105 252 37 42 48
75 104 252 36 42 48
75 105 252 36 42 48
75 105 253 36 42 48
74 106 253 35 41 47
74 107 253 35 40 46
75 106 253 36 41 47
74 107 254 34 40 46
75 106 254 35 40 47
75 107 254 35 41 47
75 107 255 35 40 46
72 108 253 35 41 47
72 108 254 35 41 47
72 109 254 34 40 47
73 108 254 35 40 47
73 109 254 34 40 47
73 109 255 33 40 46
72 110 254 32 39 46
72 110 255 32 39 46
72 111 255 32 38 45
73 110 255 33 39 46
73 111 255 32 38 45
74 108 254 34 40 46
74 108 255 34 39 46
74 109 255 33 39 46
75 108 255 33 39 45
75 109 255 33 39 46
74 110 255 32 39 45
76 104 251 37 43 49
77 104 251 36 42 49
79 104 251 36 42 49
76 104 252 37 42 49
76 105 252 35 41 48
76 105 253 35 41 47
77 104 252 36 42 49
77 105 252 35 41 48
77 105 253 35 41 48
76 106 253 35 40 47
76 106 254 35 41 47
76 107 254 35 41 47
76 107 255 35 41 47
77 106 254 34 41 47
77 107 254 34 40 47
77 107 255 34 41 48
78 104 252 35 42 48
78 105 252 34 41 48
78 105 253 34 41 48
79 104 252 35 42 49
79 105 252 35 42 49
79 105 253 36 42 49
79 106 253 35 42 49
78 106 254 33 40 48
78 107 254 34 41 48
78 107 255 35 42 49
79 106 254 34 41 49
79 107 254 35 41 48
79 107 255 35 42 49
76 108 255 34 40 46
76 109 255 33 40 47
77 108 255 34 40 48
77 109 255 35 40 48
78 108 255 36 42 49
79 108 255 35 42 50
64 112 251 40 47 54
64 112 252 40 47 54
64 113 252 38 45 53
64 113 253 38 45 53
65 112 252 38 46 54
65 112 253 37 45 53
65 113 253 36 44 52
64 114 253 37 45 52
64 115 253 37 43 51
65 114 253 34 43 51
64 115 254 35 42 50
65 114 254 32 40 48
65 115 254 30 39 47
66 112 253 36 44 52
66 113 253 33 42 50
67 112 253 35 42 50
67 113 253 32 40 48
67 113 254 31 39 47
66 114 254 31 39 47
66 115 254 30 37 44
66 115 255 31 37 43
67 114 254 30 37 44
67 115 254 30 37 44
67 115 255 30 37 43
64 116 254 31 39 47
64 117 254 31 40 49
64 117 255 32 41 50
65 116 254 29 38 46
65 116 255 29 37 45
65 117 255 31 38 47
64 118 255 40 48 58
64 119 255 48 56 66
65 118 255 38 46 55
65 119 255 47 55 64
66 116 255 30 37 44
66 117 255 33 40 47
67 116 255 32 38 45
66 118 255 40 47 55
68 112 254 33 40 48
68 113 254 31 38 46
69 112 254 31 38 46
69 113 254 31 39 46
69 113 255 32 38 45
68 114 254 30 37 44
68 114 255 30 37 44
68 115 255 31 37 44
69 114 255 31 38 45
69 115 255 30 38 45
70 112 254 31 38 46
70 112 255 31 38 45
70 113 255 30 37 44
71 112 255 32 38 45
71 113 255 31 38 44
70 114 255 32 38 45
71 114 255 32 38 44
68 116 255 33 40 46
64 127 242 38 45 52
64 127 243 39 45 53
65 127 242 37 43 50
65 127 243 38 44 51
64 125 246 37 45 54
64 125 247 37 45 54
65 125 247 36 45 53
64 126 244 38 45 53
64 126 245 37 45 53
64 127 244 38 45 53
64 127 245 37 44 53
65 126 245 36 43 51
65 127 244 37 44 52
65 127 245 36 43 51
64 126 246 36 44 53
64 126 247 36 44 53
65 126 246 36 44 52
65 126 247 36 44 52
66 127 244 36 43 50
66 127 245 36 42 50
67 127 244 35 42 49
67 127 245 36 42 50
66 126 246 35 42 50
66 126 247 35 43 51
67 126 246 34 41 49
67 126 247 34 41 49
67 127 246 36 42 50
68 127 244 35 41 48
68 127 245 36 42 49
69 127 245 34 40 47
68 126 247 33 41 49
68 127 246 34 41 48
69 126 247 34 41 48
69 127 246 34 41 48
69 127 247 34 41 48
70 127 245 33 40 47
70 127 246 34 40 47
70 127 247 33 40 47
71 127 246 33 39 46
71 127 247 34 40 46
64 123 250 43 53 64
64 123 251 44 54 65
65 123 251 42 52 62
64 121 252 46 57 69
64 121 253 45 57 69
64 120 254 46 57 68
64 120 255 47 58 68
64 121 254 45 57 68
65 120 255 46 56 68
65 121 254 44 56 67
64 122 252 46 56 67
64 122 253 45 56 68
64 123 252 44 54 66
65 122 252 43 54 65
65 122 253 43 54 65
65 123 252 42 52 63
65 122 254 43 54 66
66 120 255 46 56 67
66 121 254 43 55 66
66 121 255 44 55 66
67 120 255 46 56 67
67 121 255 44 54 65
66 122 253 40 52 63
66 123 252 40 50 60
66 123 253 40 50 62
67 123 252 38 48 58
67 123 253 38 49 59
66 122 254 42 53 65
67 122 254 40 51 62
64 124 248 39 48 58
64 124 249 41 51 61
64 125 248 38 47 56
65 124 249 39 48 57
65 125 248 36 45 54
65 125 249 38 47 55
64 124 250 41 51 61
65 124 250 39 48 58
65 124 251 39 49 60
66 125 248 35 43 52
66 125 249 37 45 53
67 125 249 37 44 52
66 124 250 37 46 55
66 124 251 37 46 56
66 125 250 37 45 54
67 124 251 37 45 54
67 125 250 37 44 52
67 125 251 37 45 53
66 126 248 36 43 51
67 126 248 35 42 50
67 126 249 36 43 51
66 124 252 39 49 58
67 124 252 37 46 56
68 121 255 43 54 65
69 121 255 43 54 64
68 123 253 37 47 57
69 123 253 36 45 54
68 122 254 40 50 61
68 122 255 42 52 63
69 122 254 39 49 59
69 122 255 41 51 61
69 123 254 38 48 57
70 121 255 42 52 62
71 121 255 40 50 59
70 123 253 36 44 53
71 123 253 36 43 52
70 122 254 38 48 58
70 122 255 40 50 60
70 123 254 37 46 56
71 122 254 38 47 56
71 122 255 40 49 59
71 123 254 37 45 54
68 125 249 36 43 50
68 125 250 36 43 51
68 125 251 37 44 52
69 124 251 37 44 52
69 125 250 36 42 50
69 125 251 37 43 51
68 126 248 33 41 49
68 126 249 34 42 50
69 126 248 33 40 48
69 126 249 34 41 50
69 126 250 34 42 50
70 124 251 36 42 51
70 125 250 35 41 50
70 125 251 35 42 50
71 124 251 35 42 50
71 125 250 34 40 49
71 125 251 35 41 49
70 126 248 33 40 48
70 126 249 34 41 49
71 126 248 33 40 47
71 126 249 34 40 48
71 127 248 34 40 47
70 126 250 34 41 50
71 126 250 34 40 48
68 124 252 37 45 55
68 125 252 37 45 53
69 124 252 36 44 53
70 124 252 36 43 52
71 124 252 35 42 51
72 112 255 32 38 45
72 127 246 32 38 44
72 127 247 33 39 45
73 127 247 31 38 44
72 121 255 39 48 57
73 121 254 36 44 53
73 121 255 37 46 55
72 122 253 36 44 52
72 123 253 35 42 51
73 122 253 35 42 50
73 123 252 34 41 49
73 123 253 34 41 50
72 122 254 37 45 54
73 122 254 36 44 53
74 121 254 36 43 52
74 121 255 36 44 53
75 120 255 35 44 53
75 121 254 34 41 50
75 121 255 35 43 52
74 122 253 34 41 49
74 123 252 34 41 49
75 122 252 33 40 48
75 122 253 34 41 49
75 123 252 32 40 48
74 122 254 34 41 50
75 122 254 34 42 50
72 124 251 34 41 49
72 125 251 34 41 48
73 125 251 34 40 48
72 126 248 33 39 46
72 126 249 33 40 46
72 127 248 32 39 46
73 126 249 33 39 46
73 127 248 32 38 45
73 127 249 32 39 46
72 126 250 33 40 47
73 126 250 33 39 47
73 126 251 33 40 47
74 125 251 34 41 48
75 124 251 33 40 47
75 125 251 32 39 47
74 127 249 31 38 45
74 126 250 31 38 46
74 126 251 33 39 47
74 127 250 31 38 45
75 126 250 31 38 45
75 126 251 31 38 46
75 127 250 30 37 44
72 124 252 35 42 50
73 124 252 34 40 49
74 124 252 33 40 48
75 124 252 32 39 47
77 121 253 32 39 46
76 120 255 34 42 51
76 121 254 33 41 49
77 120 255 34 41 49
77 121 254 33 40 47
76 122 252 32 39 47
76 122 253 33 40 48
76 123 252 31 39 47
77 122 252 31 39 46
77 122 253 32 39 47
77 123 252 31 38 46
78 121 253 31 38 46
79 121 253 31 38 45
78 120 254 32 39 47
78 120 255 32 39 47
78 121 254 31 38 46
79 120 254 31 38 45
79 120 255 31 38 46
79 121 254 31 38 45
78 122 252 30 37 45
78 122 253 31 38 46
78 123 252 30 37 45
79 122 252 30 37 45
79 122 253 31 38 45
79 123 252 29 36 44
76 124 251 31 39 47
76 125 251 31 38 46
77 124 251 30 38 45
77 125 251 31 38 45
76 126 250 30 37 45
76 126 251 31 38 45
76 127 250 29 36 42
77 126 251 30 37 44
77 127 250 29 35 41
78 124 251 30 37 45
78 125 251 30 37 44
79 124 251 31 38 45
79 125 251 31 37 44
78 126 251 30 36 43
78 127 250 28 35 41
78 127 251 29 35 41
79 126 251 30 36 42
79 127 251 30 36 42
76 124 252 32 39 47
77 124 252 31 38 46
79 124 252 30 37 45
95 96 239 38 45 53
80 96 246 33 39 46
80 97 246 33 39 45
80 97 247 34 39 46
81 96 246 33 39 46
81 97 246 34 40 46
81 97 247 34 39 46
80 98 247 34 39 46
80 99 247 33 40 46
81 98 247 34 40 46
81 99 247 34 40 47
82 96 246 33 40 47
82 97 246 34 40 47
83 96 246 33 40 48
83 97 246 33 40 47
82 98 247 34 40 46
82 99 247 34 40 47
83 98 246 33 40 47
83 98 247 34 40 46
83 99 247 34 40 46
83 100 247 35 41 47
84 96 245 33 41 50
85 96 245 33 42 50
85 97 245 32 40 49
84 96 246 33 41 49
84 97 246 32 40 48
85 98 245 32 40 47
84 98 246 33 40 47
84 99 246 34 40 47
84 99 247 34 40 46
85 98 246 33 40 47
85 99 246 34 40 47
86 96 244 34 42 51
86 96 245 34 42 51
86 97 244 34 41 49
86 97 245 33 41 49
87 96 244 35 43 51
87 97 244 34 42 49
86 98 245 33 41 48
86 99 245 34 41 48
87 98 244 33 41 48
87 98 245 33 40 48
87 99 245 33 40 48
86 98 246 33 41 48
86 99 246 33 40 47
84 100 247 36 41 47
85 100 246 34 40 47
85 100 247 35 40 47
85 101 247 36 42 48
86 100 246 33 40 47
86 100 247 33 40 47
86 101 246 35 42 49
86 101 247 35 42 49
87 100 246 32 40 47
87 101 246 34 42 49
87 101 247 35 42 50
86 102 247 35 42 49
87 102 247 35 42 50
80 99 248 33 40 47
81 99 248 34 40 47
80 100 248 33 40 48
80 101 249 34 41 48
81 100 248 34 41 48
81 101 249 35 41 49
80 102 250 34 41 49
80 103 251 36 42 49
81 102 250 36 42 49
81 103 250 37 43 50
81 103 251 36 43 50
82 100 248 35 41 48
82 101 248 36 42 49
82 101 249 36 42 50
83 100 248 36 41 47
83 101 248 36 42 48
83 101 249 35 41 48
82 102 249 35 42 49
83 102 249 36 42 48
82 102 250 36 43 50
82 103 250 36 43 50
82 103 251 36 42 50
83 102 250 36 42 49
83 103 250 35 41 48
84 101 248 36 41 47
85 101 248 36 42 48
84 102 248 36 41 48
84 102 249 37 42 49
85 102 248 38 43 49
85 102 249 38 43 49
85 103 249 37 42 48
84 103 250 35 41 47
85 103 250 35 41 48
86 101 248 36 42 49
86 102 248 37 43 50
86 103 248 36 42 49
86 103 249 36 42 48
87 102 248 35 42 50
87 103 248 35 42 49
80 104 251 36 43 50
81 104 251 37 43 50
82 104 251 35 42 49
83 104 251 33 40 47
80 104 252 36 43 50
80 105 252 36 43 50
80 105 253 36 43 49
81 104 252 36 42 49
81 105 252 35 42 49
80 106 253 36 42 49
81 106 253 36 42 50
80 106 254 34 41 48
80 107 254 34 41 48
80 107 255 36 43 51
81 106 254 35 42 49
81 107 254 37 44 51
81 107 255 37 44 51
82 105 252 34 41 48
83 105 252 33 41 48
82 106 253 35 42 50
83 106 253 38 45 53
82 106 254 38 45 53
82 107 254 41 48 56
83 106 254 43 50 58
83 107 254 49 56 65
83 107 255 51 58 66
80 108 255 38 45 53
81 108 255 41 48 56
82 108 255 45 53 61
83 108 255 53 60 69
84 104 251 33 40 47
84 105 251 33 40 47
85 104 250 34 40 47
85 104 251 33 40 47
85 105 251 34 41 49
86 104 249 35 41 47
87 104 248 35 41 49
87 104 249 33 40 47
86 104 250 34 40 47
86 104 251 33 40 47
86 105 250 34 40 47
86 105 251 36 42 50
87 104 250 32 40 48
87 105 250 34 41 49
87 105 251 36 43 50
87 106 251 37 44 51
84 105 252 36 44 51
85 105 252 38 45 52
84 106 253 44 51 59
85 106 252 39 46 53
85 106 253 44 51 59
84 106 254 51 58 66
84 107 254 51 58 66
84 107 255 51 58 66
85 106 254 48 55 62
85 107 254 46 53 60
85 107 255 49 56 64
86 105 252 37 44 51
86 106 252 40 46 54
86 106 253 41 48 56
87 106 252 39 45 52
87 106 253 40 47 54
87 107 253 42 48 55
86 106 254 43 50 57
86 107 254 42 49 57
86 107 255 45 52 60
87 107 254 42 48 55
84 108 255 54 60 68
85 108 255 50 56 65
86 108 255 42 49 57
87 108 255 40 47 54
88 96 243 36 44 51
89 96 243 36 44 52
89 97 243 35 42 50
90 96 242 37 46 55
90 96 243 35 44 52
90 97 243 35 43 51
91 96 242 38 46 55
91 96 243 36 45 53
91 97 243 36 44 52
90 98 243 35 43 50
91 98 243 35 43 51
88 96 244 34 42 50
88 97 244 34 41 49
89 97 244 34 41 48
88 98 244 34 41 48
88 98 245 33 41 48
88 99 245 33 40 48
89 98 244 33 41 48
89 99 245 33 40 48
90 98 244 35 42 50
90 99 244 34 41 49
91 98 244 36 43 51
91 99 244 36 43 51
88 100 245 33 40 48
89 100 245 34 41 49
89 101 245 35 42 49
88 100 246 33 40 48
88 101 246 35 42 49
89 101 246 36 43 50
88 102 246 36 43 50
88 102 247 35 42 50
88 103 247 35 42 49
89 102 246 37 43 50
89 103 246 36 42 48
89 103 247 35 41 48
90 100 244 35 42 49
90 100 245 35 42 49
90 101 245 36 42 49
91 100 244 35 42 50
91 101 244 37 43 51
91 101 245 35 42 50
90 102 245 36 42 49
91 102 244 37 43 51
91 102 245 35 42 49
91 103 245 35 41 48
90 102 246 37 43 50
90 103 246 36 41 48
93 96 241 42 50 59
92 96 242 40 47 56
92 97 242 38 46 55
92 97 243 37 45 54
93 96 242 41 49 58
93 97 242 39 48 56
92 98 243 35 43 52
92 99 243 36 44 52
93 98 242 39 47 55
93 98 243 37 45 53
93 99 242 40 47 56
93 99 243 38 46 54
94 96 240 43 51 59
94 96 241 43 51 59
94 97 241 40 49 58
95 96 240 40 48 56
95 97 240 40 48 56
95 97 241 41 49 57
94 98 241 42 50 59
94 99 241 41 48 57
95 98 240 40 47 55
95 98 241 41 49 57
95 99 240 38 46 54
95 99 241 40 47 55
94 98 242 40 49 57
94 99 242 40 48 56
92 99 244 36 44 51
92 100 243 38 45 52
93 100 242 38 46 54
93 100 243 38 45 53
93 101 243 38 45 52
93 102 243 35 42 50
93 103 243 35 41 48
94 100 241 40 48 56
95 100 240 37 45 53
95 100 241 38 46 54
95 101 241 36 44 52
94 100 242 40 47 56
94 101 242 38 46 54
95 102 241 35 42 50
94 102 242 34 41 48
94 102 243 35 42 50
94 103 242 34 40 48
94 103 243 33 39 47
95 102 242 35 42 50
95 103 242 32 39 46
95 103 243 32 38 45
92 100 244 37 44 51
92 101 244 37 44 51
92 102 244 34 41 49
92 103 244 35 40 46
92 103 245 34 40 46
93 102 244 35 41 48
93 103 244 34 39 46
94 103 244 32 38 44
88 103 248 35 42 48
89 104 247 31 39 46
89 105 247 29 37 45
91 104 245 32 38 45
90 104 246 31 38 45
90 104 247 29 37 44
90 105 247 30 37 45
91 104 246 31 37 44
91 105 247 31 38 45
95 104 243 30 37 44
92 104 245 31 37 43
92 105 245 32 37 43
93 104 244 32 37 43
93 104 245 31 36 41
93 105 245 32 38 43
92 104 246 30 36 42
92 105 246 32 37 44
92 105 247 33 39 45
92 106 246 34 39 45
92 106 247 35 41 47
93 106 246 35 40 46
93 106 247 36 41 48
93 107 247 37 42 49
94 104 244 31 37 43
94 105 244 31 36 42
94 105 245 32 37 42
95 104 244 30 36 43
95 105 244 31 37 43
94 106 245 35 40 45
95 106 245 35 39 44
95 107 245 36 41 46
94 106 246 35 40 46
94 106 247 35 40 46
94 107 247 37 42 48
95 107 246 36 41 46
95 107 247 37 42 48
88 104 248 33 41 48
88 104 249 32 40 47
88 105 249 33 40 48
89 104 248 31 39 46
89 105 248 31 39 46
89 105 249 33 40 48
88 105 250 34 42 49
88 105 251 36 43 50
89 105 250 33 41 48
89 106 249 34 41 48
88 106 251 37 43 50
89 106 250 35 42 49
89 106 251 36 43 50
90 105 248 32 40 47
90 105 249 35 42 48
91 105 248 33 40 47
90 106 249 36 42 49
91 106 248 35 41 48
91 106 249 35 42 49
90 106 250 36 43 50
90 106 251 35 42 50
90 107 251 36 42 50
91 106 250 35 42 49
91 107 250 36 42 49
91 107 251 36 43 50
88 106 252 38 44 51
88 106 253 41 47 53
88 107 253 40 46 53
89 106 252 38 44 51
89 107 252 38 44 51
89 107 253 38 44 51
88 107 254 40 46 53
89 107 254 38 44 51
90 107 252 36 43 50
90 107 253 37 43 51
91 107 252 37 43 51
91 107 253 36 42 50
88 108 255 40 46 53
89 108 254 39 45 52
89 108 255 38 45 52
89 109 255 38 44 52
90 108 253 35 42 50
91 108 252 36 43 51
91 108 253 36 43 51
90 108 254 36 43 51
90 108 255 37 44 51
91 108 254 36 43 50
91 108 255 36 43 51
91 109 255 36 43 51
92 106 248 36 43 49
92 106 249 36 43 50
92 107 249 37 43 50
93 106 248 37 43 49
93 107 248 37 43 49
93 107 249 36 43 50
92 107 250 36 42 50
92 107 251 35 42 50
93 107 250 36 42 49
93 107 251 35 42 49
94 107 248 36 42 49
95 107 248 37 42 48
92 108 251 36 43 50
93 108 250 35 42 49
93 108 251 35 42 49
94 108 248 34 41 48
94 108 249 35 42 49
95 108 248 35 42 49
95 108 249 35 42 49
95 109 249 35 42 49
94 108 250 36 43 50
94 108 251 36 42 50
94 109 251 36 43 50
95 108 250 36 43 50
95 109 250 35 42 50
95 109 251 36 43 50
92 108 252 36 43 50
92 108 253 36 43 51
93 108 252 36 43 50
93 108 253 37 43 51
93 109 252 36 43 50
93 109 253 36 43 50
92 108 254 35 43 50
92 109 254 35 42 50
92 109 255 36 43 50
93 109 254 36 43 50
93 110 254 36 43 51
93 110 255 36 44 51
94 108 252 36 43 50
94 109 252 36 43 50
94 109 253 35 43 50
95 109 252 37 44 51
94 109 254 36 43 51
94 110 253 36 43 50
95 110 252 37 43 50
95 110 253 37 44 51
94 110 254 36 43 51
94 110 255 36 43 51
94 111 255 36 43 51
95 110 254 36 43 50
95 111 254 36 43 50
95 111 255 36 43 50
80 121 253 32 38 45
81 121 253 31 38 45
80 120 254 31 38 45
80 120 255 30 38 45
80 121 254 31 38 45
81 120 254 31 38 45
81 120 255 30 38 45
81 121 254 31 38 45
80 122 252 31 37 44
80 122 253 31 37 44
80 123 252 31 38 45
81 122 252 33 39 46
81 122 253 32 38 45
81 123 252 33 39 45
82 120 255 32 39 46
82 121 254 32 39 46
82 121 255 32 39 46
83 120 255 31 39 46
83 121 254 32 39 46
83 121 255 31 39 46
82 122 253 33 39 46
82 123 253 33 39 46
83 123 253 31 38 45
82 122 254 32 39 46
83 122 254 33 39 46
83 122 255 31 38 45
83 123 254 32 39 46
83 123 255 32 39 46
80 124 251 32 38 44
80 125 251 31 37 43
80 126 251 31 36 42
80 127 251 30 36 42
80 124 252 31 38 44
81 124 252 33 38 45
81 125 252 32 37 43
80 127 252 30 36 42
81 126 252 32 37 43
81 127 252 32 37 43
81 127 253 31 36 41
82 124 252 32 37 43
82 124 253 32 37 44
82 125 252 33 38 44
82 125 253 32 38 44
83 124 253 30 37 44
82 125 254 31 37 43
83 124 254 32 38 45
83 124 255 32 38 45
83 125 254 31 37 43
83 125 255 31 38 44
82 126 253 32 37 43
82 127 253 31 36 42
82 126 254 31 37 43
82 126 255 31 37 43
82 127 254 31 36 42
82 127 255 32 37 43
83 126 255 31 37 43
84 122 255 33 39 46
84 123 255 32 39 46
84 124 255 32 39 45
95 112 255 36 43 49
103 79 210 46 53 61
103 79 211 48 56 64
102 77 215 44 49 55
102 78 212 42 53 65
102 78 213 43 52 64
103 78 213 46 54 65
103 79 212 47 56 66
103 79 213 46 55 67
102 78 214 43 49 57
102 78 215 47 54 62
103 78 214 45 52 60
103 78 215 46 53 62
103 79 214 48 56 64
103 79 215 42 51 61
99 75 221 73 70 70
98 75 222 78 76 76
98 75 223 77 74 75
99 75 222 70 68 69
99 76 221 50 50 51
99 77 221 41 45 50
98 76 222 60 59 60
98 76 223 58 57 59
98 77 223 45 48 51
99 76 222 53 52 54
99 77 222 42 46 51
99 77 223 43 47 52
98 78 223 43 49 56
99 78 222 38 46 55
99 78 223 41 49 57
99 79 222 34 46 56
99 79 223 38 48 58
100 76 219 49 49 51
101 76 218 48 48 50
101 76 219 49 49 51
101 77 218 43 48 53
101 77 219 45 49 55
101 78 219 47 55 64
101 79 219 49 58 68
102 76 217 44 47 52
102 77 216 46 52 59
102 77 217 46 51 58
102 77 218 44 50 57
102 78 216 50 58 67
102 78 217 51 59 68
102 79 216 42 53 63
102 79 217 46 56 66
103 79 216 38 49 60
102 78 218 49 56 65
102 78 219 48 56 66
102 79 218 51 60 70
102 79 219 50 59 69
100 76 220 50 50 51
100 76 221 52 51 51
100 77 220 45 48 52
100 77 221 41 45 50
101 77 220 45 51 58
100 78 220 44 51 58
100 78 221 40 47 55
100 79 221 43 52 61
101 78 220 47 54 63
101 79 220 49 58 68
100 79 222 37 48 58
103 82 207 36 43 51
103 83 206 39 45 51
103 83 207 40 46 52
103 84 205 39 43 49
103 85 204 36 40 45
103 84 206 41 46 52
103 84 207 41 46 53
104 86 203 36 40 44
104 87 202 35 39 44
104 87 203 37 40 45
104 84 205 41 45 51
104 85 204 37 41 45
104 85 205 40 44 49
104 84 206 41 46 51
104 84 207 41 46 53
104 85 206 40 45 51
104 85 207 40 45 52
104 86 204 37 41 46
104 86 205 39 44 49
104 87 204 39 42 47
104 87 205 40 44 50
105 87 205 43 47 53
104 86 206 41 45 52
104 86 207 40 46 52
104 87 206 40 45 52
104 87 207 41 47 53
105 87 206 40 45 52
105 87 207 42 48 55
104 90 199 33 38 43
104 91 198 34 39 44
104 91 199 34 38 44
105 90 199 33 38 43
105 91 199 34 38 44
104 94 195 35 39 44
105 94 195 34 39 45
105 95 194 34 39 44
105 95 195 34 39 45
104 92 197 34 39 44
104 93 196 35 39 44
104 93 197 34 39 44
105 93 197 34 39 45
104 92 198 34 38 44
105 92 198 33 38 44
105 92 199 34 39 44
105 93 198 35 39 45
105 93 199 35 40 46
104 94 196 34 39 45
105 94 196 34 39 45
105 94 197 34 39 45
105 95 196 34 40 46
105 95 197 35 41 47
105 94 198 35 40 46
105 94 199 37 41 47
105 95 198 36 41 47
105 95 199 37 42 48
106 95 198 38 43 49
106 95 199 38 43 49
104 88 201 35 39 44
104 89 200 34 39 44
105 89 200 34 39 44
105 89 201 34 39 44
104 88 202 36 40 44
104 88 203 38 42 46
105 88 202 35 40 45
105 88 203 38 42 47
105 89 202 36 41 46
105 89 203 38 43 49
105 90 200 33 38 44
105 90 201 35 39 44
105 91 200 34 39 44
105 91 201 35 39 45
105 90 202 36 41 46
105 90 203 37 42 48
105 91 202 36 40 46
106 90 202 36 41 47
106 90 203 37 42 48
106 91 202 36 41 47
106 91 203 38 43 49
105 88 204 40 44 49
105 88 205 42 46 51
105 89 204 39 44 50
105 89 205 40 45 51
105 88 206 42 47 54
105 88 207 38 45 53
106 89 204 40 45 51
106 89 205 41 46 53
106 89 206 41 46 53
106 89 207 41 47 54
106 90 204 39 45 51
106 90 205 41 47 54
106 91 204 40 45 52
106 91 205 42 48 55
107 91 204 41 46 52
107 91 205 45 51 58
106 90 206 43 49 57
106 90 207 44 50 58
107 91 206 45 52 59
107 91 207 43 50 58
105 92 200 36 40 46
105 92 201 36 41 46
105 93 200 36 41 47
106 92 201 37 42 47
106 93 200 37 42 48
106 93 201 38 43 49
106 92 202 37 42 48
106 92 203 40 45 50
106 93 202 39 43 49
106 93 203 39 44 49
107 92 203 42 46 51
107 93 202 39 44 50
107 93 203 41 46 51
106 94 200 38 43 49
106 94 201 39 44 50
106 95 200 39 44 50
106 95 201 39 44 50
107 95 201 40 45 51
106 94 202 39 44 50
107 94 202 40 45 50
107 94 203 40 45 50
107 95 202 41 46 52
107 95 203 41 46 51
107 92 204 41 46 52
107 92 205 42 48 55
107 93 204 41 46 52
107 93 205 41 47 54
107 92 206 45 51 58
107 92 207 45 52 59
107 93 206 45 50 58
107 93 207 42 49 56
107 94 204 41 46 52
107 94 205 43 49 55
107 95 204 41 46 52
107 95 205 44 48 55
107 94 206 46 51 58
107 94 207 42 48 55
108 95 204 42 47 53
108 95 205 44 48 54
108 94 206 47 51 58
108 94 207 41 47 54
108 95 206 46 50 56
108 95 207 41 46 52
103 80 209 39 46 53
103 81 208 32 41 51
103 81 209 33 42 50
103 80 210 40 45 51
103 80 211 40 45 51
103 81 210 38 43 49
103 81 211 37 41 46
103 82 208 35 44 53
103 82 209 34 43 53
103 83 208 39 46 54
103 83 209 37 45 54
103 82 210 38 44 52
103 82 211 40 45 50
103 83 210 37 45 53
103 83 211 37 44 53
103 80 212 41 47 54
103 80 213 41 49 58
103 81 212 40 43 48
103 81 213 41 46 52
103 80 214 41 50 60
103 80 215 36 47 57
103 81 214 37 46 55
103 81 215 33 44 54
103 82 212 39 43 49
103 82 213 40 44 50
103 83 212 37 44 52
103 83 213 38 45 53
103 82 214 39 46 54
103 82 215 36 45 53
103 83 214 39 46 54
103 83 215 38 45 54
103 84 208 41 47 54
103 84 209 39 45 53
103 84 210 38 45 53
103 84 211 38 46 53
103 84 212 36 44 52
103 84 213 33 43 53
103 84 214 36 44 52
103 84 215 37 45 53
103 85 214 34 44 53
103 85 215 37 44 52
99 80 223 42 52 63
99 81 223 41 51 62
99 82 223 35 46 57
99 83 223 32 42 53
102 80 217 32 45 57
102 81 217 34 45 55
103 80 216 32 45 56
103 80 217 32 45 56
103 81 216 33 44 54
103 81 217 34 45 54
102 80 218 34 47 58
102 80 219 38 49 61
102 81 218 34 44 54
102 81 219 33 44 53
103 82 216 37 45 53
103 82 217 38 46 54
103 83 216 39 45 53
103 83 217 41 47 54
102 82 218 38 45 53
102 82 219 38 45 53
102 83 219 40 45 52
103 82 218 37 45 53
103 83 218 40 46 53
103 83 219 41 46 51
100 80 221 48 57 67
100 81 221 42 52 63
101 80 220 44 54 65
101 80 221 48 57 67
101 81 220 29 42 54
101 81 221 33 45 57
100 80 222 45 54 65
100 81 222 41 52 62
100 81 223 42 52 63
101 82 220 32 43 53
101 82 221 31 43 54
101 83 221 35 45 54
100 82 222 34 45 56
100 82 223 36 46 57
100 83 222 36 45 55
100 83 223 35 44 53
101 83 222 37 45 54
102 80 220 34 47 59
102 81 220 30 43 54
102 82 220 34 44 53
102 83 220 40 45 52
102 83 221 37 44 52
103 84 216 38 45 52
103 84 217 40 46 53
103 85 216 38 44 52
103 85 217 39 45 51
103 84 218 41 46 52
103 84 219 41 45 51
103 85 218 39 45 52
103 85 219 40 45 51
103 86 219 38 44 51
101 84 221 35 43 51
100 84 223 38 44 52
100 85 223 36 42 50
101 84 222 37 44 52
101 84 223 39 45 52
101 85 222 38 43 50
101 85 223 37 43 50
101 86 223 38 44 50
102 84 220 42 45 50
102 84 221 39 44 51
102 85 221 40 45 52
103 84 220 43 46 51
103 85 220 42 46 51
103 85 221 42 46 51
102 85 222 38 43 50
102 86 221 41 46 51
103 86 220 41 46 51
103 86 221 42 46 51
103 87 220 38 44 52
103 87 221 38 44 51
102 86 222 40 45 51
102 86 223 38 44 51
102 87 222 38 44 51
102 87 223 36 42 50
103 87 222 37 44 51
103 88 220 35 43 52
103 88 221 36 44 52
103 89 221 37 44 52
102 88 223 35 42 50
102 89 223 34 42 50
103 88 222 37 44 51
103 88 223 36 43 51
103 89 222 38 44 52
103 89 223 35 43 51
103 90 222 37 44 51
103 90 223 36 42 50
103 91 222 35 42 49
103 91 223 35 42 49
104 84 208 41 47 53
104 84 209 40 46 53
104 85 208 42 47 54
104 85 209 40 46 53
104 84 210 39 46 53
104 85 210 38 45 53
104 85 211 39 46 53
104 86 208 41 46 53
104 86 209 40 46 53
105 87 208 41 47 54
105 87 209 41 48 55
104 86 210 39 45 53
104 86 211 38 45 53
105 87 210 40 47 54
105 87 211 38 45 53
104 85 212 37 44 52
104 85 213 34 44 53
104 85 214 34 45 56
104 85 215 36 43 52
104 86 212 37 44 52
104 86 213 37 44 52
104 87 213 37 44 52
105 86 212 37 45 53
105 87 212 37 44 52
105 87 213 38 44 52
104 86 214 36 45 53
104 86 215 35 45 54
104 87 214 37 44 51
104 87 215 37 44 52
105 87 214 37 44 51
105 87 215 37 44 51
104 85 216 38 44 52
104 85 217 38 44 51
104 86 216 37 44 52
104 86 217 39 45 52
104 87 216 37 44 52
104 87 217 39 45 53
105 87 216 36 44 51
105 87 217 37 44 52
104 86 218 39 45 53
104 86 219 38 45 52
104 87 218 39 46 54
104 87 219 38 45 54
104 87 220 36 44 53
105 88 208 40 46 53
105 88 209 39 46 54
105 88 210 40 47 54
105 88 211 37 45 52
106 88 208 39 45 53
106 88 209 38 46 53
106 89 208 38 46 53
106 89 209 37 44 52
106 88 210 39 46 54
106 89 210 37 45 53
106 89 211 38 45 53
106 90 208 42 49 57
106 90 209 38 46 54
107 91 208 42 50 58
107 91 209 40 47 55
106 90 210 37 45 53
106 90 211 37 45 53
107 91 210 38 46 54
107 91 211 39 46 54
105 88 212 36 44 52
105 88 213 37 44 52
105 88 214 37 44 52
105 88 215 37 44 51
105 89 214 37 44 52
105 89 215 37 44 51
106 89 212 36 43 52
106 89 213 36 43 51
106 89 214 37 44 51
106 89 215 37 44 52
106 90 212 37 45 53
106 90 213 35 43 51
106 91 212 37 44 52
106 91 213 35 43 51
107 91 212 37 44 52
106 90 214 35 43 51
106 90 215 37 44 51
106 91 214 35 43 50
106 91 215 35 43 51
107 92 208 45 51 59
107 92 209 43 50 58
107 93 208 43 49 57
107 93 209 42 49 57
107 92 210 40 47 55
107 92 211 39 46 54
107 93 210 42 48 56
107 93 211 40 47 55
107 92 212 37 44 52
107 92 213 35 43 51
107 93 212 38 45 53
107 93 213 37 44 52
106 92 214 35 42 50
106 92 215 35 42 50
107 92 214 36 43 51
107 92 215 35 43 51
107 93 214 36 43 51
107 93 215 36 43 51
107 94 212 39 45 53
107 94 213 37 44 51
107 94 214 36 43 51
107 94 215 36 43 51
107 95 214 36 43 50
107 95 215 36 43 51
108 94 208 37 44 52
108 94 209 37 45 53
108 95 208 37 43 50
108 95 209 36 44 51
108 94 210 39 46 54
108 94 211 39 46 53
108 95 210 37 44 51
108 95 211 37 44 51
108 94 212 38 45 52
108 94 213 37 44 51
108 95 212 37 44 51
108 95 213 37 44 51
108 95 214 36 43 50
108 95 215 35 43 50
105 88 216 36 43 51
105 88 217 36 44 52
105 89 216 35 42 50
105 89 217 35 43 51
104 88 218 37 44 52
104 88 219 37 44 52
104 89 219 35 43 51
105 88 218 35 43 52
105 89 218 35 43 51
105 89 219 34 42 50
105 90 216 35 42 50
105 90 217 36 43 51
105 91 217 36 43 51
104 90 219 36 43 51
104 91 219 35 42 50
105 90 218 36 43 51
105 90 219 35 43 50
105 91 218 36 43 50
105 91 219 35 42 50
106 90 216 36 43 51
106 91 216 36 43 51
106 91 217 35 43 51
106 91 218 36 43 51
104 88 220 35 43 52
104 89 220 35 43 50
104 89 221 37 44 51
104 90 220 36 43 50
104 90 221 36 43 50
104 91 220 35 42 50
104 91 221 35 42 49
104 90 222 36 43 50
104 91 222 35 42 50
104 91 223 34 41 48
105 92 219 35 42 49
105 93 219 36 43 50
106 92 216 34 42 50
106 92 217 35 42 50
106 93 216 34 41 49
106 93 217 33 41 49
107 93 216 34 42 50
106 92 218 36 43 51
106 92 219 36 43 51
106 93 218 35 43 51
106 93 219 36 43 51
106 94 217 32 41 49
107 94 216 36 43 51
107 94 217 33 41 49
107 95 216 36 43 51
107 95 217 36 43 50
106 94 218 35 42 50
106 94 219 36 43 51
106 95 219 36 43 51
107 94 218 34 42 50
107 95 218 35 43 50
107 95 219 36 43 51
104 92 220 35 41 48
104 92 221 34 41 48
105 92 220 35 42 49
105 92 221 34 41 48
105 93 220 36 43 50
105 93 221 35 42 49
104 92 222 33 40 48
104 92 223 34 40 47
104 93 223 33 40 46
105 93 222 33 40 47
105 93 223 33 40 47
105 94 221 35 41 49
105 94 222 33 40 48
105 94 223 33 40 48
106 94 220 36 43 50
106 94 221 35 42 49
106 95 220 36 43 51
106 95 221 35 42 50
107 95 220 35 43 50
107 95 221 35 43 50
106 94 222 34 41 48
106 95 222 34 41 49
106 95 223 34 41 49
108 95 216 34 42 50
96 74 225 75 79 85
97 74 225 72 75 81
97 75 224 82 78 78
97 75 225 80 76 76
96 74 226 76 79 85
96 74 227 73 76 82
96 75 226 74 73 76
96 75 227 74 73 76
97 75 226 81 76 74
98 75 224 78 75 75
96 75 228 75 75 77
97 76 224 76 72 72
97 76 225 70 66 65
97 77 225 46 45 45
96 76 227 79 74 72
96 77 227 66 62 61
97 76 226 74 69 68
97 76 227 74 69 68
97 77 226 51 49 48
97 77 227 56 53 52
97 78 225 41 44 48
96 79 227 44 48 53
97 78 226 43 45 48
97 78 227 47 46 48
97 79 226 42 47 54
97 79 227 44 48 52
98 76 224 62 60 60
98 77 224 46 47 50
98 77 225 45 44 46
98 78 224 42 47 55
98 78 225 41 45 51
98 79 224 42 51 60
98 79 225 40 47 55
99 79 224 44 53 63
96 76 228 78 75 75
96 76 229 80 77 78
96 77 228 63 60 59
96 77 229 69 67 67
96 77 230 73 71 72
96 78 228 50 50 52
96 78 229 53 53 54
96 79 228 48 51 55
96 79 229 50 53 57
96 78 230 55 54 56
96 80 227 43 48 54
96 81 227 45 53 61
97 80 226 42 50 59
97 80 227 42 49 57
97 81 226 46 54 63
97 81 227 44 52 61
96 82 227 47 54 62
96 83 227 41 48 56
97 82 226 48 55 64
97 82 227 48 55 63
97 83 226 37 45 54
97 83 227 39 46 54
98 80 224 46 56 66
98 80 225 42 52 62
98 81 224 47 57 68
98 81 225 49 57 67
99 80 224 44 54 65
99 81 224 43 54 65
98 82 225 42 52 62
98 83 224 32 44 55
98 83 225 32 43 53
99 82 224 32 45 57
99 83 224 32 43 53
96 80 228 44 51 58
96 80 229 48 53 60
96 81 228 45 53 61
96 82 228 47 54 62
96 83 228 39 46 54
96 84 227 32 39 46
96 85 227 34 40 47
97 84 226 33 41 49
97 84 227 33 40 47
97 85 226 33 40 47
97 85 227 34 40 47
96 86 227 34 41 48
97 86 227 34 41 48
97 87 227 32 40 48
98 84 225 34 42 50
99 84 224 35 44 52
99 84 225 34 43 52
99 85 224 36 44 52
99 85 225 33 42 50
98 84 226 35 42 49
98 85 226 33 40 47
99 86 225 34 42 50
98 86 226 34 41 48
98 86 227 34 41 48
98 87 226 33 40 48
98 87 227 33 40 48
99 86 226 34 41 49
99 87 226 34 42 50
96 84 228 31 39 47
96 85 228 35 42 49
96 86 228 36 43 50
96 87 228 34 42 50
96 87 229 34 43 51
97 87 228 33 41 49
100 84 224 36 44 52
100 85 224 37 43 51
100 86 224 37 43 50
100 86 225 35 42 50
100 87 225 35 43 51
101 86 224 37 43 51
101 86 225 36 43 50
101 87 224 35 42 50
101 87 225 34 42 50
100 87 226 35 43 51
102 87 224 36 43 50
98 88 227 32 40 48
99 88 226 33 40 49
99 88 227 32 40 48
99 89 227 32 40 49
96 88 229 36 44 53
96 89 229 35 44 53
97 88 228 33 42 50
97 88 229 35 44 52
97 89 228 33 41 50
97 89 229 34 42 51
96 89 230 35 44 53
97 90 229 34 42 50
97 91 229 34 41 48
96 90 230 34 43 51
96 90 231 37 43 51
96 91 230 34 42 50
96 91 231 36 42 50
97 90 230 34 42 50
97 91 230 33 41 49
98 88 228 32 40 48
98 89 228 33 40 48
99 89 228 32 40 48
98 90 228 33 41 48
98 90 229 34 41 49
98 91 229 33 41 48
99 90 228 32 40 49
99 91 228 33 41 49
99 91 229 33 40 48
96 92 230 33 40 49
96 92 231 34 40 48
96 93 231 35 41 49
97 92 230 33 41 49
97 93 230 34 41 49
97 93 231 35 42 50
97 94 231 36 43 50
98 92 229 32 40 48
98 93 229 33 40 48
99 92 228 33 41 48
99 92 229 33 40 48
99 93 229 34 41 49
98 93 230 33 41 48
99 94 229 34 41 49
98 94 230 34 41 49
98 94 231 35 42 50
98 95 230 34 41 49
98 95 231 35 42 50
99 94 230 34 41 49
99 95 230 34 41 49
101 88 225 34 42 50
100 88 226 34 42 51
100 89 226 33 42 50
100 89 227 32 40 49
101 88 226 33 42 50
101 89 226 33 42 50
100 90 227 31 40 49
101 90 227 31 41 49
101 91 227 30 39 48
102 88 224 33 41 49
102 89 224 32 41 49
102 89 225 33 41 49
103 89 224 34 41 50
102 89 226 35 43 51
102 90 225 34 42 50
103 90 224 34 42 49
103 90 225 35 42 49
103 91 224 34 41 48
103 91 225 35 41 48
102 90 226 35 42 50
102 90 227 34 42 50
102 91 226 36 42 50
102 91 227 34 42 49
103 91 226 36 42 49
100 90 228 31 40 48
100 91 228 31 40 48
101 91 228 30 39 48
103 92 225 35 42 49
102 92 227 35 42 50
103 92 226 35 42 49
103 92 227 35 42 49
103 93 227 35 41 48
103 94 227 36 42 49
100 92 228 34 41 49
100 92 229 34 41 48
100 93 228 34 42 49
100 93 229 34 42 49
101 92 228 33 41 49
101 93 228 34 41 49
100 94 229 35 42 49
100 95 229 35 42 49
101 94 228 35 42 49
101 94 229 35 42 49
101 95 229 35 42 49
100 95 230 35 42 49
102 92 228 34 41 49
102 93 228 35 42 49
103 93 228 35 42 49
102 94 228 35 42 49
102 94 229 35 42 50
102 95 229 36 43 50
103 94 228 35 42 49
103 95 228 36 43 50
103 95 229 37 43 50
96 93 232 34 41 49
96 93 233 34 41 48
96 94 232 36 43 50
96 94 233 34 41 49
97 94 232 37 43 50
97 95 232 36 43 50
97 95 233 35 42 50
96 94 234 35 42 49
96 94 235 36 42 50
96 95 234 35 42 50
96 95 235 34 42 49
97 95 234 34 42 49
97 95 235 34 41 49
98 95 232 35 42 50
96 94 236 37 43 49
96 94 237 37 43 49
96 95 236 36 42 50
96 95 237 37 43 50
96 94 238 36 43 49
96 95 238 36 43 50
96 95 239 37 44 52
104 92 224 34 40 47
104 92 225 35 41 48
104 93 224 34 40 47
104 93 225 34 40 47
105 93 224 34 40 47
105 93 225 35 40 47
104 92 226 34 41 48
104 93 226 35 41 48
104 93 227 35 41 48
105 94 224 34 41 48
105 94 225 36 42 48
105 95 224 34 41 48
105 95 225 35 41 48
104 94 226 36 42 49
104 94 227 37 43 50
104 95 226 37 43 50
104 95 227 36 43 50
105 94 226 37 43 49
105 95 226 36 42 49
106 95 224 34 42 49
106 95 225 35 41 49
104 94 228 36 42 49
104 95 228 36 42 49
103 99 192 36 40 46
103 100 192 35 40 46
105 96 193 37 41 45
105 97 192 38 41 45
105 97 193 37 41 45
105 96 194 36 40 45
105 96 195 35 40 45
104 98 192 37 41 45
104 99 192 36 41 46
105 98 192 36 40 45
105 98 193 36 40 45
105 99 192 36 40 45
105 99 193 36 40 46
106 97 193 37 41 45
106 96 194 35 40 45
106 96 195 35 40 45
106 97 194 36 41 46
106 97 195 36 40 46
106 98 193 36 40 45
106 99 193 36 40 46
106 98 194 36 40 46
106 98 195 36 41 47
106 99 194 36 41 47
106 99 195 36 42 48
107 99 195 37 42 48
105 96 196 35 40 46
105 96 197 35 40 46
106 96 196 35 40 46
106 96 197 36 41 47
106 97 196 35 41 47
106 97 197 37 42 49
106 96 198 38 44 50
106 96 199 40 45 51
106 97 198 39 44 50
106 97 199 40 45 51
107 97 199 39 45 52
106 98 196 38 43 49
106 98 197 39 44 49
107 98 197 40 44 50
107 99 196 39 44 49
107 99 197 41 46 52
107 98 198 40 45 51
107 98 199 40 46 52
107 99 198 41 46 52
107 99 199 40 46 52
104 100 192 35 40 46
104 100 193 36 41 47
104 101 192 35 40 46
104 101 193 37 41 47
105 100 193 36 41 46
105 101 193 37 41 47
104 100 194 36 41 47
105 100 194 36 41 47
105 101 194 37 41 47
104 102 192 37 41 47
104 102 193 37 42 47
105 102 193 38 43 48
105 103 193 37 42 47
105 102 194 39 43 49
106 100 193 36 40 46
106 100 194 37 41 47
106 101 194 39 44 49
107 100 194 38 43 48
107 100 195 39 44 50
107 101 194 41 46 51
107 101 195 41 46 52
106 102 193 40 44 50
106 103 193 40 45 51
107 103 193 41 46 52
106 102 194 40 44 50
107 102 194 40 45 51
107 103 194 40 46 52
107 100 196 41 46 52
107 100 197 43 48 54
108 99 198 42 47 53
108 99 199 40 45 52
108 101 195 43 47 53
108 102 194 40 45 51
108 102 195 44 49 54
108 103 194 42 48 54
108 103 195 44 49 55
109 103 195 43 48 54
108 100 196 43 48 54
108 100 197 43 48 54
108 101 196 43 48 53
108 101 197 41 47 53
109 101 197 40 46 53
108 100 198 41 47 53
108 100 199 40 46 52
108 101 198 40 46 52
108 101 199 40 45 52
109 101 198 40 46 52
109 101 199 39 45 51
108 102 196 44 49 55
109 102 196 42 47 53
109 102 197 41 46 53
109 103 196 42 47 54
109 103 197 39 45 52
109 102 198 39 45 52
109 102 199 38 44 51
109 103 198 38 44 51
109 103 199 37 43 50
106 96 200 40 45 51
107 96 200 40 46 52
107 96 201 40 46 52
107 97 200 40 46 52
107 97 201 40 46 53
107 96 202 40 46 52
107 96 203 40 45 51
107 97 202 40 46 52
107 98 200 40 46 52
108 96 202 40 45 51
108 96 203 41 46 52
108 97 202 40 45 51
108 97 203 39 45 51
108 98 200 40 46 52
108 98 201 40 46 52
108 99 200 39 45 52
108 99 201 39 45 51
108 98 202 39 45 51
108 98 203 37 43 50
108 99 202 38 44 51
109 98 203 37 43 50
109 99 202 37 43 49
109 99 203 37 43 49
108 96 204 42 47 53
108 96 205 46 50 55
108 97 204 41 46 52
108 97 205 47 51 56
108 96 206 47 51 56
108 96 207 42 46 52
108 97 206 47 50 55
108 97 207 44 48 53
109 97 207 42 46 51
108 98 204 39 45 51
109 98 204 38 44 50
109 98 205 42 46 52
109 99 204 37 43 50
109 99 205 39 44 50
109 98 206 42 46 52
109 98 207 42 46 51
109 99 206 40 45 50
109 99 207 40 45 50
108 100 200 40 46 52
109 100 200 39 45 51
109 100 201 39 44 50
109 101 200 39 44 51
109 101 201 39 44 50
109 100 202 37 43 49
109 100 203 36 42 48
109 101 202 36 42 48
109 101 203 35 40 46
109 102 200 37 43 49
109 102 201 36 42 48
109 103 200 36 42 48
109 103 201 35 41 47
109 102 202 35 41 47
109 102 203 34 40 46
110 103 201 35 40 46
110 102 202 36 41 46
110 102 203 34 39 46
110 103 202 36 41 46
110 103 203 35 40 46
109 100 204 35 41 47
109 100 205 37 42 47
109 101 204 35 40 46
109 101 205 35 40 46
109 100 206 38 42 48
109 100 207 37 42 47
109 101 206 36 40 45
109 101 207 36 40 46
109 102 204 34 40 46
109 102 205 34 39 45
109 102 206 35 39 45
109 102 207 35 39 45
110 102 204 33 38 45
110 102 205 34 39 45
110 103 204 34 40 46
110 103 205 36 41 47
110 102 206 35 40 45
110 102 207 35 40 46
110 103 206 37 42 48
110 103 207 39 44 50
109 104 195 42 47 54
109 104 196 40 46 53
109 104 197 38 44 51
109 105 196 39 44 51
109 105 197 37 43 49
109 104 198 37 43 49
109 104 199 36 42 49
109 105 198 37 42 49
110 105 197 37 42 48
110 104 199 36 42 48
110 105 198 37 42 48
110 105 199 36 41 46
110 106 198 36 41 46
110 106 199 36 40 45
111 106 199 36 41 46
111 107 199 37 41 46
110 104 200 36 41 47
110 104 201 35 40 46
110 105 200 36 40 46
110 105 201 36 41 46
110 104 202 35 40 46
110 104 203 37 41 47
110 105 202 36 41 47
110 105 203 38 42 48
111 105 202 37 43 50
111 105 203 39 44 49
110 106 200 38 42 47
111 106 200 37 41 46
111 106 201 38 42 48
111 107 200 39 43 48
111 107 201 39 44 49
111 106 202 38 43 49
111 106 203 38 43 49
111 107 202 38 44 51
111 107 203 37 43 50
110 104 204 38 43 49
110 104 205 38 43 50
110 105 204 38 43 49
110 105 205 38 43 50
111 105 204 37 43 50
111 105 205 38 44 51
110 104 206 39 45 51
110 104 207 42 47 53
111 104 207 42 48 54
111 105 206 39 45 53
111 105 207 41 47 55
111 106 204 37 43 49
111 106 205 37 44 51
111 107 204 36 43 50
111 107 205 38 45 52
111 106 206 39 46 54
111 106 207 40 48 55
111 107 206 38 46 54
111 108 200 40 44 50
111 108 201 39 45 51
111 108 202 39 45 51
111 108 203 38 45 52
108 96 208 38 43 49
108 96 209 36 43 50
108 97 208 39 43 49
108 97 209 37 42 49
109 97 208 40 44 49
109 97 209 38 43 50
108 96 210 35 42 49
108 96 211 35 42 49
108 97 210 35 42 49
108 97 211 34 41 48
109 97 210 36 42 49
109 97 211 34 41 48
109 98 208 41 45 50
109 98 209 40 44 50
109 99 208 39 43 48
109 99 209 38 43 48
109 98 210 39 44 50
109 98 211 37 43 49
109 99 210 38 43 49
109 99 211 37 42 48
108 96 212 36 43 50
108 96 213 36 43 50
108 97 212 35 41 48
108 97 213 35 42 49
108 96 214 35 42 50
108 96 215 35 42 50
108 97 214 35 42 50
108 97 215 36 43 51
108 98 212 35 41 48
108 98 213 35 41 48
109 98 212 37 42 49
109 98 213 36 42 49
109 99 212 37 42 48
109 99 213 36 42 48
108 98 214 35 42 49
108 98 215 34 41 49
109 98 214 35 42 49
109 99 214 35 41 48
109 99 215 34 41 48
109 100 208 36 41 46
109 100 209 35 41 47
109 101 208 36 41 46
109 101 209 34 39 45
109 100 210 37 41 47
109 100 211 36 41 46
109 101 210 36 40 45
109 101 211 36 39 44
109 102 208 34 39 45
109 102 209 32 38 43
109 102 210 34 38 43
109 102 211 34 39 44
110 102 208 34 39 45
110 102 209 33 39 45
110 103 208 39 44 50
110 103 209 39 44 49
110 102 210 33 38 43
110 103 210 36 42 47
110 103 211 35 41 46
109 100 212 36 41 46
109 100 213 35 40 47
109 101 212 36 40 45
109 101 213 36 40 45
109 100 214 35 41 47
109 100 215 35 41 48
109 101 214 35 40 45
109 101 215 34 39 45
109 102 212 34 38 42
109 102 213 33 38 42
109 103 212 33 37 42
109 103 213 33 37 42
109 102 214 33 38 42
109 102 215 33 37 41
109 103 214 32 37 42
109 103 215 32 36 41
110 103 212 35 40 45
110 103 213 35 39 44
110 103 214 33 37 43
110 103 215 33 38 43
107 96 217 35 43 50
107 96 218 35 42 50
107 96 219 34 42 50
107 97 219 34 42 49
107 96 220 35 42 50
107 96 221 35 42 50
107 97 220 34 42 50
107 97 221 34 42 49
106 96 223 36 43 50
107 96 222 35 42 49
107 96 223 35 42 50
107 97 222 33 41 48
107 97 223 34 41 49
107 98 222 33 41 48
107 98 223 33 41 48
108 96 216 35 42 50
108 96 217 35 42 50
108 97 216 35 42 50
108 97 217 34 41 49
108 96 218 34 41 49
108 97 218 33 41 49
108 97 219 34 41 49
108 98 216 34 41 49
108 98 217 34 41 49
108 99 216 31 39 47
108 99 217 33 40 48
109 99 216 32 39 47
109 99 217 32 40 47
108 98 218 32 40 48
108 98 219 32 40 48
108 99 218 33 40 48
108 99 219 32 40 47
109 99 218 32 40 47
108 97 220 34 42 50
108 98 220 33 41 49
108 98 221 34 41 49
108 99 220 31 39 47
108 99 221 32 40 48
108 98 222 33 41 48
108 98 223 33 40 48
108 99 222 32 40 47
108 99 223 32 40 47
109 100 216 34 40 47
109 100 217 33 40 47
109 101 216 33 38 44
109 101 217 32 37 43
108 100 219 32 40 47
109 100 218 32 40 48
109 100 219 32 40 48
109 101 218 31 37 44
109 101 219 30 37 45
109 102 216 32 36 40
109 102 217 32 36 41
109 103 216 32 36 41
109 103 217 30 35 41
109 102 218 31 36 41
109 102 219 30 36 41
109 103 218 29 34 40
109 103 219 28 34 40
108 100 220 32 40 48
108 100 221 33 41 49
109 100 220 32 40 48
109 101 220 31 39 46
109 101 221 31 39 47
108 100 222 34 41 48
108 100 223 33 41 48
108 101 222 34 41 48
108 101 223 34 41 48
109 101 222 32 39 47
109 101 223 33 40 46
109 102 220 31 36 43
109 102 221 31 38 45
109 103 220 29 35 41
109 103 221 30 36 42
108 102 223 34 40 46
109 102 222 32 39 45
109 102 223 33 39 45
109 103 222 31 37 43
109 103 223 31 37 43
110 104 208 44 49 56
110 104 209 44 49 55
111 104 208 46 51 57
111 104 209 46 51 57
111 105 208 44 50 57
111 105 209 45 51 58
110 104 210 40 46 52
110 104 211 40 45 51
111 104 210 44 49 55
111 104 211 41 46 52
111 105 210 44 50 56
111 105 211 43 48 54
111 106 208 46 53 60
111 106 209 43 50 58
110 104 212 39 44 50
110 104 213 39 44 49
111 104 212 40 46 52
111 104 213 40 45 50
111 105 212 40 46 53
111 105 213 41 46 53
110 104 214 37 41 47
110 104 215 35 40 45
111 104 214 39 44 50
111 105 214 41 46 52
111 105 215 38 43 49
111 106 214 41 46 53
111 106 215 40 45 51
110 104 216 34 38 44
110 104 217 33 38 43
111 104 217 35 40 45
111 105 216 37 42 48
111 105 217 36 41 47
110 104 218 32 38 44
110 104 219 32 38 44
111 104 218 34 39 45
111 104 219 33 39 46
