ply
format ascii 1.0
comment PCL generated
element vertex 2079
property float x
property float y
property float z
property uchar red
property uchar green
property uchar blue
element camera 0
property float view_px
property float view_py
property float view_pz
property float x_axisx
property float x_axisy
property float x_axisz
property float y_axisx
property float y_axisy
property float y_axisz
property float z_axisx
property float z_axisy
property float z_axisz
property float focal
property float scalex
property float scaley
property float centerx
property float centery
property int viewportx
property int viewporty
property float k1
property float k2
end_header
123 625 215 86 90 98
122 626 213 85 90 98
122 627 213 84 89 97
123 627 213 84 89 98
122 626 214 84 89 97
122 627 214 84 89 97
123 626 214 84 88 96
123 626 215 84 88 96
123 627 214 85 89 98
120 628 211 89 95 105
120 629 211 97 104 115
121 629 211 101 107 118
120 630 211 108 115 126
120 631 210 112 118 130
120 631 211 112 119 130
121 630 211 113 119 131
121 631 211 114 120 131
120 628 212 89 94 104
121 628 212 89 95 105
121 628 213 85 91 100
121 629 212 98 104 115
121 630 212 110 116 127
121 631 212 110 116 127
122 628 212 88 94 104
122 628 213 85 91 100
122 629 212 92 98 108
123 628 213 87 92 101
123 629 212 92 97 107
123 629 213 88 94 103
122 630 212 102 108 118
122 631 212 101 107 118
123 630 212 93 98 107
123 631 212 91 97 107
124 624 215 91 96 104
124 625 215 88 93 101
125 625 215 86 90 98
124 626 214 83 88 97
124 626 215 84 88 97
124 627 214 86 92 101
125 626 215 83 88 96
125 627 214 89 95 105
125 627 215 87 92 102
126 626 215 80 85 94
126 627 215 83 89 97
127 627 215 78 83 92
124 628 213 92 96 105
124 629 213 88 93 102
125 629 213 90 95 104
124 628 214 92 97 106
125 628 214 93 98 108
125 629 214 94 99 109
124 630 212 87 92 101
124 630 213 85 90 98
124 631 212 84 89 97
125 630 213 84 89 98
125 631 212 81 85 94
125 631 213 81 86 94
126 628 214 90 96 106
126 628 215 88 93 102
126 629 214 90 96 106
127 628 215 82 87 96
127 629 214 84 89 99
127 629 215 81 86 95
126 630 213 85 90 100
126 631 213 79 84 93
127 630 213 80 85 95
127 631 213 77 82 91
127 630 214 83 88 98
127 631 214 78 83 92
124 624 216 96 100 109
125 624 216 91 95 104
125 625 216 85 90 98
125 626 216 81 85 93
126 624 216 81 86 94
126 625 216 78 83 91
127 624 216 75 80 88
127 624 217 75 79 87
127 625 216 73 78 86
126 626 216 78 83 91
127 626 216 74 79 87
127 627 216 76 80 88
120 633 209 104 110 121
120 632 210 109 116 127
120 632 211 107 114 125
120 633 210 102 109 120
121 632 211 104 111 122
121 633 211 95 101 112
120 634 209 96 101 111
120 635 208 94 99 109
120 635 209 94 99 108
120 634 210 94 99 109
121 634 210 92 97 107
121 634 211 90 95 105
121 635 210 91 96 105
121 635 211 89 94 103
122 632 211 94 100 111
122 633 211 90 96 106
123 633 211 86 92 102
122 634 211 86 92 101
122 635 211 86 91 100
123 634 211 83 89 99
123 635 211 84 90 99
122 632 212 95 102 112
123 632 212 89 95 105
123 633 212 86 92 101
123 634 212 84 90 99
120 636 208 97 102 112
120 636 209 94 100 109
120 637 208 97 102 112
120 637 209 93 99 109
121 636 209 90 95 104
121 637 208 92 97 107
121 637 209 91 96 105
121 636 210 89 94 103
120 638 208 90 97 107
121 638 208 87 94 104
121 638 209 87 92 101
121 639 208 83 89 98
122 637 209 90 94 102
122 636 210 87 92 101
122 637 210 89 94 102
123 636 210 86 91 100
123 636 211 85 90 100
123 637 210 86 91 99
122 638 209 86 90 98
122 639 208 83 87 95
122 639 209 83 88 96
123 638 209 84 88 96
123 639 209 83 87 95
123 638 210 85 89 97
124 634 211 82 88 98
124 635 211 84 90 100
124 632 212 83 88 97
124 633 212 83 88 97
125 632 212 80 84 93
125 632 213 80 85 93
125 633 212 80 85 94
124 634 212 82 88 97
124 635 212 84 90 99
125 634 212 81 87 96
125 635 212 87 92 102
126 632 213 78 82 91
126 633 212 78 83 92
126 633 213 77 82 90
127 632 213 76 81 89
127 633 213 76 81 90
126 634 212 83 88 97
126 634 213 78 84 92
126 635 212 89 94 104
127 634 213 81 86 95
127 635 212 92 97 106
127 635 213 89 95 105
124 636 211 84 90 100
124 637 210 82 88 96
124 637 211 82 87 97
125 636 211 88 94 103
125 637 211 84 90 100
124 639 209 82 86 94
124 638 210 80 85 93
124 639 210 79 84 92
125 638 210 81 86 95
125 638 211 83 89 98
125 639 210 78 83 92
126 637 211 91 96 106
126 638 211 87 93 102
126 639 210 77 82 91
126 639 211 80 86 95
127 638 211 90 96 105
127 639 211 80 85 94
125 636 212 90 95 105
126 636 212 93 98 108
126 637 212 94 99 109
127 636 212 95 101 111
127 637 212 98 103 113
127 638 212 96 102 111
127 640 171 103 110 121
127 640 172 103 110 122
127 640 173 104 111 122
127 641 172 105 113 125
127 641 173 105 112 124
126 640 174 102 108 119
126 640 175 100 107 117
126 641 174 103 110 121
126 641 175 103 110 121
127 640 174 102 109 120
127 641 174 104 111 122
127 642 173 109 115 126
127 643 173 109 115 126
126 642 175 104 111 123
127 642 174 105 112 123
127 642 175 105 112 124
127 643 174 105 112 124
127 643 175 104 111 123
127 644 174 102 109 121
127 644 175 100 108 120
127 645 175 99 107 118
125 640 178 101 107 118
125 640 179 98 105 116
125 641 178 103 110 121
125 641 179 102 109 121
125 642 178 107 114 125
125 642 179 105 112 123
125 643 179 105 112 124
126 640 176 104 109 119
126 640 177 104 110 120
126 641 176 107 114 124
126 641 177 108 114 125
126 640 178 103 109 120
126 641 178 105 112 123
126 642 176 104 111 122
126 642 177 107 114 125
126 643 176 103 110 121
126 643 177 109 115 126
126 642 178 108 115 126
126 643 178 106 113 125
125 640 180 93 101 112
125 640 181 90 97 108
125 641 180 97 105 116
125 641 181 94 101 112
125 640 182 89 95 105
125 640 183 89 95 105
125 641 182 90 97 107
125 641 183 88 94 104
125 642 180 104 111 122
125 642 181 101 108 119
125 643 180 103 110 121
125 643 181 104 111 122
125 642 182 98 104 115
125 642 183 92 98 108
125 643 182 101 107 118
125 643 183 94 100 110
125 644 179 102 109 120
125 645 179 100 106 116
126 644 176 105 111 123
126 644 177 107 113 125
126 645 176 107 113 124
126 645 177 103 109 120
127 644 176 103 110 122
127 645 176 105 111 122
126 644 178 102 109 121
126 644 179 102 108 119
126 645 178 100 106 117
126 645 179 100 105 116
126 646 177 99 105 115
127 646 176 100 106 117
127 646 177 99 106 117
127 647 176 98 105 116
127 647 177 99 106 117
126 646 178 97 103 114
126 646 179 96 102 113
126 647 178 100 106 117
126 647 179 97 103 114
125 644 180 101 107 118
125 644 181 102 108 119
125 645 180 100 105 115
125 645 181 99 105 114
124 644 183 92 98 108
124 645 183 92 98 107
125 644 182 98 105 115
125 644 183 94 101 111
125 645 182 95 101 110
125 645 183 93 99 108
125 646 180 99 104 114
125 646 181 96 101 110
125 647 180 96 102 112
125 647 181 93 99 109
124 646 183 92 97 107
124 647 183 90 96 106
125 646 182 94 99 109
125 646 183 92 98 107
125 647 182 91 97 107
125 647 183 90 96 106
126 646 180 97 103 113
126 647 180 97 103 113
123 640 190 82 88 98
123 640 191 83 89 99
123 641 190 85 90 99
123 641 191 85 90 99
123 642 190 85 91 100
123 642 191 87 92 101
123 643 190 87 94 103
123 643 191 87 93 103
123 644 190 95 101 111
123 644 191 95 101 112
123 645 191 100 106 117
123 646 191 99 106 116
124 641 185 85 90 99
125 640 184 91 96 106
125 640 185 91 96 106
125 641 184 87 92 102
125 641 185 87 92 101
124 640 186 88 94 103
124 640 187 84 90 100
124 641 186 83 88 97
124 641 187 81 87 96
124 642 184 87 93 102
124 642 185 85 91 100
124 643 184 89 95 105
124 643 185 86 92 101
125 642 184 89 94 104
125 643 184 92 97 107
124 642 186 84 89 98
124 642 187 82 88 96
124 643 186 83 89 98
124 643 187 83 89 98
124 640 188 83 90 99
124 640 189 83 89 99
124 641 188 82 88 97
124 641 189 82 89 98
124 640 190 82 89 98
124 641 190 83 89 99
124 642 188 83 88 97
124 642 189 84 90 99
124 643 188 87 92 101
124 643 189 87 92 100
124 642 190 85 91 100
124 643 190 87 93 102
124 644 184 90 96 105
124 644 185 85 91 100
124 645 184 89 94 104
124 645 185 85 91 100
124 644 186 83 89 98
124 644 187 85 91 100
124 645 186 84 90 99
124 645 187 85 91 100
124 646 184 88 94 103
124 646 185 85 90 99
124 647 184 89 94 104
124 647 185 87 92 101
124 646 186 84 90 98
124 646 187 85 91 100
124 647 186 86 91 100
124 647 187 86 91 100
124 644 188 90 95 103
124 644 189 94 99 108
124 645 188 90 95 104
124 645 189 93 99 108
124 644 190 96 102 112
124 645 190 98 104 114
124 645 191 100 106 116
124 646 188 89 95 104
124 646 189 94 100 109
124 647 188 89 94 103
124 647 189 93 99 108
124 646 190 98 104 114
124 646 191 98 105 115
124 647 190 95 100 110
124 647 191 95 101 110
127 648 176 99 105 116
127 648 177 101 108 119
127 649 177 101 107 118
126 648 178 105 112 123
126 648 179 103 109 119
126 649 179 104 110 122
127 648 178 104 111 122
127 649 178 103 109 120
127 649 179 102 109 120
126 650 179 102 108 119
126 651 179 96 102 113
127 650 178 97 102 113
127 650 179 97 103 114
127 651 178 93 99 109
127 651 179 94 100 110
125 648 180 97 103 113
125 648 181 95 102 112
125 649 181 103 110 121
124 648 183 92 98 107
124 649 183 94 100 110
125 648 182 93 99 109
125 648 183 92 98 108
125 649 182 98 104 115
125 649 183 96 102 112
125 650 181 110 116 127
125 651 181 106 113 123
124 650 183 97 103 113
125 650 182 107 112 123
125 650 183 101 107 118
126 648 180 101 107 118
126 649 180 105 111 122
126 650 180 103 109 120
126 650 181 108 114 125
126 651 180 96 102 112
126 651 181 99 105 116
127 652 179 92 98 107
124 648 184 90 96 105
124 648 185 88 93 102
124 649 184 92 97 107
124 649 185 88 94 103
124 648 186 86 91 100
124 648 187 85 91 100
124 648 188 85 90 100
122 640 193 86 92 101
122 641 193 86 92 101
123 640 192 85 92 101
123 641 192 86 92 101
123 641 193 85 91 100
122 640 194 86 92 101
122 640 195 84 91 100
122 641 194 86 92 101
122 641 195 85 92 101
122 642 193 89 94 103
122 643 193 92 98 107
123 642 192 88 93 102
123 643 192 89 94 104
123 643 193 91 96 106
122 642 194 90 96 105
122 642 195 92 98 108
122 643 194 93 99 108
122 643 195 96 102 112
121 640 196 85 92 101
121 640 197 88 95 106
121 641 196 87 93 103
121 641 197 89 96 107
120 640 199 97 103 113
121 640 198 96 103 113
121 640 199 99 105 115
121 641 198 95 102 113
121 641 199 99 105 116
121 642 196 94 100 111
121 642 197 98 105 116
121 643 196 100 106 117
121 643 197 103 110 121
121 642 198 100 108 120
121 642 199 103 110 122
121 643 198 103 111 123
121 643 199 102 110 122
122 644 193 91 96 106
122 645 193 91 97 106
123 644 192 91 97 106
123 644 193 91 96 106
123 645 192 95 101 111
123 645 193 90 96 106
122 644 194 94 99 109
122 644 195 99 105 115
122 645 194 92 97 107
123 646 192 97 103 113
123 646 193 91 97 107
121 644 196 103 109 120
122 644 196 102 108 118
120 640 200 96 102 112
120 640 201 96 102 111
120 641 200 99 105 115
120 641 201 102 108 117
121 641 200 100 107 117
120 640 202 99 105 115
120 640 203 100 107 117
120 641 202 103 109 120
120 641 203 98 105 116
121 642 200 105 111 121
121 642 201 107 113 124
121 642 202 107 115 126
120 640 204 100 107 118
120 640 205 97 103 114
120 641 204 96 103 113
121 640 205 90 97 107
121 641 204 95 102 113
120 640 206 92 99 109
121 640 206 88 94 105
121 640 207 84 89 99
122 640 208 82 86 95
124 640 209 79 83 91
126 640 210 74 79 88
127 640 210 73 78 87
127 640 211 74 79 87
137 569 127 89 96 105
138 569 127 89 96 105
138 570 126 90 96 106
138 570 127 96 102 113
138 571 127 95 102 113
139 570 126 90 97 107
139 570 127 88 96 106
139 571 126 89 95 106
139 571 127 89 96 107
138 572 127 99 106 117
139 572 126 88 94 105
139 572 127 93 100 111
139 573 127 97 104 115
139 574 127 94 101 111
139 575 127 95 102 112
140 570 125 95 101 111
140 571 125 90 96 106
141 571 125 91 98 108
140 570 126 92 98 108
140 571 126 90 96 106
142 571 124 92 99 109
142 571 125 93 99 109
143 571 124 92 99 109
140 572 125 88 94 104
141 572 125 88 95 105
141 573 125 87 94 105
140 572 126 88 94 104
140 573 126 87 94 105
140 573 127 91 98 109
141 573 126 87 94 104
140 574 126 86 94 104
140 574 127 90 98 108
140 575 126 87 93 103
140 575 127 88 95 106
141 574 126 87 94 104
141 575 126 88 94 104
142 572 124 87 94 105
142 572 125 87 94 105
142 573 125 89 96 106
143 572 124 87 94 105
143 573 124 87 95 107
143 573 125 90 98 109
142 574 125 90 97 107
142 575 125 92 99 110
143 574 125 95 103 114
143 575 125 99 106 118
142 575 126 90 97 107
144 572 123 88 95 106
145 572 123 87 95 106
146 573 123 87 95 107
147 573 123 90 98 109
144 572 124 85 93 104
144 573 124 86 95 106
145 573 124 86 95 107
144 574 124 101 109 121
144 574 125 104 112 123
144 575 124 106 113 125
144 575 125 106 113 125
145 574 124 100 108 120
145 575 124 106 114 125
145 575 125 107 114 125
146 573 124 89 98 110
147 573 124 93 100 112
146 574 124 98 106 117
146 575 124 102 109 121
147 574 124 95 102 114
147 575 124 96 104 115
147 575 125 95 103 114
150 571 126 93 99 109
150 571 127 94 100 110
151 571 126 92 99 109
151 571 127 96 102 113
151 573 123 95 102 112
151 574 123 94 101 112
151 575 123 94 101 111
148 572 124 93 100 111
148 573 124 94 101 111
149 572 124 93 99 109
149 572 125 92 98 108
149 573 124 93 99 110
149 573 125 93 99 109
148 574 124 95 102 113
148 574 125 95 102 113
148 575 125 96 103 115
149 574 124 94 100 111
149 574 125 94 100 111
149 575 125 94 101 112
149 574 126 95 101 111
149 574 127 94 100 110
149 575 126 95 101 112
149 575 127 95 101 112
150 572 125 93 99 109
150 573 125 93 99 108
151 572 125 90 97 107
151 573 124 91 98 108
151 573 125 90 97 107
150 572 126 94 100 110
150 572 127 95 101 111
150 573 126 95 101 111
150 573 127 95 100 110
151 572 126 90 97 107
151 572 127 94 100 110
151 573 126 91 98 108
151 573 127 92 99 109
150 574 125 92 99 108
151 574 124 94 100 110
151 574 125 92 98 108
151 575 124 94 101 111
151 575 125 93 99 109
150 574 126 94 100 110
150 574 127 95 101 111
151 574 126 91 97 108
151 574 127 91 98 108
151 575 126 91 97 107
151 575 127 93 99 109
153 575 121 102 109 122
152 574 122 98 106 118
152 575 122 96 103 114
152 575 123 95 102 113
153 575 122 98 105 117
154 575 121 105 113 126
140 576 127 88 95 105
140 577 127 90 97 107
141 576 126 87 94 104
141 576 127 86 93 103
141 577 126 87 94 105
141 577 127 90 97 107
140 578 127 94 99 109
140 579 127 92 98 107
141 578 127 94 100 109
141 579 127 94 99 109
143 576 125 105 113 125
142 576 126 92 100 111
142 577 126 91 98 109
143 576 126 102 110 122
143 577 126 95 104 116
142 578 126 95 101 111
142 578 127 96 102 111
142 579 127 96 101 111
143 578 126 94 101 112
143 579 126 96 102 112
143 579 127 97 103 113
141 580 127 95 101 112
141 581 127 100 107 118
142 580 127 96 102 113
142 581 127 99 106 117
143 580 127 98 104 115
143 581 127 96 103 114
143 582 127 96 103 115
144 576 125 109 117 129
144 577 125 101 110 123
145 576 125 106 114 126
145 577 125 97 106 118
144 577 126 97 106 118
144 578 126 95 102 114
144 579 126 96 103 114
145 578 126 92 100 111
145 579 126 96 103 114
146 576 125 105 112 124
146 577 125 99 107 118
147 576 125 97 105 117
147 577 125 98 105 117
146 577 126 97 105 116
147 577 126 95 102 113
146 578 126 94 101 112
146 579 126 95 102 112
146 579 127 97 103 114
147 578 126 95 102 113
147 578 127 98 105 116
147 579 126 98 105 116
147 579 127 99 105 117
144 580 126 97 104 114
144 580 127 96 103 114
144 581 127 92 100 111
145 580 127 98 104 115
145 581 127 94 101 112
144 582 127 91 98 110
146 580 127 97 104 114
146 581 127 95 102 113
147 580 127 96 104 115
151 576 123 94 100 111
151 577 123 94 100 110
148 576 125 97 104 116
148 576 126 96 103 114
148 576 127 96 102 112
148 577 126 94 101 112
148 577 127 96 103 113
149 576 126 95 102 113
149 576 127 95 101 112
148 578 127 98 105 116
148 579 127 100 107 118
151 576 124 93 99 110
151 576 125 92 98 109
151 577 124 93 99 109
151 577 125 93 99 109
151 576 126 91 98 108
151 576 127 93 99 109
151 577 126 92 98 109
151 577 127 94 100 111
151 578 125 93 100 111
151 579 125 95 102 114
151 578 126 94 101 112
151 578 127 93 101 112
151 579 126 96 103 114
151 579 127 97 104 116
151 580 125 98 105 117
150 581 127 95 102 113
151 580 126 99 106 117
151 580 127 99 106 117
151 581 126 98 105 116
151 581 127 97 104 115
150 582 127 95 102 113
150 583 127 97 104 115
151 582 126 96 103 114
151 582 127 96 102 113
151 583 126 96 103 114
151 583 127 97 103 114
150 584 127 101 109 120
151 584 126 96 104 115
151 584 127 101 109 121
151 585 127 111 119 133
151 586 127 116 125 139
152 576 122 95 101 112
152 576 123 93 100 110
152 577 122 94 101 111
152 577 123 94 101 111
153 576 122 97 103 114
153 577 122 95 102 113
153 577 123 95 102 112
152 578 123 97 103 113
153 578 122 96 102 113
153 578 123 96 102 113
153 579 123 101 108 119
154 576 121 102 109 121
154 577 121 98 105 117
155 576 120 99 107 120
155 576 121 102 109 121
155 577 121 99 107 118
154 576 122 97 103 114
154 577 122 97 104 115
155 578 121 103 110 121
154 578 122 100 107 118
154 579 122 106 112 123
154 579 123 109 116 127
155 578 122 105 111 122
155 579 122 114 120 132
152 577 124 94 99 109
152 578 124 95 101 111
152 579 124 99 106 117
152 579 125 95 103 114
153 580 123 102 109 120
154 580 123 104 111 123
154 581 123 97 105 117
155 580 122 110 117 129
155 580 123 109 116 128
155 581 122 100 108 121
155 581 123 98 106 119
155 582 123 101 108 120
152 580 124 98 105 116
152 580 125 97 104 116
152 581 125 97 104 115
153 580 124 99 106 118
153 581 124 98 105 116
152 581 126 98 105 116
152 582 125 97 103 114
152 583 125 97 104 114
153 582 124 97 104 115
153 582 125 97 104 115
153 583 125 97 104 115
152 582 126 96 103 114
152 583 126 97 103 114
154 581 124 97 105 116
154 582 124 98 105 117
154 583 124 97 104 115
154 583 125 97 104 115
155 582 124 99 107 118
155 583 124 98 105 117
156 576 120 97 105 116
156 576 121 99 106 117
156 577 121 99 107 119
157 576 120 96 104 116
157 577 120 101 108 119
157 577 121 100 108 120
156 578 121 103 111 122
156 579 121 106 113 124
157 578 121 102 110 121
157 579 121 101 108 120
156 579 122 110 117 128
158 576 120 96 104 116
158 577 120 102 109 120
159 576 120 95 103 115
159 577 120 101 108 119
158 578 120 104 111 123
158 578 121 105 111 123
158 579 121 103 109 121
159 578 120 107 113 124
159 579 120 104 111 122
159 579 121 101 108 119
157 580 121 96 104 116
156 580 122 105 112 124
156 581 122 100 108 120
157 580 122 97 105 117
157 581 122 97 105 117
156 582 122 103 110 122
156 582 123 103 110 122
156 583 123 103 110 122
157 582 122 103 110 122
157 583 122 106 113 125
157 583 123 106 113 125
158 580 121 98 105 117
158 581 121 97 105 116
159 580 121 99 107 119
159 581 121 99 107 119
158 581 122 96 104 116
159 582 121 100 107 119
158 582 122 100 108 120
158 583 122 105 112 124
158 583 123 105 112 124
159 582 122 101 109 121
159 583 122 106 113 125
156 583 124 100 107 119
153 584 125 99 106 117
153 585 125 102 109 120
152 584 126 99 106 118
152 585 126 106 115 128
152 585 127 107 116 130
153 584 126 100 107 118
153 585 126 104 112 124
152 586 126 112 121 134
152 586 127 114 123 137
152 587 127 111 120 133
153 586 126 108 117 130
153 587 126 108 116 129
153 587 127 107 115 128
154 584 125 99 106 117
154 585 125 103 109 121
155 584 124 99 106 118
155 585 124 103 109 121
155 585 125 103 110 121
154 586 125 100 108 120
155 586 125 100 107 119
154 586 126 102 110 123
154 587 126 104 112 124
155 586 126 99 107 119
155 587 126 99 107 119
152 588 127 104 112 125
153 588 127 102 110 122
153 589 127 99 106 118
154 588 126 101 109 121
154 588 127 101 109 122
154 589 127 100 107 119
155 588 126 99 108 120
155 589 126 101 109 121
155 589 127 100 108 121
154 590 127 101 108 119
155 590 127 107 114 125
155 591 127 104 110 122
157 584 123 102 110 121
158 584 123 102 109 121
158 585 123 100 107 119
159 584 123 103 111 122
159 585 123 101 108 120
156 584 124 100 107 119
156 585 124 101 108 120
157 584 124 102 109 120
157 585 124 101 108 120
156 586 124 101 108 119
156 586 125 101 108 119
156 587 125 100 107 119
157 586 124 100 107 119
157 586 125 100 107 119
157 587 125 101 109 121
156 587 126 99 106 119
158 585 124 101 108 120
158 586 124 99 107 119
158 587 124 103 111 124
158 587 125 106 114 127
159 586 124 103 111 123
159 587 124 116 124 137
159 587 125 117 125 138
156 588 126 102 110 123
156 589 126 108 115 128
156 589 127 107 115 127
157 588 126 104 112 124
157 589 126 112 120 132
156 590 127 109 117 130
156 591 127 104 112 124
157 590 126 112 120 133
157 590 127 107 115 129
157 591 127 103 112 126
158 588 125 107 116 129
159 588 125 114 123 136
159 589 125 111 120 133
158 588 126 108 116 129
158 589 126 112 120 133
159 589 126 112 121 134
158 590 126 108 117 130
158 590 127 102 112 126
158 591 127 100 109 122
159 590 126 105 114 128
159 591 126 97 106 119
159 591 127 98 107 121
156 592 127 95 103 114
157 592 127 100 108 121
157 593 127 97 105 117
157 594 127 88 95 105
158 592 127 99 108 121
158 593 127 95 103 116
159 592 127 94 102 115
159 593 127 90 98 109
158 594 127 90 97 108
158 595 127 80 87 96
159 594 127 86 93 104
159 595 127 81 87 97
158 596 127 81 87 96
158 597 127 87 93 102
159 596 127 81 87 95
159 597 127 85 91 100
159 598 127 84 90 100
160 577 119 96 103 114
161 577 119 96 103 113
161 578 119 97 104 115
162 577 119 93 99 110
163 577 119 93 101 112
162 578 119 94 101 112
162 579 119 98 105 116
163 578 119 95 102 113
163 579 119 98 105 116
163 580 119 101 108 119
164 578 118 99 107 118
164 578 119 99 107 118
164 579 119 98 106 118
165 578 118 99 107 119
165 578 119 100 108 120
165 579 119 98 106 118
166 578 118 100 107 119
166 579 118 100 107 118
166 579 119 99 106 118
167 579 118 97 105 117
167 579 119 98 105 117
164 580 119 99 106 118
165 580 119 95 103 116
166 580 119 97 105 117
166 581 119 99 106 118
167 580 119 99 106 118
167 581 119 101 108 120
160 577 120 99 106 117
160 578 120 106 112 123
160 579 120 106 113 125
161 578 120 101 108 119
161 579 120 108 115 126
162 579 120 105 111 122
160 580 120 106 114 126
160 580 121 101 109 122
160 581 121 102 110 123
161 580 120 114 121 133
161 581 120 116 123 135
161 581 121 114 121 133
160 582 121 99 107 120
161 582 121 103 111 123
161 583 121 101 108 120
160 582 122 101 108 121
160 583 122 105 112 124
161 583 122 102 109 121
162 580 120 110 117 129
162 581 120 116 122 134
163 580 120 104 112 123
163 581 120 111 118 130
162 582 121 109 115 128
162 583 121 106 113 124
163 582 120 106 114 126
163 582 121 104 112 124
163 583 121 105 113 125
162 583 122 105 112 123
163 583 122 107 114 126
164 580 120 100 108 120
164 581 120 105 112 125
165 580 120 97 105 117
165 581 120 99 106 118
164 582 120 102 110 122
164 582 121 102 110 123
164 583 121 105 114 126
165 582 120 99 106 118
165 583 120 101 108 120
165 583 121 107 115 127
166 581 120 100 107 118
167 581 120 100 107 119
166 582 120 98 106 117
166 583 120 99 106 119
166 583 121 101 109 122
167 582 120 100 107 119
167 583 120 101 108 120
167 583 121 104 111 123
160 584 122 104 111 123
160 584 123 102 109 121
160 585 123 102 109 121
161 584 122 100 108 120
161 585 123 99 106 119
160 586 123 102 109 121
161 586 123 99 107 119
162 584 122 101 109 120
162 585 122 100 107 119
162 585 123 98 106 118
163 584 122 108 115 127
163 585 122 104 112 124
163 585 123 102 110 123
162 586 123 100 108 120
163 586 123 102 110 122
160 586 124 104 112 125
160 587 124 116 124 137
160 587 125 122 129 142
161 586 124 102 110 122
161 587 124 110 118 131
162 586 124 102 110 122
162 587 124 103 111 124
163 587 124 100 108 121
160 588 125 117 125 137
160 589 125 112 120 133
161 588 124 109 117 130
161 588 125 114 121 134
161 589 125 110 118 131
160 589 126 113 122 135
161 590 125 105 114 128
160 590 126 104 114 127
160 591 126 97 106 119
161 590 126 102 112 125
161 591 126 102 111 123
162 588 124 102 110 123
162 588 125 104 112 125
162 589 125 103 112 125
163 588 124 97 105 118
163 589 124 94 103 115
163 589 125 96 105 117
162 590 125 103 111 125
163 590 125 99 107 120
163 591 125 97 105 117
162 590 126 103 112 125
162 591 126 104 112 124
163 591 126 101 108 120
164 584 121 114 122 136
165 584 121 114 122 135
164 584 122 114 122 135
164 585 122 113 122 135
165 584 122 117 125 139
165 585 122 114 122 136
164 586 122 110 119 132
164 586 123 103 112 125
164 587 123 98 106 119
165 586 122 108 117 130
165 586 123 104 113 126
165 587 123 99 107 120
166 584 121 104 113 125
166 585 121 101 110 122
167 584 121 103 111 123
167 585 121 100 108 120
166 585 122 105 113 126
167 585 122 99 107 119
166 586 122 105 113 126
166 586 123 105 113 126
166 587 123 102 109 121
167 586 122 101 109 122
167 587 122 99 107 119
167 587 123 100 107 119
164 587 124 98 106 118
165 588 123 98 106 118
166 588 123 100 108 120
166 589 123 99 106 118
167 588 123 99 106 118
167 589 123 97 105 117
164 588 124 96 103 115
164 589 124 94 102 113
165 588 124 98 105 117
165 589 124 96 104 115
164 590 124 94 101 113
164 590 125 95 102 113
164 591 125 90 98 109
165 590 124 94 101 112
165 590 125 91 98 109
165 591 125 88 95 106
166 589 124 98 105 117
167 589 124 98 105 117
166 590 124 94 101 112
166 591 124 90 98 109
166 591 125 89 96 107
167 590 124 98 106 117
167 591 124 99 107 118
168 579 118 100 108 120
169 579 118 114 121 134
170 579 118 118 124 137
171 579 118 111 119 131
168 580 118 97 106 119
168 580 119 98 106 118
168 581 119 101 109 121
169 580 118 108 116 129
169 580 119 98 107 119
169 581 119 100 108 120
168 582 119 102 109 121
169 582 119 101 109 121
170 580 118 110 117 129
170 580 119 100 108 120
170 581 119 100 108 120
171 580 118 102 110 122
171 581 119 97 105 117
170 582 119 101 109 121
171 582 119 98 106 118
171 583 119 101 109 122
172 581 119 98 106 117
172 582 119 100 107 118
172 583 119 102 110 123
168 582 120 101 108 120
168 583 120 103 111 123
169 582 120 102 110 122
169 583 120 108 116 128
170 583 120 115 122 135
171 583 120 113 121 134
172 583 120 110 120 134
173 583 120 109 117 131
168 584 121 106 114 126
168 585 121 102 110 122
169 584 120 118 125 138
169 584 121 119 127 140
169 585 121 109 117 130
169 586 121 101 110 123
168 586 122 101 108 121
168 587 122 96 104 116
168 587 123 95 103 115
169 586 122 101 109 122
169 587 122 97 105 117
170 584 120 126 133 146
170 584 121 124 131 144
170 585 121 114 123 136
171 584 120 123 131 145
171 585 121 113 123 137
170 586 121 98 108 121
171 586 121 98 108 122
170 586 122 97 106 119
170 587 122 95 103 115
171 587 122 94 102 113
168 588 123 95 103 114
168 589 123 94 102 114
169 588 122 95 103 114
169 588 123 95 102 114
169 589 123 93 101 113
168 590 123 100 108 119
169 590 123 100 107 118
170 588 122 95 102 114
170 588 123 95 102 113
170 589 123 94 102 113
171 588 122 94 100 111
171 589 122 90 97 107
171 589 123 91 98 109
170 590 123 98 106 117
171 590 123 89 97 108
171 591 123 86 94 105
168 590 124 105 113 124
168 591 124 105 113 124
169 590 124 106 113 125
169 591 124 103 110 122
170 591 124 97 105 117
171 591 124 89 97 109
172 584 120 115 124 138
172 585 120 112 122 136
172 585 121 109 118 132
173 584 120 114 122 135
173 585 120 113 121 133
173 585 121 108 117 130
172 586 121 100 110 123
172 587 121 95 103 115
173 586 121 98 107 120
173 587 121 94 101 113
172 587 122 95 102 113
173 587 122 94 100 111
172 588 122 92 98 109
172 589 122 90 96 107
172 589 123 89 96 106
173 588 122 89 96 106
173 589 122 87 94 104
172 590 123 85 92 103
172 591 123 82 89 100
173 590 122 85 92 102
173 590 123 85 92 102
173 591 123 81 88 98
174 588 122 89 95 106
174 589 122 85 92 103
174 590 122 84 90 100
174 591 122 82 88 97
174 591 123 81 87 96
175 591 123 81 86 95
160 592 126 88 96 108
160 592 127 87 96 108
160 593 127 82 90 101
161 592 126 93 101 112
161 593 126 82 89 100
161 593 127 79 88 99
160 594 127 80 87 97
160 595 127 78 84 93
161 594 126 80 86 96
161 594 127 78 84 93
161 595 126 76 82 91
161 595 127 76 82 91
162 592 126 97 104 115
162 593 126 85 92 103
163 592 126 93 100 111
163 593 126 85 92 102
162 594 126 80 87 96
162 595 126 77 83 92
163 594 126 81 87 96
163 595 126 77 84 93
160 596 127 78 84 93
160 597 127 79 85 94
161 596 126 75 81 90
161 596 127 76 82 90
161 597 126 74 80 89
161 597 127 75 81 90
160 598 127 79 85 94
160 599 127 78 85 94
161 598 127 75 82 91
161 599 127 78 85 94
162 596 126 75 81 90
162 597 126 73 80 89
163 596 126 77 84 93
163 597 126 78 84 93
162 598 126 76 82 91
162 598 127 76 82 91
162 599 127 79 85 94
163 598 126 78 85 94
163 599 126 80 86 95
164 592 125 85 93 104
164 593 125 82 89 99
165 592 125 86 93 103
165 593 125 84 90 100
164 592 126 86 93 104
164 593 126 81 88 98
165 594 125 80 86 95
165 595 125 77 83 92
164 594 126 80 86 95
164 595 126 78 84 92
165 595 126 77 83 92
166 592 125 91 98 108
166 593 125 88 94 105
167 592 124 106 112 123
167 592 125 100 107 118
167 593 125 97 103 113
166 594 125 80 86 96
166 595 125 77 84 93
167 594 124 82 89 98
167 594 125 83 90 99
167 595 125 76 83 92
165 596 125 77 83 92
165 597 125 80 86 95
164 596 126 78 84 92
164 597 126 81 87 95
165 596 126 78 84 93
165 597 126 81 87 96
165 598 125 85 91 99
164 598 126 83 89 98
164 599 126 85 91 99
165 598 126 85 91 99
165 599 126 88 94 103
166 596 125 76 82 91
166 597 125 77 83 92
167 596 125 74 81 90
167 597 125 75 81 90
166 598 125 81 88 97
166 599 125 86 92 102
167 598 125 79 85 94
167 599 125 82 89 99
160 600 127 82 89 99
161 600 127 83 90 100
161 601 127 88 95 106
162 600 127 84 90 99
162 601 127 90 97 107
163 600 126 81 88 97
163 600 127 83 89 99
163 601 127 90 97 107
163 602 127 97 103 114
164 600 126 83 90 99
164 601 126 89 95 106
164 601 127 91 97 108
165 600 126 85 92 101
165 601 126 91 98 108
164 602 127 96 103 113
164 603 127 100 107 118
165 602 126 98 104 115
165 602 127 97 104 115
165 603 126 101 108 119
165 603 127 101 108 119
166 600 125 84 91 101
166 601 125 91 98 109
167 600 125 83 91 101
167 601 125 95 102 113
166 601 126 94 101 112
167 602 125 106 113 124
167 603 125 108 115 126
166 602 126 103 111 122
166 603 126 107 114 126
167 602 126 108 115 127
167 603 126 110 118 129
164 604 127 103 111 122
165 604 127 105 112 124
165 605 127 106 113 125
166 604 126 107 114 127
166 604 127 106 113 125
166 605 127 103 111 123
167 604 126 107 115 127
167 605 127 101 109 121
171 592 123 87 94 105
171 593 123 85 92 102
171 594 123 74 81 90
168 592 124 108 114 125
168 593 124 101 108 118
168 593 125 98 105 115
169 592 124 104 112 123
169 593 124 99 106 117
168 594 124 86 93 103
168 595 124 76 83 92
168 595 125 75 82 91
169 594 124 85 92 102
169 595 124 76 83 92
170 592 124 101 108 120
170 593 124 97 104 115
171 592 124 93 100 112
171 593 124 92 99 110
170 594 124 82 89 99
170 595 124 76 83 92
171 594 124 78 85 94
171 595 124 74 81 89
171 598 123 77 83 91
171 599 123 78 84 93
168 596 124 75 81 90
168 597 124 75 81 89
169 596 124 75 81 90
169 597 124 75 81 89
168 598 124 77 83 92
168 598 125 79 85 94
168 599 124 79 85 94
168 599 125 80 86 95
169 598 124 77 82 91
169 599 124 79 85 93
170 596 124 75 81 90
170 597 124 75 81 89
171 596 124 76 82 90
171 597 124 76 82 90
170 598 124 76 82 90
170 599 124 78 84 93
171 598 124 77 82 91
171 599 124 77 84 93
172 592 123 82 89 99
172 593 123 78 85 95
173 592 123 78 85 94
173 593 123 74 81 90
172 594 123 73 80 89
172 595 123 73 79 88
173 594 123 72 79 88
173 595 123 74 80 89
174 592 123 78 84 93
174 593 123 74 80 89
175 592 123 79 84 93
175 593 123 76 82 91
174 594 123 72 79 87
174 595 123 73 79 87
175 594 123 73 79 88
175 595 123 72 78 87
172 596 123 80 85 93
172 597 123 83 88 96
173 596 123 81 87 95
173 597 123 84 89 97
172 598 123 78 84 92
172 599 123 78 84 93
173 598 123 79 85 94
173 599 123 79 85 94
174 596 123 80 85 93
174 597 123 82 88 96
175 596 123 76 82 91
175 597 123 79 85 93
174 598 123 77 84 92
174 599 122 78 85 94
174 599 123 77 84 93
175 598 123 76 82 91
172 596 124 77 83 91
171 600 123 81 88 97
171 601 123 90 97 107
171 602 123 97 103 114
168 600 124 83 90 99
168 600 125 83 90 100
168 601 124 90 97 107
168 601 125 92 99 109
169 600 124 82 88 98
169 601 124 89 96 106
168 602 124 96 102 113
168 602 125 102 109 120
168 603 125 103 110 121
169 602 124 94 101 112
169 603 124 96 103 114
169 603 125 97 104 116
168 603 126 107 115 126
170 600 124 81 87 97
170 601 124 85 92 103
171 600 124 79 86 96
171 601 124 87 94 104
170 602 124 91 98 109
170 603 124 95 102 113
171 602 124 96 103 114
171 603 124 96 104 116
168 604 125 101 109 121
169 604 125 98 106 117
169 605 125 100 107 118
168 604 126 104 111 123
168 605 126 102 110 121
168 605 127 101 108 119
169 605 126 101 108 120
168 606 127 101 107 118
169 606 126 105 111 122
169 606 127 103 110 121
169 607 127 101 107 118
170 604 124 94 101 112
170 604 125 96 103 115
170 605 125 99 106 118
171 604 124 93 100 112
171 605 124 94 101 113
171 605 125 99 106 118
170 605 126 102 109 120
171 606 125 103 110 122
170 606 126 103 110 122
170 606 127 103 110 121
170 607 127 102 109 120
171 606 126 104 111 123
171 607 126 103 112 124
171 607 127 105 113 125
172 600 123 82 89 99
172 601 123 96 102 113
173 600 123 84 91 101
173 601 123 99 106 116
172 602 123 105 112 123
172 603 123 103 111 123
173 602 123 109 116 127
173 603 123 105 113 125
174 600 122 84 91 101
174 600 123 86 93 103
174 601 122 95 102 113
174 601 123 97 104 115
174 602 123 106 113 125
174 603 123 104 112 124
175 602 123 106 113 124
175 603 123 102 109 121
172 603 124 102 110 122
173 604 123 97 106 118
174 604 123 95 104 116
174 605 123 93 101 113
175 604 123 94 103 115
175 605 123 95 103 115
175 606 123 99 107 118
172 604 124 92 100 112
172 605 124 97 104 115
172 605 125 102 109 120
173 604 124 94 102 114
173 605 124 97 104 116
172 606 125 104 111 123
172 607 125 107 115 127
173 606 124 103 110 121
173 606 125 104 112 124
173 607 125 109 116 129
172 607 126 107 116 128
173 607 126 112 119 132
174 605 124 97 104 116
174 606 124 102 109 121
174 607 125 107 114 127
175 606 124 101 108 119
175 607 124 103 111 123
176 606 124 100 107 119
176 607 124 100 107 120
163 623 127 82 90 99
164 622 127 86 92 101
164 623 127 91 97 106
165 622 127 85 91 100
165 623 127 91 98 108
166 621 127 76 83 92
167 620 127 73 79 87
167 621 127 75 82 90
166 622 127 82 89 98
166 623 127 91 99 109
167 622 127 81 87 97
171 608 127 111 118 130
172 608 126 115 122 135
172 608 127 118 125 137
172 609 127 115 122 134
173 608 126 115 122 134
173 609 126 110 117 130
173 609 127 110 118 130
173 610 127 103 110 121
174 608 125 107 115 127
175 608 124 102 110 122
175 608 125 103 110 123
175 609 125 102 109 121
174 608 126 111 118 131
174 609 126 105 112 124
174 609 127 104 111 123
175 609 126 102 109 120
174 610 127 100 107 118
174 611 127 86 92 102
175 610 126 95 102 113
175 610 127 93 100 111
175 611 127 85 91 101
175 612 127 74 81 89
175 613 127 71 77 85
174 615 127 63 68 76
175 614 127 67 73 81
175 615 127 64 70 78
169 619 127 74 80 87
170 618 127 74 79 86
170 619 127 74 79 87
171 618 127 72 77 84
171 619 127 72 77 85
168 620 127 73 79 87
168 621 127 76 82 91
169 620 127 74 80 88
169 621 127 77 83 92
168 622 127 85 91 100
169 622 127 85 91 101
170 620 127 75 81 89
170 621 127 79 85 94
171 620 127 73 79 87
171 621 127 78 84 93
170 622 127 90 95 105
172 617 127 66 71 79
173 616 127 63 69 76
173 617 127 65 71 78
172 618 127 69 74 82
172 619 127 71 77 85
173 618 127 68 74 81
173 619 127 71 77 85
174 616 127 64 69 76
174 617 127 67 72 79
175 616 127 65 70 77
175 617 127 69 74 82
174 618 126 75 80 88
174 618 127 71 76 84
174 619 126 72 79 87
174 619 127 70 76 84
175 618 126 75 81 88
175 619 126 78 84 93
172 620 127 73 79 87
172 621 127 76 82 90
173 620 126 73 79 88
173 620 127 73 80 88
174 620 126 73 80 89
175 620 126 76 83 93
176 608 124 101 109 121
176 609 125 100 107 118
176 610 125 98 104 115
177 611 125 94 100 110
176 610 126 94 100 110
176 611 126 87 93 103
176 611 127 83 89 98
177 611 126 89 94 104
176 612 126 79 86 95
176 612 127 76 82 92
176 613 127 75 81 90
177 612 126 82 88 97
177 613 126 80 86 94
177 613 127 80 86 94
176 614 127 73 79 88
176 615 127 68 74 82
177 614 126 80 85 94
177 614 127 77 82 90
177 615 126 72 78 85
177 615 127 72 78 86
176 616 126 68 73 81
176 616 127 66 72 79
176 617 126 71 76 83
176 617 127 69 75 82
177 616 126 68 73 81
177 617 126 70 75 83
176 618 126 77 82 89
176 619 126 79 86 95
177 618 126 75 81 89
177 619 126 79 86 95
131 565 134 85 91 101
131 565 135 84 91 100
131 566 134 88 94 104
131 566 135 89 95 105
131 567 134 91 97 107
131 567 135 93 100 109
134 566 131 84 90 99
134 567 131 86 92 102
135 566 130 84 90 99
135 566 131 84 90 99
135 567 130 87 93 102
135 567 131 86 92 102
132 565 133 83 89 98
133 565 132 84 89 98
133 565 133 83 89 98
132 565 134 84 90 99
132 566 133 85 91 101
132 567 133 88 94 104
133 566 132 85 91 100
133 566 133 85 91 100
133 567 133 87 93 102
132 566 134 86 92 102
132 567 134 90 96 106
134 565 132 83 89 98
134 566 132 85 91 100
134 567 132 86 92 101
128 566 137 94 101 111
129 566 136 93 100 110
129 566 137 96 102 112
129 567 137 100 106 116
128 566 138 98 105 116
128 567 138 101 108 119
130 566 136 92 98 107
130 567 136 96 102 112
131 567 136 96 102 112
131 568 135 94 100 110
131 569 135 91 98 108
131 570 135 88 95 105
134 568 131 87 94 103
134 569 131 88 95 106
135 568 130 89 95 105
135 568 131 88 94 104
135 569 130 93 99 109
135 569 131 89 97 107
134 570 131 88 95 105
134 571 131 92 98 108
135 570 130 94 101 112
135 570 131 88 95 106
135 571 130 96 103 114
135 571 131 91 98 108
132 568 133 89 96 105
133 568 133 88 94 104
133 569 132 87 94 104
133 569 133 88 94 104
132 568 134 91 97 107
132 568 135 92 98 108
132 569 134 88 95 105
132 569 135 90 96 107
133 570 132 89 95 105
133 570 133 87 94 104
133 571 132 90 96 106
133 571 133 88 95 105
132 570 134 89 96 106
132 570 135 88 95 105
132 571 134 89 96 106
132 571 135 88 95 106
133 570 134 89 96 106
133 571 134 89 95 105
134 568 132 88 94 104
134 569 132 87 94 104
134 570 132 90 96 106
134 571 132 91 97 107
134 572 131 97 103 113
135 572 130 98 106 117
135 572 131 97 104 114
135 573 130 95 104 115
135 573 131 95 103 113
135 574 131 90 98 109
135 575 131 90 98 109
133 572 133 90 97 107
133 573 133 91 97 107
132 572 134 89 95 105
132 572 135 89 96 106
132 573 135 91 98 109
133 572 134 89 96 105
133 573 134 92 98 108
133 574 133 90 96 106
132 574 135 94 101 111
132 575 135 95 102 113
133 574 134 91 98 108
133 574 135 93 100 110
133 575 134 91 97 108
134 572 132 93 99 109
134 573 132 95 101 111
134 573 133 93 100 110
134 574 132 94 100 110
134 574 133 91 98 108
134 575 132 93 100 110
134 575 133 90 97 106
135 574 132 94 101 111
135 575 132 93 100 110
134 575 134 89 95 106
129 568 137 99 106 117
129 569 137 97 105 116
128 568 138 100 108 120
128 569 138 101 109 122
128 569 139 105 113 126
129 568 138 99 106 118
129 569 138 98 106 118
128 570 138 108 115 127
128 570 139 113 120 132
128 571 138 111 117 129
128 571 139 117 123 135
129 570 138 101 108 119
129 571 138 106 113 123
130 568 136 96 102 113
130 568 137 98 105 116
130 569 137 94 101 112
131 568 136 95 102 112
131 569 136 92 99 109
130 570 136 94 100 111
130 570 137 95 102 113
130 571 137 98 104 114
131 570 136 90 97 107
131 571 136 91 98 108
128 572 139 118 124 136
128 573 139 125 132 144
129 572 138 109 115 126
129 573 138 116 123 136
129 573 139 126 133 145
128 574 139 132 139 152
129 574 138 123 131 144
129 574 139 128 136 149
129 575 138 125 133 147
129 575 139 129 137 151
130 572 137 99 105 116
130 573 137 105 112 123
131 572 136 93 99 109
131 573 136 97 104 115
131 573 137 106 112 124
130 572 138 104 111 122
130 573 138 110 118 130
130 574 137 110 118 131
130 575 137 115 124 136
131 574 136 100 107 119
131 574 137 107 115 127
131 575 136 104 112 124
131 575 137 110 117 130
130 574 138 117 125 139
130 575 138 120 129 143
128 572 140 120 126 138
128 573 140 126 133 145
128 574 140 128 135 148
128 575 140 129 137 150
128 575 141 127 135 148
132 572 136 91 98 109
132 573 136 92 99 109
132 574 136 100 107 119
132 575 136 99 106 117
136 567 129 85 91 100
136 568 129 90 96 105
136 569 129 97 103 114
137 568 128 87 93 103
137 569 128 96 102 113
136 569 130 95 101 111
136 570 129 102 108 119
136 571 129 105 112 124
137 570 128 106 112 123
137 570 129 108 114 125
137 571 128 107 114 125
136 570 130 98 105 116
136 571 130 99 106 117
138 571 128 99 106 117
136 572 129 101 109 121
137 572 128 103 110 122
137 572 129 101 109 121
137 573 128 100 108 119
137 573 129 98 106 118
136 572 130 102 110 121
136 573 130 98 106 118
137 574 129 93 101 113
137 575 129 93 100 111
136 574 130 87 96 108
136 575 130 86 95 106
137 575 130 87 95 106
138 572 128 101 109 120
138 573 128 101 109 120
138 574 128 98 105 116
138 575 128 99 105 115
138 575 129 97 103 114
139 574 128 95 102 113
139 575 128 99 105 115
149 574 128 94 100 110
149 575 128 92 99 110
149 575 129 93 100 111
149 575 130 95 102 113
149 575 131 99 105 115
150 572 128 94 100 110
150 572 129 95 101 112
150 573 128 94 100 110
150 573 129 95 101 112
151 572 128 94 100 111
151 572 129 95 102 113
151 573 128 94 101 111
151 573 129 94 101 112
150 572 130 95 102 113
150 573 130 94 101 112
150 573 131 94 101 112
151 572 130 94 101 112
151 572 131 92 99 110
151 573 131 94 101 112
150 574 128 94 100 110
150 574 129 95 101 112
150 575 129 94 100 111
151 574 128 93 100 110
151 574 129 93 100 110
151 575 128 94 101 111
151 575 129 94 101 111
150 574 130 95 102 112
150 574 131 95 102 112
150 575 130 95 101 111
150 575 131 97 103 113
151 575 130 94 100 110
150 573 132 96 102 112
151 573 132 96 102 112
151 573 133 99 104 114
150 574 132 97 103 113
150 574 133 99 104 113
150 575 132 98 103 113
150 575 133 98 103 113
151 574 132 97 103 113
151 574 133 98 104 113
151 575 132 97 103 113
151 575 133 98 103 113
150 574 134 100 105 114
150 575 134 100 105 115
150 575 135 101 106 116
151 574 134 99 105 114
151 574 135 100 105 115
151 575 134 99 104 114
151 575 135 100 106 116
150 575 136 102 108 118
151 575 136 102 107 118
151 575 137 102 108 118
151 575 138 102 108 119
151 575 139 102 108 119
151 575 140 102 109 120
151 575 141 102 109 121
152 573 129 95 102 113
152 572 130 94 101 112
152 572 131 94 101 112
152 573 130 95 102 113
152 573 131 94 101 112
152 574 129 93 100 111
152 574 130 93 100 111
152 574 131 95 101 111
152 575 130 94 100 111
152 575 131 96 102 112
133 567 239 108 115 127
134 567 239 107 114 127
135 567 239 105 113 126
128 568 235 105 112 124
128 569 235 115 123 136
129 569 235 115 123 136
128 570 234 126 134 148
128 570 235 123 131 144
128 571 234 125 133 146
128 571 235 119 127 141
129 570 235 119 126 139
129 571 235 116 123 136
129 568 236 105 112 123
129 569 236 108 116 128
129 570 236 114 121 134
130 568 236 103 110 121
130 568 237 104 110 121
130 569 236 107 113 125
130 569 237 105 111 122
131 568 237 105 111 122
131 569 237 106 112 123
131 568 238 106 112 123
130 570 236 112 118 131
130 571 236 112 119 132
131 570 236 108 115 126
131 570 237 107 113 124
131 571 236 108 115 127
131 571 237 107 114 126
128 572 234 118 127 140
128 572 235 118 126 139
128 573 234 115 123 136
129 572 235 114 122 134
129 573 235 111 119 132
128 574 233 109 116 128
128 575 233 105 112 123
128 574 234 112 118 130
128 575 234 108 114 125
129 574 234 111 118 130
129 574 235 111 118 131
129 575 234 110 116 127
130 572 235 111 119 132
130 573 235 109 116 129
130 574 235 109 116 128
130 575 235 109 116 128
131 574 235 105 113 125
131 575 235 105 112 124
130 572 236 110 118 130
130 573 236 109 117 129
131 572 236 109 116 128
131 573 236 107 114 126
131 574 236 104 111 123
132 569 237 107 113 124
132 568 238 106 112 124
132 568 239 108 114 125
132 569 238 107 113 124
133 568 238 109 115 126
133 568 239 110 116 127
133 569 238 109 115 127
132 570 237 107 113 125
132 571 237 105 112 124
133 571 237 103 110 121
132 570 238 109 114 126
133 570 238 106 113 124
134 568 239 109 117 129
134 569 238 112 119 131
134 569 239 115 122 134
135 568 239 113 121 135
135 569 238 122 129 143
135 569 239 124 131 145
134 571 237 103 110 122
135 571 237 112 119 132
134 570 238 105 112 125
135 570 238 112 120 133
132 575 235 102 108 119
133 575 235 97 104 115
134 575 235 96 103 114
135 575 235 104 110 121
132 572 236 108 114 126
132 572 237 105 112 123
132 573 236 104 110 122
133 572 237 104 110 121
133 573 236 103 109 120
133 573 237 105 111 122
132 574 236 103 109 120
132 575 236 101 108 118
133 574 236 99 106 117
133 575 236 97 104 115
134 572 237 102 109 120
134 573 236 95 103 114
134 573 237 99 106 118
135 572 237 105 113 125
135 573 236 94 102 114
135 573 237 99 106 118
134 574 236 92 100 112
134 575 236 93 100 112
135 574 236 93 100 112
135 575 236 96 103 114
136 567 239 110 118 132
137 566 239 98 106 119
137 567 239 106 115 128
138 566 239 96 103 115
138 567 239 100 108 121
139 566 239 95 101 113
139 567 239 95 102 113
140 566 239 93 99 109
140 567 239 91 97 107
141 566 239 95 101 112
141 567 239 90 96 105
142 566 239 102 108 119
142 567 239 91 96 105
143 566 239 97 103 114
143 567 239 90 95 105
136 568 239 122 131 146
136 569 238 125 134 148
136 569 239 125 134 149
137 568 239 118 127 141
137 569 238 124 133 147
136 571 237 115 123 137
137 571 237 105 113 126
136 570 238 123 132 146
137 570 238 122 130 144
138 568 239 112 120 134
138 569 238 124 132 145
139 568 238 101 108 120
139 568 239 97 105 116
139 569 238 104 111 123
138 570 237 112 120 133
138 571 237 99 107 120
139 570 237 94 101 113
139 571 237 91 98 110
138 570 238 119 127 140
139 570 238 98 105 118
136 575 235 112 118 129
137 575 235 99 105 115
138 574 235 90 96 105
138 575 235 92 97 107
139 574 235 89 95 105
139 575 235 89 95 104
136 572 237 101 109 121
136 573 236 94 101 112
137 572 237 96 103 114
137 573 236 92 98 108
136 574 236 98 104 115
137 574 236 92 98 108
138 572 237 92 99 110
138 573 236 90 96 106
139 572 237 90 96 107
139 573 236 89 94 104
138 574 236 89 95 105
139 574 236 88 94 104
140 568 238 91 97 108
140 568 239 90 96 107
140 569 238 91 98 108
141 568 238 88 93 102
141 568 239 88 93 103
141 569 238 89 94 104
140 570 237 91 97 108
140 571 237 91 97 107
141 570 237 91 96 106
141 571 237 92 98 108
140 570 238 91 97 108
141 570 238 91 96 106
142 568 238 89 94 103
142 569 238 90 95 105
143 568 238 91 96 105
143 569 238 93 98 108
142 570 237 93 99 109
142 571 237 97 103 113
143 570 237 98 104 115
143 571 237 104 111 121
142 570 238 92 98 107
143 570 238 97 103 113
140 575 235 87 92 101
141 575 235 86 92 101
142 575 235 87 93 103
143 575 235 91 97 107
140 572 237 91 96 106
140 573 236 90 95 104
141 572 237 92 98 108
141 573 236 90 96 106
140 574 236 88 94 103
141 574 236 89 94 104
142 572 237 98 103 113
142 573 236 95 101 111
143 572 237 106 112 122
143 573 236 102 107 117
143 573 237 107 112 122
142 574 236 90 95 105
142 575 236 87 93 103
143 574 236 91 97 106
143 575 236 90 96 106
137 566 240 99 107 119
138 566 240 96 103 114
139 566 240 95 101 112
140 566 240 95 101 111
141 566 240 100 107 118
142 565 240 112 120 133
143 565 240 107 114 127
142 566 240 108 115 126
144 566 239 90 97 107
144 567 239 89 94 103
145 566 239 89 95 105
145 567 239 89 94 103
146 566 239 90 95 105
146 567 239 87 92 101
147 566 239 88 94 103
147 567 239 88 93 103
148 567 239 92 98 108
144 568 238 89 94 103
144 569 238 92 98 107
145 568 238 88 93 102
145 568 239 88 92 101
145 569 238 89 94 103
144 570 237 97 104 114
144 571 237 101 108 120
145 571 237 96 102 112
144 570 238 94 101 111
145 570 238 90 95 105
145 571 238 91 98 108
146 568 239 87 92 101
146 569 238 88 93 102
146 569 239 89 94 103
147 568 239 92 97 107
147 569 238 89 93 102
147 569 239 92 97 106
146 570 238 86 91 100
146 571 238 88 93 103
147 570 238 87 92 101
147 571 238 88 93 102
144 572 237 108 114 125
144 573 236 98 103 113
144 573 237 103 109 119
145 572 237 97 103 114
145 573 237 93 99 109
144 574 236 92 98 107
144 575 236 94 100 110
145 574 236 89 95 104
145 574 237 90 95 104
145 575 236 89 94 104
146 572 237 91 97 106
146 573 237 90 95 105
147 573 237 90 95 104
146 572 238 90 95 104
146 573 238 90 95 104
147 572 238 91 96 105
147 573 238 92 96 105
146 574 237 89 94 103
146 575 236 86 92 101
146 575 237 87 92 101
147 574 237 90 95 103
147 575 237 90 94 103
147 574 238 90 95 104
147 575 238 90 95 103
148 568 239 101 107 117
148 569 239 96 101 111
149 569 239 96 102 112
148 570 239 88 93 102
148 571 238 88 93 102
148 571 239 87 92 100
149 570 239 88 94 103
149 571 239 87 92 100
148 572 238 90 95 103
148 572 239 88 92 101
148 573 238 91 96 104
149 572 239 88 93 101
149 573 239 89 93 102
148 574 238 90 95 104
148 575 238 90 94 103
149 574 239 89 94 103
149 575 239 91 96 105
144 565 240 94 101 113
145 565 240 93 100 111
146 564 240 107 114 126
146 565 240 99 105 115
147 564 240 106 113 124
147 565 240 98 103 114
147 566 240 89 94 104
148 564 241 90 96 107
148 565 240 86 92 102
148 565 241 85 91 101
