ply
format ascii 1.0
comment PCL generated
element vertex 2253
property float x
property float y
property float z
property uchar red
property uchar green
property uchar blue
element camera 0
property float view_px
property float view_py
property float view_pz
property float x_axisx
property float x_axisy
property float x_axisz
property float y_axisx
property float y_axisy
property float y_axisz
property float z_axisx
property float z_axisy
property float z_axisz
property float focal
property float scalex
property float scaley
property float centerx
property float centery
property int viewportx
property int viewporty
property float k1
property float k2
end_header
235 374 173 40 47 53
235 375 172 41 47 54
235 375 173 40 47 53
234 374 174 40 46 53
234 374 175 40 46 53
234 375 174 40 46 53
234 375 175 41 47 54
236 368 169 41 48 54
236 369 168 41 48 54
236 369 169 41 47 54
237 368 168 42 49 56
237 368 169 42 48 55
237 369 168 42 48 55
236 368 170 41 47 54
236 368 171 41 47 54
236 369 170 41 47 54
236 369 171 40 47 53
237 368 170 42 48 55
236 370 168 42 48 55
236 370 169 41 48 55
236 371 168 42 48 56
236 371 169 41 47 54
237 370 168 43 49 56
237 371 168 42 49 56
236 370 170 41 47 54
236 370 171 41 47 54
236 371 170 41 47 54
236 371 171 41 47 54
238 368 168 42 49 56
236 368 172 40 47 54
236 368 173 40 47 54
236 369 172 40 46 53
236 372 168 42 49 56
236 372 169 41 48 55
236 373 169 41 48 55
237 372 168 43 49 56
237 373 168 42 49 56
237 373 169 41 48 55
236 372 170 40 46 53
236 373 170 41 47 54
236 374 169 41 48 55
236 375 169 41 47 54
237 374 168 42 49 56
237 374 169 42 48 55
237 375 168 42 48 55
237 375 169 41 47 54
236 374 170 40 47 53
236 375 170 40 46 53
233 383 167 40 47 54
235 380 167 42 48 55
235 381 166 41 48 56
235 381 167 42 49 56
234 383 165 41 48 55
235 382 165 41 48 56
235 383 164 41 49 57
235 383 165 41 48 55
234 382 166 41 48 55
234 382 167 42 48 55
234 383 166 41 47 55
234 383 167 40 47 54
235 382 166 41 48 55
235 382 167 42 49 56
239 376 163 42 50 57
239 377 162 42 49 56
239 377 163 42 49 57
238 378 163 43 50 58
238 379 163 44 51 58
239 378 163 43 50 57
239 379 162 44 51 58
239 379 163 44 51 58
237 376 165 43 50 58
237 377 165 43 50 58
236 377 167 42 49 57
237 376 166 43 50 57
237 376 167 42 48 56
237 377 166 43 50 57
237 377 167 42 49 56
237 378 165 43 50 58
237 379 164 43 50 58
237 379 165 42 50 58
236 378 167 43 50 57
236 379 166 41 48 56
236 379 167 41 48 56
237 378 166 43 50 57
237 378 167 43 50 57
237 379 166 42 48 56
238 376 164 43 50 58
238 376 165 43 50 57
238 377 164 43 50 58
238 377 165 42 50 57
239 376 164 43 50 58
238 378 164 43 50 57
238 378 165 42 50 57
238 379 164 43 50 58
237 381 163 44 51 58
236 383 163 43 50 58
237 382 163 43 51 58
237 383 162 44 51 58
237 383 163 44 51 58
239 380 161 44 51 58
239 381 161 43 51 58
238 380 163 44 51 58
238 381 162 44 51 58
238 381 163 44 51 58
239 380 162 44 51 59
239 380 163 45 51 59
239 381 162 44 51 58
238 383 161 43 50 57
239 382 161 43 50 58
239 383 160 42 49 57
239 383 161 43 50 58
238 382 162 43 50 58
238 382 163 44 51 58
238 383 162 43 50 58
239 382 162 43 50 58
236 380 165 42 49 57
236 381 165 42 50 57
237 380 164 43 50 58
237 380 165 42 50 58
237 381 164 43 50 58
236 380 166 42 49 57
236 380 167 42 48 56
236 381 166 42 49 57
236 382 164 42 50 58
236 382 165 42 49 57
236 383 164 42 50 58
237 383 164 43 51 58
238 380 164 44 51 58
235 376 170 40 47 54
235 376 171 41 47 54
235 377 170 41 47 54
235 377 171 41 47 54
235 378 169 41 47 54
235 379 168 41 48 55
235 379 169 41 47 54
234 378 171 41 47 53
234 379 170 40 47 53
234 379 171 41 47 53
235 378 170 41 47 54
235 378 171 41 47 54
235 379 170 41 47 53
233 377 175 40 47 54
233 379 173 40 47 53
233 378 174 40 47 54
233 378 175 40 47 54
233 379 174 40 47 54
233 379 175 40 47 54
234 376 172 40 47 54
234 376 173 40 46 53
234 377 172 41 47 54
234 377 173 40 47 54
235 376 172 41 47 54
235 376 173 41 47 54
235 377 172 41 47 54
234 376 174 40 47 54
234 376 175 40 47 54
234 377 174 41 47 54
234 377 175 40 46 54
234 378 172 41 47 54
234 378 173 41 47 54
234 379 172 41 47 53
234 379 173 40 47 54
234 378 174 40 47 54
233 381 169 41 47 54
233 380 171 40 46 53
233 381 170 40 46 53
233 381 171 40 46 53
233 383 168 40 46 53
233 383 169 40 46 52
232 383 171 40 47 54
233 382 170 40 46 53
233 382 171 40 46 53
233 383 170 40 46 53
233 383 171 40 47 54
234 380 168 42 48 54
234 380 169 41 47 54
234 381 168 42 48 54
234 381 169 41 47 53
235 380 168 42 48 54
235 380 169 41 47 54
235 381 168 42 48 54
234 380 170 41 47 53
234 380 171 41 47 53
234 381 170 40 46 53
234 382 168 42 48 55
234 382 169 40 46 53
234 383 168 40 47 53
234 383 169 40 46 53
234 382 170 40 46 53
232 381 173 40 47 54
233 380 172 40 46 53
233 380 173 40 47 54
233 381 172 40 47 54
233 381 173 41 47 54
232 380 174 41 48 55
232 380 175 40 47 55
232 381 174 39 47 54
232 381 175 39 47 54
233 380 174 41 48 55
233 380 175 41 48 55
232 382 172 41 47 54
232 382 173 40 47 54
232 383 172 40 47 55
232 383 173 40 47 54
233 382 172 40 47 54
232 382 174 40 47 55
232 382 175 40 47 55
232 383 174 40 47 54
232 383 175 39 47 54
234 380 172 41 47 53
236 376 168 41 47 54
236 376 169 41 47 54
236 377 168 41 47 54
236 377 169 41 47 54
237 376 168 41 48 55
236 376 170 40 46 53
236 378 168 41 48 55
236 378 169 41 47 53
236 379 168 41 47 54
231 381 179 39 46 53
231 382 177 39 46 54
231 383 176 39 47 54
231 383 177 39 46 53
231 382 178 39 46 53
231 382 179 40 46 53
231 383 178 40 46 54
231 383 179 40 46 53
231 380 181 40 46 53
231 381 180 39 46 53
231 381 181 39 46 53
231 380 182 40 46 53
231 380 183 39 46 52
231 381 182 39 46 53
231 381 183 39 46 53
231 382 180 40 47 54
231 382 181 39 46 53
231 383 180 41 47 54
231 383 181 39 46 53
231 382 182 39 46 53
231 382 183 39 46 53
231 383 182 39 46 53
231 383 183 39 46 53
231 380 184 39 45 52
231 380 185 40 46 53
231 381 184 39 46 53
231 381 185 40 46 53
231 380 186 39 45 52
231 381 186 39 46 53
231 381 187 40 46 53
230 383 184 40 46 53
230 383 185 39 46 53
231 382 184 39 46 53
231 382 185 39 45 53
231 383 184 39 46 53
230 383 186 39 46 53
231 382 186 39 46 53
231 382 187 39 46 53
231 383 186 39 46 53
231 383 187 40 46 54
231 382 188 39 46 53
231 383 188 40 46 54
231 383 189 39 46 53
235 368 176 40 47 54
235 368 177 40 47 54
235 369 176 41 47 54
235 369 177 41 47 54
235 368 178 40 46 53
235 368 179 41 47 54
235 369 178 41 47 54
235 369 179 41 47 54
235 370 176 41 47 54
235 370 177 41 47 54
235 371 176 41 47 54
235 371 177 40 47 53
234 370 179 40 47 54
234 371 178 40 47 54
234 371 179 40 47 54
235 370 178 41 47 54
235 370 179 40 47 54
233 370 181 40 47 54
233 371 180 40 46 54
233 371 181 40 47 54
233 371 182 40 47 54
234 369 180 40 46 53
234 369 181 40 46 53
235 368 180 41 47 54
235 368 181 39 46 53
235 369 180 40 46 54
235 369 181 40 46 53
234 369 182 40 46 53
235 368 182 39 46 53
235 368 183 39 45 53
235 369 182 39 46 53
235 369 183 39 46 52
234 370 180 40 46 54
234 370 181 40 46 53
234 371 180 40 47 54
234 370 182 40 46 53
234 371 182 40 47 54
234 371 183 40 47 54
235 370 182 39 46 54
235 370 183 39 45 52
235 371 182 39 46 54
235 371 183 39 46 54
234 372 176 41 47 54
234 372 177 40 47 54
234 373 176 40 46 53
234 373 177 40 46 53
235 372 176 41 47 54
235 372 177 41 47 53
234 372 178 40 47 54
234 372 179 40 47 54
234 373 178 40 47 54
234 373 179 41 47 54
234 374 176 41 47 54
234 374 177 40 47 54
234 375 176 41 47 54
234 375 177 40 47 54
234 374 178 40 47 54
234 374 179 41 47 54
234 375 178 40 47 54
234 375 179 40 48 55
233 372 180 40 46 53
233 372 181 40 47 54
233 373 180 42 48 55
233 373 181 42 48 55
233 372 182 40 47 54
233 373 182 42 48 55
233 374 180 40 47 54
233 374 181 40 47 55
233 375 180 39 47 54
233 375 181 39 47 55
233 374 182 40 47 55
233 374 183 41 48 55
233 375 182 40 47 55
233 375 183 40 47 54
234 373 180 41 47 54
234 372 182 41 47 54
234 372 183 39 46 54
234 373 182 42 48 55
234 373 183 40 47 55
235 372 183 38 46 54
235 373 183 40 47 54
234 374 180 41 47 54
234 375 180 41 47 55
234 374 183 41 47 54
234 375 183 41 47 55
235 374 183 40 47 55
236 368 183 39 46 53
236 370 183 39 46 53
236 371 183 39 46 54
237 371 183 40 46 53
236 372 183 38 46 54
236 373 183 38 46 54
235 368 184 39 46 53
235 369 184 39 46 53
235 369 185 38 45 52
233 375 184 41 47 54
234 375 184 41 47 54
234 375 185 39 46 54
235 374 184 39 47 54
235 375 184 40 47 54
235 375 185 39 46 53
235 375 186 38 45 53
235 375 187 37 45 52
235 375 188 38 45 53
235 375 189 38 45 53
234 375 191 38 45 53
235 375 190 38 45 53
235 375 191 38 45 53
236 368 184 39 46 53
236 368 185 38 45 52
236 369 184 39 45 53
236 369 185 38 45 53
236 368 186 38 45 53
236 368 187 39 46 53
236 369 186 39 46 53
236 369 187 39 45 53
237 369 186 39 46 53
237 369 187 39 45 53
236 370 184 39 45 52
237 370 184 38 45 52
237 370 185 39 46 53
237 371 184 39 46 53
237 370 186 39 45 53
237 370 187 38 45 52
238 371 184 39 46 53
238 371 185 38 45 53
238 371 186 38 44 51
238 371 187 38 45 52
236 368 188 39 45 52
236 368 189 39 46 52
236 369 188 39 45 52
236 369 189 38 45 52
237 369 188 39 45 52
237 369 189 38 45 52
236 368 190 40 46 53
236 368 191 39 46 53
236 369 190 39 45 52
236 369 191 39 45 52
237 369 190 38 45 52
237 370 188 38 45 52
237 370 189 38 45 52
237 371 188 38 44 51
237 371 189 38 45 52
236 370 191 39 45 52
236 371 191 39 46 52
237 370 190 38 45 52
237 370 191 39 45 52
237 371 190 38 45 52
237 371 191 39 46 52
238 370 188 37 44 51
238 371 188 37 44 52
238 371 189 37 44 52
236 372 184 40 46 54
236 373 184 39 46 54
237 372 184 39 46 54
237 372 185 39 46 54
237 373 184 39 46 54
237 373 185 39 46 54
237 372 186 38 45 53
237 373 186 37 44 52
237 373 187 37 44 52
236 374 184 39 46 54
236 374 185 39 46 54
236 375 185 38 46 53
237 374 185 39 46 54
236 374 186 38 46 53
236 374 187 37 45 53
236 375 186 37 45 53
237 374 186 38 46 54
237 374 187 38 46 53
238 372 185 38 45 53
238 372 186 38 45 52
238 372 187 38 45 52
237 372 188 37 45 52
237 372 189 38 45 52
237 373 188 37 45 52
237 373 189 37 44 52
236 372 190 38 45 52
236 372 191 38 44 51
237 372 190 38 45 52
237 372 191 38 45 52
237 373 190 38 45 52
237 373 191 39 45 53
236 374 188 38 46 53
236 374 189 38 45 53
236 375 189 38 45 53
237 374 188 37 45 52
237 374 189 37 44 52
236 374 190 40 46 54
236 374 191 39 46 53
236 375 190 39 46 53
236 375 191 39 46 53
237 374 190 39 45 53
237 374 191 40 46 53
238 372 188 38 45 52
238 372 189 38 45 52
238 374 190 38 45 52
233 377 176 40 47 54
233 377 177 40 47 55
233 376 179 39 47 55
233 377 178 39 47 55
233 377 179 39 46 54
233 378 176 40 47 54
233 378 177 39 47 54
233 379 176 40 47 54
233 379 177 40 47 54
232 378 179 41 47 55
232 379 178 39 46 54
232 379 179 40 47 54
233 378 178 39 47 54
233 378 179 40 47 55
233 379 178 39 47 54
234 376 176 40 46 54
234 376 177 39 47 54
234 377 176 39 46 54
234 377 177 40 47 55
234 376 178 39 47 54
234 376 179 39 47 54
233 376 180 40 47 55
233 376 181 40 47 55
233 377 180 39 46 54
233 377 181 40 47 54
232 377 183 40 47 54
233 376 182 40 47 55
233 376 183 40 47 54
233 377 182 40 47 54
233 377 183 40 47 54
232 378 180 41 48 55
232 378 181 41 47 55
232 379 180 40 47 54
232 379 181 40 46 54
233 378 180 41 48 55
233 378 181 40 46 54
232 378 182 41 47 54
232 378 183 40 46 53
232 379 182 40 46 53
232 379 183 40 46 53
233 378 182 40 47 54
232 380 176 40 47 54
232 380 177 40 47 54
232 381 176 39 47 54
232 381 177 40 47 54
233 380 176 40 47 55
233 380 177 40 47 54
232 380 178 39 46 54
232 380 179 39 46 53
232 381 178 40 47 54
232 381 179 39 46 53
232 382 176 40 47 54
232 382 177 39 47 54
232 383 176 39 47 54
232 382 178 39 46 53
232 380 180 40 46 54
232 380 181 40 46 53
232 381 180 39 46 53
232 380 182 39 46 53
232 380 183 39 45 52
232 377 184 40 46 54
232 377 185 38 45 53
233 376 184 41 47 54
233 376 185 39 46 53
233 377 184 41 47 54
233 377 185 40 47 54
232 377 186 39 46 53
233 376 186 38 45 53
233 377 186 39 45 53
233 377 187 39 45 53
232 378 184 40 46 53
232 378 185 39 45 53
232 379 184 40 46 53
232 379 185 40 46 53
232 378 186 39 46 53
232 378 187 38 45 52
232 379 186 38 45 52
232 379 187 38 45 52
233 378 186 38 45 52
233 378 187 38 45 52
234 376 184 40 47 54
234 376 185 39 46 53
234 376 186 38 45 53
234 376 187 37 44 52
234 377 187 38 45 53
235 376 187 37 45 53
233 377 188 38 45 52
233 377 189 38 45 52
233 376 190 38 45 52
233 376 191 38 44 52
233 377 190 37 44 52
233 377 191 37 44 52
232 378 188 38 45 52
232 378 189 38 45 52
232 379 188 38 45 52
232 379 189 38 44 52
233 378 188 38 45 52
233 378 189 37 44 52
232 379 190 38 44 52
233 378 190 36 43 51
233 378 191 37 44 51
233 379 190 37 44 51
233 379 191 38 45 52
234 376 188 37 44 52
234 376 189 37 45 52
235 376 188 38 45 53
235 376 189 38 45 53
234 376 190 38 45 52
234 376 191 38 45 53
235 376 190 38 45 53
235 376 191 39 46 53
232 380 184 39 46 52
232 380 185 39 46 53
232 380 186 38 45 52
232 380 187 39 45 52
232 381 187 39 46 53
232 380 188 39 45 52
232 380 189 38 45 52
232 381 188 39 46 53
232 381 189 39 46 53
232 380 190 39 45 53
232 380 191 39 45 53
232 381 190 40 46 53
232 381 191 39 46 53
233 380 191 39 45 53
233 381 191 39 46 53
232 382 188 39 46 53
232 382 189 39 46 53
232 383 189 39 46 53
232 382 190 39 46 54
232 382 191 39 46 53
232 383 190 39 46 53
232 383 191 39 46 53
243 352 167 43 51 59
243 353 167 43 50 58
243 354 167 41 49 56
243 355 167 41 48 56
243 359 163 41 48 55
241 359 167 42 49 56
243 357 165 40 47 55
242 356 167 41 48 55
242 357 166 40 47 54
242 357 167 41 48 55
243 356 166 40 47 55
243 356 167 40 47 55
243 357 166 40 47 55
242 358 165 41 47 55
242 359 165 41 48 55
243 358 165 40 47 55
243 359 164 41 47 55
243 359 165 41 48 55
242 358 166 41 47 55
242 358 167 41 47 54
242 359 166 41 48 55
242 359 167 41 48 55
245 352 163 41 49 57
246 352 161 41 48 56
247 352 160 40 47 54
247 352 161 41 48 55
247 353 160 40 48 55
247 353 161 41 48 56
246 352 162 41 48 56
246 352 163 41 49 57
246 353 162 41 49 57
246 353 163 41 49 57
246 355 161 40 48 56
247 354 160 41 48 55
247 354 161 41 49 56
247 355 160 40 47 55
247 355 161 40 48 56
246 354 162 42 49 57
246 354 163 41 49 57
246 355 162 41 48 57
246 355 163 41 48 56
245 352 164 42 49 57
245 352 165 42 50 58
245 353 164 41 49 57
245 353 165 42 49 57
244 352 166 43 51 59
244 352 167 43 51 59
244 353 166 42 50 58
244 353 167 43 51 59
244 355 165 41 49 56
245 354 164 41 49 57
245 354 165 42 49 57
245 355 164 41 49 57
245 355 165 42 49 57
244 354 166 42 49 57
244 354 167 42 49 57
244 355 166 41 48 56
245 357 163 41 48 55
245 359 161 41 48 56
244 358 163 41 48 55
244 359 162 41 48 55
244 359 163 41 48 55
245 358 162 40 47 55
245 358 163 41 48 55
245 359 162 41 48 55
245 359 163 41 48 55
246 356 161 40 48 56
246 357 161 41 48 56
247 356 160 40 47 55
247 356 161 40 47 55
247 357 160 41 48 56
247 357 161 41 48 56
246 356 162 40 48 56
246 356 163 40 48 55
246 357 162 40 48 56
246 357 163 40 48 55
246 358 160 41 48 55
246 358 161 41 48 56
246 359 160 41 48 55
246 359 161 41 48 56
247 358 160 41 48 55
247 359 160 41 48 55
246 358 162 40 47 55
246 358 163 40 48 55
246 359 162 41 48 56
244 356 165 40 48 55
244 357 164 40 47 55
244 357 165 40 47 55
245 356 164 41 48 55
245 356 165 41 48 56
245 357 164 41 48 56
244 356 166 40 47 55
244 358 164 41 48 55
244 358 165 40 47 55
245 358 164 41 48 55
240 352 171 41 48 56
240 353 171 41 48 56
241 352 170 40 49 58
241 352 171 40 48 57
241 353 170 40 48 57
241 353 171 41 49 57
241 355 169 42 49 57
240 354 171 41 48 56
240 355 171 42 49 56
241 354 170 40 48 56
241 354 171 41 49 57
241 355 170 42 49 57
241 355 171 41 49 56
242 352 169 41 49 57
242 353 169 41 49 57
243 352 168 42 50 59
243 352 169 41 50 58
243 353 168 42 50 58
243 353 169 42 49 57
242 352 170 40 49 57
242 353 170 41 49 57
242 354 169 41 48 56
242 355 168 43 49 56
242 355 169 42 49 57
243 354 168 41 48 56
243 355 168 41 48 56
242 354 170 41 48 57
242 355 170 41 49 56
240 352 172 41 48 55
240 353 172 41 47 55
240 354 172 41 48 55
240 355 172 42 48 55
241 356 168 44 50 57
241 356 169 43 50 57
241 357 168 42 49 56
241 357 169 44 50 58
240 356 170 42 50 58
240 356 171 42 49 57
240 357 170 43 50 58
240 357 171 42 49 56
241 356 170 42 49 57
241 357 170 44 51 58
240 358 169 44 51 58
240 359 169 43 50 57
241 358 168 42 49 57
241 358 169 44 50 58
241 359 168 42 49 57
241 359 169 43 50 58
240 358 170 43 50 58
240 358 171 42 49 57
240 359 170 43 50 57
242 356 168 43 49 56
240 356 172 42 49 56
242 361 163 42 48 55
243 360 162 42 48 55
243 360 163 41 48 55
243 361 162 42 48 55
243 361 163 42 48 55
243 363 161 42 48 55
242 362 163 42 48 55
242 363 162 42 48 55
242 363 163 42 48 55
243 362 162 42 48 55
243 362 163 42 48 55
243 363 162 42 48 55
241 360 166 42 49 57
241 360 167 42 49 56
241 361 166 42 49 57
241 361 167 42 50 58
240 363 167 42 50 58
241 362 166 41 49 57
241 362 167 42 50 58
241 363 166 41 49 57
241 363 167 42 50 58
242 360 164 41 48 55
242 360 165 41 48 55
242 361 164 41 48 55
242 361 165 41 48 55
243 360 164 41 48 55
242 360 166 41 48 55
242 360 167 41 48 55
242 361 166 41 48 56
242 362 164 41 48 55
242 362 165 42 48 56
242 363 164 42 49 56
242 363 165 42 49 56
242 362 166 42 49 56
242 363 166 41 49 56
243 364 161 42 48 54
243 365 160 41 48 55
243 365 161 42 48 55
242 364 162 42 48 55
242 364 163 42 48 55
242 365 162 42 48 55
242 365 163 42 48 55
243 364 162 42 48 55
243 365 162 42 48 55
243 366 160 42 48 55
243 366 161 42 48 55
243 367 160 41 48 55
243 367 161 42 48 55
242 366 162 42 48 55
242 366 163 42 49 56
242 367 162 42 48 55
242 367 163 42 48 55
243 366 162 42 48 55
243 367 162 42 48 55
241 364 165 42 49 57
241 365 165 41 48 56
240 365 167 42 49 57
241 364 166 42 49 57
241 364 167 42 49 57
241 365 166 42 49 57
241 365 167 42 49 57
241 366 164 42 48 56
241 366 165 41 48 55
241 367 164 42 48 55
241 367 165 41 48 55
240 366 166 42 49 56
240 366 167 42 49 57
240 367 166 42 49 56
240 367 167 42 49 57
241 366 166 41 48 55
242 364 164 42 49 56
242 364 165 42 49 56
242 365 164 42 49 56
242 365 165 42 49 56
242 366 164 42 48 56
242 367 164 42 49 56
244 361 161 40 47 55
245 360 161 41 48 55
245 361 160 41 48 56
245 361 161 40 47 55
244 360 162 41 48 55
244 361 162 42 48 55
245 360 162 41 48 55
244 362 161 41 48 55
244 363 160 41 48 54
244 363 161 42 48 54
245 362 160 41 48 55
245 362 161 40 47 55
245 363 160 41 48 55
246 360 160 41 48 56
246 361 160 41 48 56
244 364 160 41 48 54
244 365 160 41 48 55
244 366 160 41 48 55
244 367 160 41 48 55
240 360 169 44 51 58
240 361 168 43 50 58
240 361 169 44 50 58
241 360 168 43 50 58
241 360 169 43 50 58
241 361 168 43 50 58
240 360 170 43 50 58
240 361 170 42 49 57
240 361 171 41 49 57
240 362 168 43 50 58
240 362 169 43 50 58
240 363 168 42 49 57
240 363 169 43 50 57
241 362 168 42 50 58
241 363 168 41 49 57
241 363 169 43 50 58
240 362 170 43 50 57
240 362 171 42 49 56
240 363 170 43 50 58
240 363 171 42 49 57
240 364 168 43 50 58
240 364 169 43 50 57
240 365 168 43 50 58
240 365 169 43 50 57
241 364 168 42 49 57
241 364 169 42 49 57
240 364 170 42 49 56
240 366 168 42 50 57
248 352 160 40 47 54
248 353 160 40 47 55
248 354 160 41 48 55
248 355 160 40 47 55
248 356 160 40 47 55
243 368 161 41 47 54
243 369 160 41 47 54
243 369 161 41 47 54
242 368 162 42 48 54
242 368 163 42 47 54
242 369 162 42 47 54
242 369 163 42 47 54
243 368 162 42 48 54
243 369 162 41 47 54
243 370 160 41 47 54
243 370 161 41 47 54
243 371 160 41 47 54
243 371 161 41 47 54
242 370 162 41 47 53
242 370 163 41 47 54
242 371 162 42 47 53
242 371 163 41 47 54
243 370 162 42 47 54
243 371 162 41 47 53
240 368 165 43 50 57
240 369 165 43 50 57
241 368 164 42 48 55
241 368 165 42 49 56
241 369 164 43 49 55
241 369 165 43 49 56
240 368 166 42 49 57
240 369 166 43 50 57
240 370 165 44 50 57
240 371 165 44 50 57
241 370 164 42 48 55
241 370 165 43 49 56
241 371 164 42 48 55
242 369 164 42 48 55
241 372 163 42 48 55
241 373 162 42 48 54
241 373 163 43 49 55
241 374 161 41 47 54
241 375 161 42 48 55
240 374 163 44 50 57
240 375 163 43 49 56
241 374 162 41 47 54
241 374 163 43 49 56
241 375 162 42 48 55
242 372 161 40 47 53
242 373 160 40 47 53
242 373 161 40 47 54
243 372 160 41 47 54
243 372 161 41 47 53
243 373 160 41 47 54
242 372 162 41 47 53
242 372 163 41 47 54
242 373 162 42 47 54
242 374 160 41 47 54
242 374 161 41 47 54
242 375 160 41 48 55
242 375 161 42 48 55
243 374 160 40 47 54
240 372 165 44 50 57
240 373 164 44 50 57
240 373 165 44 51 59
241 372 164 43 49 55
240 374 164 44 50 57
240 375 164 43 49 57
244 368 160 41 48 55
244 369 160 41 48 55
240 377 161 43 49 56
241 376 160 42 48 55
241 376 161 42 49 56
241 377 160 42 48 55
241 377 161 43 49 56
240 376 162 42 49 56
240 376 163 42 49 56
240 377 162 42 49 56
241 376 162 42 49 56
240 378 161 43 49 57
240 379 161 43 50 57
241 378 160 42 48 56
241 378 161 42 49 56
241 379 160 42 49 56
240 378 162 43 50 57
240 379 162 44 50 58
242 376 160 42 48 55
240 380 160 43 49 57
240 380 161 43 50 57
240 381 160 43 50 57
240 381 161 43 50 58
241 380 160 42 49 56
241 381 160 42 49 56
240 382 160 43 50 58
240 382 161 43 50 58
240 383 160 42 49 57
239 330 192 39 46 53
239 331 192 38 46 53
239 331 193 38 45 53
239 332 192 39 46 54
239 332 193 39 46 54
239 333 192 40 47 54
239 333 193 39 47 54
239 332 194 39 47 54
239 333 194 39 47 54
239 333 195 39 46 54
238 334 192 40 47 55
238 335 192 40 47 55
238 335 193 40 47 55
239 334 192 40 47 55
239 334 193 40 47 55
239 335 193 41 47 55
239 334 194 41 48 55
239 334 195 40 47 55
239 335 194 41 48 55
239 335 195 41 48 56
238 336 192 41 48 55
238 336 193 41 48 56
238 337 192 41 48 56
238 337 193 41 48 55
238 336 194 41 48 56
238 337 194 40 47 55
238 337 195 39 46 54
239 336 194 41 48 55
239 336 195 41 47 55
239 337 195 39 46 54
238 338 192 41 48 55
238 338 193 42 48 55
238 339 192 41 48 55
238 339 193 41 48 55
238 338 194 40 47 54
238 338 195 39 46 53
238 339 194 41 47 55
238 339 195 40 47 54
238 340 192 41 47 54
238 340 193 41 47 54
238 341 192 40 46 53
238 341 193 40 46 53
238 340 194 40 47 54
238 340 195 40 46 53
238 341 194 39 46 53
238 341 195 39 45 53
238 342 192 38 45 52
238 342 193 39 45 53
238 343 192 39 45 52
238 343 193 39 45 53
238 342 194 39 46 53
238 342 195 39 45 53
238 343 194 39 46 53
238 343 195 39 45 53
238 344 192 38 45 52
238 344 193 38 45 52
238 345 192 39 46 53
238 345 193 39 46 53
238 344 194 38 45 53
238 344 195 38 45 52
238 345 194 38 45 52
238 345 195 38 45 52
238 346 192 38 45 53
238 346 193 39 45 53
238 347 192 38 45 53
238 347 193 39 46 53
238 346 194 39 45 53
238 346 195 38 45 53
238 347 194 39 46 53
238 347 195 39 45 53
238 348 192 38 45 52
238 348 193 38 44 51
238 349 192 39 46 53
238 349 193 39 46 53
238 348 194 38 45 52
238 348 195 39 45 53
238 349 194 39 45 52
238 349 195 38 45 52
239 348 195 38 45 53
238 350 192 40 46 53
238 350 193 40 46 53
238 351 192 39 46 53
238 351 193 40 46 52
238 350 194 38 45 52
238 350 195 38 45 53
238 351 194 38 45 52
238 351 195 38 45 53
241 320 192 39 46 53
241 320 193 38 45 53
241 321 192 38 45 53
241 321 193 37 45 53
241 321 194 37 44 52
241 322 192 38 45 53
241 322 193 37 45 52
241 323 192 39 45 52
241 323 193 39 45 53
241 322 194 37 45 52
241 323 194 38 45 53
242 320 193 38 45 53
242 320 194 38 45 52
242 321 194 38 45 52
242 322 194 38 45 53
240 324 192 39 45 52
240 325 192 39 46 53
240 325 193 40 46 53
241 324 192 39 45 53
241 324 193 39 45 53
241 325 193 39 46 53
241 324 194 40 46 54
241 325 194 40 47 54
240 326 192 39 46 53
240 326 193 40 46 53
240 327 192 38 44 51
240 327 193 40 46 53
241 326 193 40 47 54
240 326 194 41 47 55
240 327 194 41 48 55
241 326 194 41 47 55
241 327 194 42 48 56
240 328 192 39 45 53
240 328 193 40 47 54
240 329 192 40 46 53
240 329 193 40 46 54
240 328 194 41 48 55
240 328 195 41 48 55
240 329 194 41 47 55
240 329 195 41 48 55
240 330 192 39 46 53
240 330 193 39 46 53
240 331 193 39 46 54
240 330 194 39 46 54
240 330 195 39 47 54
240 331 194 39 47 54
240 331 195 40 47 55
240 332 194 39 46 54
240 332 195 38 46 54
240 333 195 38 45 53
237 353 192 39 46 53
237 353 193 39 45 53
237 353 194 39 45 53
237 353 195 39 46 53
237 354 192 39 46 53
237 354 193 39 45 53
237 355 192 40 46 53
237 355 193 39 46 53
237 354 194 39 46 53
237 354 195 39 46 53
237 355 194 39 46 53
237 355 195 39 45 53
238 352 192 40 46 53
238 352 193 39 45 52
238 353 192 39 46 53
238 352 194 38 45 52
238 352 195 37 44 52
238 353 194 38 45 52
238 353 195 38 45 53
238 354 195 39 46 53
237 356 192 39 45 52
237 356 193 39 45 52
237 357 192 38 44 52
237 357 193 38 44 51
237 356 194 39 45 52
237 356 195 38 45 52
237 357 194 37 44 51
237 357 195 38 45 52
237 358 192 39 45 52
237 358 193 38 44 51
237 359 192 40 46 52
237 359 193 39 45 52
237 358 194 37 44 51
237 358 195 38 44 51
237 359 194 38 45 52
237 359 195 38 45 52
236 360 192 39 45 52
236 360 193 39 45 52
236 361 192 39 45 52
236 361 193 38 45 52
237 360 192 39 45 52
237 360 193 38 45 52
236 360 194 38 44 52
236 360 195 37 44 51
236 361 194 38 45 52
236 361 195 37 44 51
237 360 194 38 45 52
237 360 195 38 44 52
236 362 192 39 45 52
236 362 193 39 45 52
236 363 192 38 45 52
236 363 193 38 45 52
236 362 194 38 45 52
236 362 195 37 44 51
236 363 194 38 45 52
236 363 195 38 45 52
236 361 196 37 44 51
236 362 196 37 44 52
236 363 196 38 45 53
236 364 192 38 44 52
236 364 193 37 44 51
236 365 192 37 44 52
236 365 193 37 44 51
236 364 194 37 44 51
236 364 195 38 45 52
236 365 194 37 44 52
236 365 195 38 45 52
236 366 192 37 44 52
236 366 193 37 44 52
236 367 192 38 45 53
236 367 193 39 46 53
236 366 194 37 44 52
236 366 195 37 44 52
236 367 194 39 46 54
236 367 195 38 45 53
236 364 196 38 45 53
236 365 196 38 45 53
236 366 196 38 45 53
236 367 196 38 45 53
235 368 193 39 46 53
235 369 193 39 46 53
235 368 194 39 46 54
235 368 195 39 46 54
235 369 194 39 46 53
235 369 195 40 46 54
235 370 193 39 46 53
235 371 193 39 45 52
235 370 194 40 46 53
235 370 195 40 46 54
235 371 194 39 46 53
235 371 195 39 45 53
235 368 196 39 46 54
235 369 196 40 47 54
235 370 196 41 47 54
235 371 196 40 46 54
233 375 192 38 45 52
233 375 193 38 45 52
235 372 192 38 45 52
235 372 193 38 45 52
235 373 192 38 45 52
235 373 193 38 45 52
235 372 194 38 45 52
235 372 195 39 45 53
235 373 194 38 45 52
235 373 195 39 45 53
234 374 192 38 44 52
234 374 193 37 45 52
234 375 192 38 45 52
234 375 193 38 45 52
235 374 192 38 45 52
235 374 193 38 45 52
235 375 192 39 45 53
234 374 194 37 45 52
234 374 195 38 45 53
234 375 194 38 45 53
234 375 195 38 45 53
235 374 194 38 45 52
235 374 195 39 46 53
235 372 196 39 46 54
235 373 196 38 46 53
234 375 196 39 46 54
235 374 196 39 46 54
235 375 196 39 46 54
236 368 192 39 46 53
236 368 193 38 45 53
236 369 192 39 46 53
236 369 193 39 46 53
236 368 194 39 46 54
236 368 195 39 46 53
236 370 192 39 45 53
236 370 193 39 45 53
236 371 192 39 45 52
236 368 196 39 46 53
236 372 192 38 45 52
236 373 192 39 45 52
236 374 192 40 46 53
233 376 192 38 45 52
233 376 193 38 45 52
233 377 192 37 44 51
233 377 193 37 44 52
233 377 194 38 45 53
233 378 192 36 43 51
233 378 193 37 44 52
233 379 192 38 45 52
233 379 193 39 45 53
233 378 194 38 45 52
233 379 194 39 45 52
233 379 195 39 45 53
234 376 192 38 45 52
234 376 193 38 45 53
234 377 193 37 44 52
234 376 194 39 46 54
234 376 195 39 46 54
234 377 194 38 45 53
234 377 195 39 46 53
234 378 194 38 45 53
234 378 195 39 46 53
233 379 196 39 46 53
234 376 196 39 46 54
234 377 196 39 46 54
234 378 196 39 46 53
233 380 192 39 46 53
233 380 193 39 46 53
233 381 192 38 45 52
233 381 193 39 45 52
233 380 194 39 45 52
233 380 195 38 45 52
233 381 194 39 46 52
233 381 195 39 45 52
232 382 192 38 45 52
232 383 192 37 45 53
232 383 193 38 45 53
233 382 192 38 45 52
233 382 193 38 45 53
233 383 193 38 45 52
232 383 194 38 45 52
233 382 194 39 45 52
233 382 195 39 46 53
233 383 194 38 45 53
233 383 195 39 46 53
233 380 196 38 45 53
233 381 196 39 46 53
233 382 196 38 45 53
233 383 196 39 46 53
252 438 127 42 49 56
253 438 127 43 49 57
254 438 127 44 50 57
255 438 127 42 48 56
223 403 176 40 46 53
223 403 177 40 46 53
223 403 178 40 46 53
223 403 179 41 47 53
223 402 181 42 48 54
223 403 180 41 47 54
223 403 181 42 48 54
223 402 182 43 49 55
223 402 183 43 49 55
223 403 182 42 48 55
223 403 183 43 49 55
223 404 182 42 48 55
223 404 183 43 48 55
223 402 184 42 48 55
223 402 185 42 48 56
223 403 184 42 48 55
223 403 185 43 49 55
223 402 186 42 49 56
223 403 186 43 49 56
223 403 187 42 49 56
223 403 188 42 49 56
223 404 184 42 48 55
223 404 185 43 49 55
223 404 186 43 49 56
223 404 187 42 49 56
223 404 188 42 48 56
223 404 189 41 48 55
223 405 188 42 48 55
223 405 189 40 47 55
223 404 190 39 47 54
223 405 190 39 47 54
223 405 191 38 46 54
235 389 158 43 50 57
235 389 159 43 50 57
235 390 158 43 50 57
235 390 159 43 49 57
235 391 158 43 49 56
235 391 159 42 49 57
237 385 159 42 50 58
237 387 157 42 49 57
236 386 159 43 50 58
236 387 158 42 50 58
236 387 159 43 50 58
237 386 158 43 50 58
237 386 159 43 50 58
237 387 158 42 50 58
239 385 157 42 48 56
238 384 159 42 49 57
238 385 158 42 49 57
238 385 159 42 50 58
239 384 158 41 48 56
239 384 159 42 49 57
239 385 158 42 48 56
238 386 157 42 49 56
238 387 157 43 49 56
239 386 156 41 48 55
239 386 157 42 49 56
239 387 156 41 48 55
239 387 157 42 49 56
238 386 158 43 50 57
237 390 154 42 48 55
239 389 153 42 48 55
238 389 155 42 49 56
239 388 154 41 48 55
239 388 155 41 48 55
239 389 154 42 49 56
239 389 155 42 48 55
239 390 153 41 48 55
238 390 155 42 49 56
238 391 155 41 48 55
239 390 154 41 48 55
239 391 154 41 48 55
236 389 157 43 50 57
237 388 157 42 49 57
237 389 156 43 49 57
237 389 157 43 49 57
236 388 158 42 49 57
236 388 159 42 50 58
236 389 158 43 50 57
236 389 159 43 50 57
237 388 158 42 49 57
236 390 157 43 49 57
236 391 156 43 49 56
236 391 157 43 49 56
237 390 156 42 49 56
237 390 157 42 49 56
237 391 156 43 49 56
236 390 158 43 50 57
236 391 158 43 50 57
238 388 156 43 49 56
238 388 157 42 49 56
238 389 156 43 50 57
239 388 156 42 48 55
238 390 156 43 49 56
235 392 157 43 49 56
235 393 156 41 48 56
235 393 157 42 49 56
234 392 158 42 49 56
234 392 159 42 49 56
234 393 158 42 48 55
234 393 159 43 49 56
235 392 158 42 49 56
235 392 159 42 49 57
235 393 158 42 49 56
234 394 157 42 48 55
235 394 156 41 48 55
235 394 157 42 48 55
235 395 156 41 48 55
235 395 157 42 48 55
234 394 158 42 48 55
234 394 159 42 49 56
234 395 158 41 48 55
234 395 159 41 48 55
235 395 158 41 48 55
235 396 157 40 47 54
235 397 157 39 46 54
234 396 159 42 48 56
234 397 159 41 47 55
235 396 158 40 47 54
235 396 159 40 47 55
235 397 158 40 47 54
235 397 159 41 47 55
235 398 157 39 46 54
234 398 159 41 47 54
235 398 158 40 47 53
235 398 159 41 47 54
235 399 158 40 46 53
235 399 159 41 47 54
236 393 155 41 47 54
237 392 155 42 48 55
237 393 155 41 48 55
236 394 155 40 47 55
236 395 155 41 48 55
237 394 155 41 48 55
237 395 154 41 48 55
237 395 155 41 48 55
239 392 153 42 48 55
239 393 152 42 48 55
239 393 153 41 48 55
238 392 154 40 47 54
238 392 155 41 48 55
238 393 154 41 48 55
238 393 155 41 47 54
239 392 154 41 47 54
239 393 154 41 47 54
238 394 153 42 48 55
238 395 152 41 48 55
238 395 153 41 48 55
239 394 152 42 48 55
239 394 153 42 48 55
239 395 152 41 48 55
239 395 153 42 48 55
238 394 154 42 48 55
236 392 156 42 48 55
236 392 157 42 49 56
236 393 156 41 48 56
237 392 156 42 49 56
236 394 156 40 47 55
236 395 156 41 48 55
237 396 153 40 47 54
237 397 153 40 47 54
236 396 155 39 46 54
236 397 154 39 46 54
236 397 155 39 46 54
237 396 154 39 46 54
237 397 154 39 46 54
237 398 153 40 47 54
236 398 154 39 46 54
236 398 155 39 46 53
236 399 154 40 46 53
236 399 155 40 46 53
237 398 154 40 47 54
237 399 154 40 46 53
238 396 152 41 48 55
238 396 153 41 48 55
238 397 153 40 47 54
239 396 152 41 48 55
239 397 152 41 47 55
238 398 153 40 47 54
238 399 153 40 47 54
239 398 152 40 47 54
239 398 153 40 47 54
239 399 152 40 47 55
239 399 153 40 47 54
238 399 154 40 46 53
236 396 156 40 47 54
236 397 156 39 46 54
236 398 156 39 46 53
236 398 157 39 46 54
236 399 156 40 46 53
236 399 157 40 46 54
231 405 159 40 46 53
231 406 159 40 46 53
231 407 159 39 45 52
230 409 159 39 45 52
231 408 158 38 45 53
231 408 159 39 45 52
231 409 158 38 45 52
231 409 159 38 45 52
231 410 157 38 45 52
231 411 157 39 45 53
230 410 159 38 45 52
230 411 159 38 45 51
231 410 158 38 45 52
231 410 159 38 45 52
231 411 158 39 45 52
231 412 156 39 45 52
231 412 157 39 45 52
231 413 156 40 46 53
231 413 157 39 46 53
230 412 158 39 46 52
230 412 159 39 46 52
230 413 158 39 45 52
230 413 159 39 45 52
231 412 158 39 45 52
231 413 158 38 45 52
231 414 156 41 47 53
231 414 157 40 46 53
231 415 156 41 47 54
231 415 157 41 47 53
230 414 158 40 46 53
230 414 159 40 46 53
234 407 151 40 46 53
235 406 151 41 47 55
235 407 150 40 47 54
235 407 151 40 47 54
238 403 151 41 47 54
239 402 151 40 47 54
239 403 150 40 47 54
239 403 151 40 47 54
237 405 151 39 46 54
236 406 151 40 47 54
236 407 150 40 47 54
237 406 151 39 46 54
237 407 150 40 47 54
239 404 149 41 47 54
239 405 149 41 48 55
238 404 151 40 47 54
238 405 150 40 47 54
238 405 151 39 46 54
239 404 150 40 47 54
239 404 151 40 47 54
239 405 150 41 47 55
238 407 149 40 47 54
239 406 148 40 47 55
239 406 149 41 48 55
239 407 148 40 47 55
239 407 149 40 47 55
238 406 150 40 47 54
238 406 151 39 46 54
238 407 150 40 47 54
235 403 155 40 47 53
233 403 159 40 47 54
234 403 157 41 47 53
235 403 156 41 47 53
235 403 157 41 47 53
234 402 159 41 46 53
234 403 158 41 47 53
234 403 159 41 47 53
235 402 158 41 47 53
235 402 159 41 47 53
235 403 158 41 47 53
233 407 153 40 47 54
232 407 155 40 47 54
233 406 154 40 46 53
233 406 155 40 46 53
233 407 154 40 47 54
233 407 155 40 46 53
235 405 152 40 47 54
235 405 153 40 46 53
234 405 154 40 46 53
234 405 155 40 46 52
235 404 154 40 46 53
235 404 155 40 46 52
235 405 154 40 46 53
234 406 152 40 47 54
234 406 153 40 47 53
234 407 152 40 47 54
234 407 153 41 47 54
235 406 152 41 47 54
235 406 153 40 46 53
235 407 152 41 47 54
234 406 154 41 47 54
234 406 155 41 47 53
233 405 156 41 46 53
233 405 157 41 46 53
232 404 159 40 46 53
232 405 158 39 46 53
232 405 159 40 46 53
233 404 158 40 46 53
233 404 159 39 46 53
233 405 158 40 46 53
233 405 159 40 46 53
232 406 157 39 46 53
232 407 156 40 46 53
232 407 157 40 46 53
233 406 156 40 46 53
233 406 157 40 46 53
233 407 156 40 46 53
232 406 158 39 46 53
232 406 159 39 46 53
232 407 158 38 45 53
233 406 158 40 46 53
234 404 156 42 47 53
234 404 157 41 47 53
234 405 156 41 46 53
234 405 157 41 47 53
235 404 156 41 47 53
234 404 158 41 46 53
236 400 154 40 46 53
236 400 155 40 46 53
236 401 155 41 47 53
237 400 154 40 46 53
237 401 154 39 46 53
237 403 153 40 46 53
236 402 154 41 47 53
236 402 155 41 47 53
236 403 154 41 47 54
236 403 155 41 47 53
237 402 154 40 47 53
237 403 154 40 47 54
238 400 153 40 47 54
238 401 153 41 47 54
239 400 152 40 47 55
239 400 153 40 47 54
239 401 152 40 47 54
238 400 154 40 47 53
238 401 154 40 46 53
238 402 152 41 47 55
238 402 153 41 47 54
238 403 152 40 47 54
238 403 153 40 47 54
239 402 152 40 47 54
239 403 152 40 47 54
236 400 156 40 47 53
236 400 157 41 47 54
236 401 156 41 47 54
236 401 157 41 47 54
236 400 158 41 47 54
236 400 159 42 48 54
236 401 158 41 47 54
236 401 159 41 47 54
236 402 156 41 47 53
236 402 157 42 47 54
236 403 156 42 47 54
236 403 157 42 48 54
236 402 158 41 47 54
236 402 159 41 47 53
236 404 153 41 47 54
236 405 152 40 47 54
236 405 153 40 47 54
237 404 152 40 47 54
237 404 153 40 46 53
237 405 152 40 46 54
236 404 154 40 47 53
236 406 152 40 47 54
238 404 152 40 47 54
238 405 152 39 47 54
235 409 149 39 47 54
234 408 151 40 47 54
234 409 150 40 47 54
234 409 151 40 47 54
235 408 150 40 47 54
235 409 150 40 47 54
234 410 150 40 46 54
234 410 151 39 46 53
235 410 150 40 47 54
235 410 151 40 46 53
235 411 150 39 46 53
235 411 151 39 46 53
235 412 151 39 46 53
235 413 151 39 46 53
235 414 151 39 46 53
235 415 151 40 46 54
239 410 147 39 46 54
239 411 147 40 47 54
236 409 149 39 46 54
237 409 149 39 46 54
236 408 150 40 47 54
237 408 150 40 47 54
237 409 150 40 47 54
236 410 149 39 46 53
237 410 149 39 46 54
236 410 150 39 46 54
236 411 150 39 46 53
236 411 151 39 46 53
237 411 150 39 46 53
238 408 149 40 47 54
238 409 149 40 47 54
239 408 148 40 47 55
239 408 149 40 47 55
239 409 148 39 47 55
239 409 149 40 47 55
238 408 150 40 47 54
238 410 149 39 46 54
238 411 149 39 47 54
239 410 148 39 46 54
239 410 149 39 47 54
239 411 148 39 46 54
239 411 149 38 46 54
238 411 150 39 46 54
239 412 147 40 47 54
239 413 147 41 48 55
238 415 147 40 47 54
239 414 146 41 47 54
239 414 147 40 47 54
239 415 146 41 47 54
239 415 147 41 47 54
237 412 149 40 47 54
236 412 150 40 47 54
236 412 151 39 46 53
236 413 150 40 47 54
236 413 151 39 46 53
237 412 150 40 47 54
237 413 150 40 47 54
237 414 149 40 46 54
237 415 149 40 47 54
236 414 150 39 46 53
236 414 151 39 46 53
236 415 150 40 47 54
236 415 151 40 46 53
237 414 150 40 46 54
237 415 150 39 46 53
238 412 149 40 47 54
238 413 148 40 47 54
238 413 149 40 47 54
239 412 148 40 46 54
239 413 148 40 47 54
238 412 150 40 47 54
238 414 148 40 47 54
238 414 149 40 47 54
238 415 148 40 47 54
238 415 149 40 47 54
233 408 152 40 47 54
233 408 153 40 47 54
233 409 153 40 47 54
232 408 155 40 46 53
232 409 155 40 46 54
233 408 154 40 47 54
233 408 155 40 47 54
233 409 154 40 47 54
233 409 155 40 47 54
233 410 153 40 47 54
232 410 155 40 47 54
232 411 155 39 46 53
233 410 154 40 47 54
233 410 155 40 47 54
233 411 154 39 46 53
233 411 155 39 46 54
234 408 152 40 46 53
234 408 153 40 46 53
234 409 152 40 46 53
234 410 152 40 46 53
234 410 153 40 46 53
234 411 152 39 46 53
234 411 153 39 46 53
235 411 152 39 46 53
234 411 154 39 46 53
232 408 156 39 46 53
232 408 157 39 45 52
232 409 156 39 46 53
232 409 157 38 45 52
233 408 156 40 46 53
232 408 158 38 45 53
232 409 158 37 45 52
232 410 156 39 46 53
232 410 157 38 45 52
232 411 156 39 46 53
232 411 157 39 46 53
232 412 155 39 46 53
233 412 154 39 46 53
233 412 155 39 46 53
233 413 154 39 46 53
233 413 155 39 46 54
232 414 155 41 48 55
232 415 155 42 48 55
233 414 154 39 46 53
233 414 155 40 47 54
233 415 154 40 47 54
233 415 155 41 48 55
234 412 152 39 46 53
234 412 153 40 46 53
234 413 152 39 46 53
234 413 153 40 46 53
235 412 152 39 46 53
235 413 152 39 45 52
234 412 154 39 46 53
234 413 154 40 46 53
234 414 152 40 47 54
234 414 153 40 47 54
234 415 152 40 47 54
234 415 153 40 47 54
235 414 152 39 46 53
235 415 152 40 47 54
234 414 154 40 46 54
232 412 156 39 45 53
232 413 156 40 46 53
232 414 156 42 48 54
232 415 156 42 48 54
250 387 143 41 48 56
251 386 143 41 48 56
251 387 143 42 49 57
250 388 143 40 47 55
250 389 143 41 48 55
251 388 143 41 48 55
251 389 143 41 48 55
250 390 143 41 48 56
250 391 143 42 49 56
251 390 142 42 49 56
251 391 142 42 49 57
251 391 143 42 49 57
252 384 143 40 48 56
252 385 143 41 48 56
253 384 143 41 49 57
253 385 143 42 49 57
252 386 143 41 48 56
252 387 142 43 49 56
252 387 143 42 49 56
253 386 142 43 50 57
253 386 143 42 49 57
253 387 142 43 50 57
254 384 143 42 49 57
254 385 142 43 50 57
254 385 143 42 49 57
255 384 143 44 50 57
255 385 142 44 50 58
255 385 143 43 50 57
254 387 141 44 50 58
255 387 141 45 51 58
254 386 142 43 50 57
254 387 142 44 50 58
255 386 142 45 51 59
255 387 142 45 51 58
252 389 141 42 49 56
253 388 141 43 49 57
253 389 141 42 49 56
252 388 142 42 49 56
252 388 143 42 49 56
252 389 142 42 49 56
253 388 142 43 50 57
252 390 141 43 49 57
252 391 141 43 49 57
253 390 141 42 49 57
253 391 141 42 49 56
252 390 142 43 50 57
252 391 142 43 50 57
254 388 141 43 50 57
254 389 141 42 49 57
255 388 141 44 50 58
255 389 140 43 50 58
255 389 141 43 50 57
254 388 142 43 50 57
254 390 140 42 49 57
254 390 141 42 49 57
254 391 140 42 49 57
255 390 140 43 50 58
255 391 140 43 50 58
249 395 143 43 50 57
250 392 143 42 49 56
250 393 143 43 49 56
251 392 142 42 49 56
251 392 143 42 49 57
251 393 142 42 49 56
251 395 141 43 50 57
250 394 143 43 50 57
250 395 142 44 50 57
250 395 143 44 50 57
251 394 142 42 49 56
251 395 142 43 50 57
249 396 143 43 50 57
249 397 143 44 50 57
248 398 143 44 50 57
248 399 143 43 50 57
249 398 142 44 50 57
249 398 143 44 50 57
249 399 142 44 50 57
249 399 143 44 50 57
251 396 141 43 50 57
251 397 141 42 49 56
250 396 142 43 50 57
250 396 143 44 50 57
250 397 142 44 50 57
251 396 142 42 49 56
251 397 142 43 49 56
250 399 141 43 49 56
251 398 141 42 49 56
251 399 141 42 49 56
250 398 142 44 50 57
250 399 142 44 50 57
251 398 142 43 49 56
252 392 141 43 50 57
252 393 141 43 49 56
253 392 140 41 48 56
253 392 141 42 49 56
253 393 140 42 49 56
253 393 141 43 49 56
252 392 142 43 49 57
252 393 142 42 49 56
252 394 141 43 50 57
252 395 141 43 50 57
253 394 140 42 49 56
253 395 140 42 49 56
253 395 141 42 49 57
254 392 140 42 49 56
254 393 140 41 48 56
255 392 140 42 49 57
255 393 140 41 49 56
254 394 140 42 49 56
254 395 140 42 49 56
255 394 140 41 49 56
255 395 140 42 49 56
254 399 139 42 49 56
255 398 139 42 49 56
255 399 139 42 49 56
252 396 141 42 49 56
252 397 141 42 49 56
253 396 140 41 48 56
253 396 141 42 49 56
253 397 140 41 48 56
252 398 141 42 49 56
252 399 140 42 49 57
252 399 141 42 49 57
253 398 140 41 49 56
253 399 140 41 49 56
254 396 140 42 49 56
254 397 140 42 49 56
255 396 140 42 49 57
255 397 140 42 49 56
254 398 140 42 49 56
254 399 140 42 49 56
255 398 140 42 49 56
242 387 151 42 48 55
243 386 151 41 47 54
243 387 150 42 48 55
243 387 151 42 48 55
241 389 151 42 49 55
241 390 151 42 48 55
241 391 151 41 48 55
243 388 149 43 49 56
243 389 149 42 49 56
242 388 151 42 48 55
242 389 150 42 49 56
242 389 151 43 49 56
243 388 150 42 48 56
243 389 150 42 49 56
243 390 149 41 48 55
242 390 150 42 49 56
242 390 151 43 49 56
242 391 150 41 48 56
242 391 151 42 48 55
243 390 150 42 48 56
243 391 150 41 48 56
245 386 147 44 51 57
245 387 147 44 50 57
246 385 147 44 51 57
247 384 147 44 50 56
247 385 146 44 50 57
247 385 147 44 50 57
247 386 145 43 50 57
247 387 145 43 50 57
246 386 146 45 51 58
246 386 147 44 51 57
246 387 146 44 51 57
246 387 147 45 51 58
247 386 146 44 50 57
247 387 146 43 50 57
245 384 149 43 49 56
245 385 148 44 50 57
245 385 149 43 50 57
244 384 151 42 48 55
244 385 150 42 49 56
244 385 151 41 48 55
245 384 150 43 49 56
245 385 150 43 49 56
244 386 149 42 49 56
244 387 148 43 50 57
244 387 149 43 49 56
245 386 148 44 50 57
245 386 149 42 49 56
245 387 148 44 50 57
244 386 150 42 48 55
244 386 151 41 48 55
244 387 150 42 49 56
246 384 148 44 50 57
246 384 149 43 50 57
246 385 148 44 51 57
247 384 148 44 50 57
245 388 147 44 50 57
245 389 147 43 50 57
245 390 147 43 49 56
245 391 147 43 49 56
247 388 145 42 49 56
247 389 145 42 48 56
246 388 146 44 50 57
246 388 147 45 51 58
246 389 146 43 50 57
247 388 146 43 49 56
246 390 145 42 49 56
246 391 145 43 49 56
247 390 145 42 49 56
247 391 145 42 49 56
246 390 146 43 49 56
246 391 146 43 49 56
244 388 148 43 50 57
244 388 149 43 49 56
244 389 148 43 49 56
244 389 149 42 49 56
245 388 148 43 50 57
245 389 148 43 50 56
244 390 148 43 49 56
244 390 149 42 48 56
244 391 148 42 49 56
244 391 149 41 48 55
245 390 148 43 49 56
245 391 148 42 49 56
241 384 155 42 49 55
241 385 154 41 47 54
241 385 155 42 48 55
241 386 153 41 48 55
241 387 152 41 47 54
241 387 153 41 47 54
240 386 155 41 48 55
240 387 154 42 48 55
240 387 155 41 48 55
241 386 154 41 47 54
241 386 155 41 48 55
241 387 154 41 47 54
242 385 153 41 48 55
243 384 152 41 48 55
243 384 153 41 48 56
243 385 152 41 48 55
243 385 153 42 48 56
242 384 154 42 48 55
242 384 155 42 48 55
242 385 154 42 48 55
243 384 154 42 48 55
242 386 152 42 48 55
242 386 153 42 48 55
242 387 152 42 48 55
243 386 152 41 48 55
240 384 157 42 48 56
240 385 156 42 48 56
240 385 157 42 48 56
241 384 156 42 48 55
241 384 157 42 49 56
241 385 156 42 48 55
240 384 158 41 48 56
240 384 159 41 48 56
240 386 156 41 48 55
240 387 156 41 48 55
240 388 153 41 48 55
240 389 152 42 48 55
240 389 153 42 48 55
241 388 152 41 47 54
241 388 153 41 47 54
241 389 152 41 48 55
240 388 154 41 48 55
240 390 152 41 48 55
240 390 153 41 48 55
240 391 152 41 47 55
240 391 153 41 48 55
241 390 152 41 47 54
241 391 152 41 47 54
242 388 152 42 48 55
244 384 152 41 48 55
244 384 153 41 48 55
241 392 151 41 47 55
241 393 151 40 47 54
240 394 151 41 48 55
240 395 151 41 48 55
241 394 151 40 47 54
241 395 151 40 47 55
242 392 150 41 48 55
242 392 151 41 48 56
242 393 150 40 48 56
242 393 151 40 48 55
243 392 150 41 48 56
243 393 150 40 48 56
242 394 151 40 48 55
242 395 151 40 47 55
243 394 150 41 48 56
243 394 151 41 49 56
243 395 150 41 48 56
243 395 151 41 48 56
240 396 151 40 47 55
240 397 151 40 47 55
241 396 151 40 47 55
241 397 151 39 47 54
241 398 151 40 47 55
241 399 151 40 47 55
242 396 151 40 48 55
242 397 151 40 48 55
243 396 151 40 48 55
243 397 151 40 48 56
242 398 151 40 47 55
242 399 150 41 48 56
242 399 151 40 48 55
243 398 150 40 48 55
243 398 151 40 47 55
243 399 150 41 48 56
245 392 147 42 49 56
245 393 147 43 49 56
245 394 147 42 49 56
246 392 145 43 49 56
247 392 145 42 49 56
247 393 145 42 49 56
246 392 146 43 49 56
246 392 147 43 49 56
246 393 146 43 49 56
246 393 147 43 50 57
247 393 146 42 49 56
247 394 145 42 49 56
247 395 145 43 49 57
246 394 146 43 49 56
246 394 147 42 49 56
246 395 146 43 49 56
246 395 147 43 49 57
247 394 146 42 49 56
247 395 146 43 49 56
244 392 148 42 49 56
244 392 149 41 48 56
244 393 148 42 49 56
244 393 149 41 49 56
245 392 148 42 49 56
245 393 148 42 49 56
244 394 149 41 49 56
244 395 149 41 48 56
245 394 148 42 49 56
245 394 149 42 49 56
245 395 148 42 49 56
245 395 149 42 49 56
244 394 150 41 48 56
244 395 150 40 48 56
246 395 148 42 49 57
245 399 147 43 50 58
247 396 145 42 49 56
247 397 144 43 49 56
247 397 145 43 49 56
246 396 146 42 49 56
246 396 147 42 49 57
246 397 146 43 50 57
246 397 147 42 49 57
247 396 146 42 49 56
247 397 146 43 49 57
247 398 144 43 50 57
247 398 145 43 49 57
247 399 144 43 50 58
247 399 145 44 50 58
246 398 146 43 49 57
246 398 147 43 50 57
246 399 146 44 50 58
246 399 147 43 50 58
247 398 146 43 49 57
247 399 146 44 50 57
245 396 148 41 49 56
245 396 149 41 49 56
245 397 148 41 48 56
245 397 149 41 48 56
244 396 150 40 48 56
244 397 150 41 48 56
244 397 151 41 48 56
244 399 149 41 48 56
245 398 148 42 49 57
245 398 149 42 49 56
245 399 148 43 50 58
245 399 149 42 49 57
244 398 150 41 48 56
244 398 151 40 48 56
244 399 150 41 48 56
246 396 148 42 49 56
246 397 148 41 49 56
246 398 148 42 49 57
240 392 152 41 48 55
240 392 153 42 49 55
240 393 152 41 48 55
241 392 152 41 47 54
240 394 152 42 48 55
240 395 152 41 48 55
240 396 152 41 48 55
240 397 152 41 48 55
240 398 152 40 47 55
240 399 152 40 47 55
242 396 152 40 48 55
242 397 152 41 48 56
243 396 152 40 48 55
243 396 153 40 48 55
243 397 152 41 48 56
248 385 145 43 50 57
249 384 145 42 49 56
249 385 145 43 49 56
248 384 146 43 50 56
248 384 147 44 50 57
248 385 146 44 50 57
248 386 145 43 50 57
248 387 145 42 49 57
249 386 144 41 49 56
249 386 145 43 49 57
249 387 144 41 48 56
249 387 145 42 49 56
250 384 144 41 49 56
250 384 145 41 49 57
250 385 144 41 48 56
251 384 144 41 48 56
251 385 144 40 47 55
250 386 144 40 48 56
250 387 144 41 48 56
251 386 144 40 48 55
248 388 145 42 49 57
248 389 145 42 49 56
249 388 144 41 48 55
249 389 144 40 48 55
248 390 144 42 49 56
248 390 145 42 49 56
248 391 144 42 49 56
248 391 145 42 49 56
249 390 144 41 49 56
249 391 144 43 49 57
250 388 144 41 48 55
250 391 144 42 49 56
252 384 144 40 48 55
252 385 144 40 47 55
253 384 144 41 48 56
248 392 144 43 49 56
248 392 145 42 49 56
248 393 144 43 49 56
248 393 145 42 49 56
249 392 144 42 49 56
249 393 144 42 49 56
248 394 144 43 50 57
248 395 144 45 51 58
249 394 144 43 50 57
249 395 144 44 50 57
250 392 144 42 49 56
248 396 144 44 51 58
248 396 145 43 50 57
248 397 144 43 49 57
248 398 144 44 50 57
248 399 144 43 50 57
247 400 143 42 49 57
247 401 143 43 50 57
247 402 143 43 50 57
247 403 143 44 51 58
245 407 143 43 50 57
246 405 143 44 51 58
247 404 143 44 51 58
247 405 143 44 50 57
246 406 143 45 51 58
246 407 143 45 51 58
247 406 142 44 50 57
247 406 143 45 51 58
247 407 142 43 50 57
247 407 143 44 50 57
243 409 143 41 49 56
242 411 143 41 48 56
243 410 142 42 49 57
243 410 143 42 49 56
243 411 142 42 49 57
243 411 143 41 48 56
241 414 143 41 48 55
241 415 143 41 48 55
243 413 141 43 50 58
242 412 143 42 49 56
242 413 143 42 49 56
243 412 142 42 49 57
243 412 143 42 49 56
243 413 142 43 49 57
243 414 141 43 50 57
243 415 141 43 49 57
242 414 142 43 49 57
