ply
format ascii 1.0
comment PCL generated
element vertex 2066
property float x
property float y
property float z
property uchar red
property uchar green
property uchar blue
element camera 0
property float view_px
property float view_py
property float view_pz
property float x_axisx
property float x_axisy
property float x_axisz
property float y_axisx
property float y_axisy
property float y_axisz
property float z_axisx
property float z_axisy
property float z_axisz
property float focal
property float scalex
property float scaley
property float centerx
property float centery
property int viewportx
property int viewporty
property float k1
property float k2
end_header
79 719 273 151 160 177
79 718 274 136 146 163
79 718 275 135 145 161
79 716 276 110 118 130
79 717 276 123 131 144
79 720 256 84 89 98
79 720 257 86 91 100
79 721 256 87 93 102
79 721 257 88 94 103
79 720 258 85 91 100
79 720 259 84 91 100
79 721 258 88 94 103
79 721 259 85 92 102
79 722 256 93 98 107
79 722 257 95 101 110
79 723 256 90 96 105
79 723 257 93 99 108
79 722 258 95 101 110
79 722 259 89 95 104
79 723 258 94 100 109
79 723 259 92 98 108
78 720 261 91 97 108
78 721 260 84 91 101
78 721 261 87 94 104
79 720 260 88 95 104
79 720 261 93 100 110
79 721 260 84 91 101
78 720 262 99 106 116
78 720 263 107 113 124
78 721 262 91 97 107
78 721 263 95 102 112
78 722 260 86 92 102
78 722 261 88 94 104
79 722 260 88 94 103
79 722 261 91 97 106
79 723 260 93 99 109
79 723 261 97 103 113
78 722 262 95 100 110
78 722 263 99 105 115
79 722 263 104 110 121
79 723 262 104 110 121
79 723 263 112 119 131
79 724 256 89 95 105
79 724 257 91 98 108
79 725 256 95 103 114
79 725 257 99 106 118
79 724 258 94 101 111
79 724 259 98 104 116
79 725 258 103 110 121
79 725 259 109 115 128
79 726 256 109 117 130
79 726 257 111 119 131
79 727 256 124 133 147
79 727 257 122 129 143
79 726 258 112 119 132
79 726 259 119 126 139
79 727 258 119 127 140
79 727 259 122 129 143
79 724 260 105 112 123
79 724 261 113 120 132
79 725 260 119 126 138
79 725 261 127 134 147
79 724 262 121 127 140
79 724 263 127 135 150
79 725 262 133 140 154
79 725 263 137 146 161
79 726 260 128 135 149
79 726 261 133 140 154
78 720 264 105 112 123
78 720 265 100 108 120
78 721 264 97 105 116
78 721 265 103 110 121
78 720 266 99 106 118
78 720 267 102 108 120
78 721 266 107 114 126
79 720 267 110 116 128
79 721 266 112 119 131
79 721 267 117 123 136
78 722 264 103 110 121
78 722 265 107 114 125
79 722 264 108 115 126
79 722 265 114 121 133
79 723 264 119 126 140
79 723 265 127 135 150
79 722 266 122 129 142
79 722 267 130 137 150
79 723 266 134 142 156
79 723 267 138 145 160
79 720 268 119 126 140
79 720 269 140 149 165
79 721 268 129 137 151
79 721 269 143 151 167
79 720 270 149 160 177
79 720 271 149 159 176
79 721 270 148 157 174
79 722 268 137 143 158
79 724 264 139 147 163
79 720 272 153 161 178
80 719 273 161 171 189
80 718 274 141 151 167
80 718 275 142 150 166
80 719 274 161 171 189
80 719 275 164 172 188
81 719 275 170 179 195
82 719 275 166 174 192
80 717 276 134 141 156
80 718 276 148 156 172
80 718 277 148 156 172
81 718 276 157 166 182
81 718 277 159 167 183
81 719 276 164 172 188
82 719 276 152 160 176
82 719 277 151 158 174
83 719 276 145 152 168
84 719 276 145 151 167
85 719 276 141 148 163
86 719 276 142 148 163
87 719 276 149 156 173
80 727 257 130 137 152
80 727 258 124 131 146
80 727 259 129 136 150
80 725 263 148 157 172
80 726 261 135 143 157
80 727 260 136 144 159
80 727 261 142 151 166
81 727 261 150 159 175
80 726 262 142 150 166
80 726 263 157 164 180
80 727 262 142 150 166
81 726 263 151 159 176
81 727 262 145 153 169
81 727 263 144 151 168
82 727 262 139 146 164
82 727 263 138 145 162
83 727 263 128 135 151
80 723 266 144 152 168
80 723 267 147 154 169
81 723 267 148 154 170
80 721 269 144 151 168
80 720 271 153 161 178
80 721 270 147 155 172
80 721 271 152 160 177
81 721 271 162 170 187
80 722 268 147 153 168
80 722 269 146 153 169
80 723 268 150 157 171
81 722 269 148 155 171
81 723 268 146 153 168
81 723 269 148 155 171
81 722 270 150 158 174
81 722 271 159 166 183
82 721 271 169 176 193
82 722 269 150 156 171
82 723 268 144 150 166
82 723 269 149 156 171
83 723 268 142 148 162
83 723 269 157 163 178
82 722 270 150 156 173
82 722 271 155 162 179
83 722 270 148 155 171
83 722 271 144 151 168
83 723 270 154 160 176
80 724 264 154 161 178
80 724 265 159 166 183
80 725 264 162 170 186
80 725 265 168 176 192
81 725 264 164 172 188
81 725 265 159 167 183
80 724 266 154 161 177
81 724 266 151 158 174
81 724 267 146 153 168
81 725 266 152 159 175
81 726 264 156 164 181
82 725 265 141 148 163
82 724 266 134 141 158
82 724 267 136 143 159
82 725 266 138 145 160
83 724 267 131 137 153
83 725 266 128 136 152
82 726 264 142 149 165
82 726 265 141 149 164
82 727 264 138 144 161
83 726 264 135 141 156
83 726 265 135 142 157
83 727 264 129 136 150
82 724 268 141 147 162
83 724 268 140 145 160
84 723 269 164 169 184
85 723 269 152 157 173
84 722 270 148 155 171
84 722 271 140 147 164
84 723 270 164 170 186
85 722 271 134 142 159
85 723 270 152 158 175
85 723 271 135 142 160
86 723 270 132 138 154
86 723 271 127 134 151
87 723 270 125 131 146
87 723 271 126 132 147
84 724 267 134 139 153
84 725 266 130 136 151
84 725 267 131 136 151
85 725 266 128 134 148
85 725 267 127 133 148
84 726 265 130 136 151
84 727 264 126 132 147
84 727 265 128 133 148
85 726 265 126 132 146
85 727 265 124 131 145
84 726 266 131 137 152
85 726 266 127 133 147
86 725 267 124 130 144
86 727 265 121 128 142
86 726 266 123 129 142
86 726 267 119 124 138
86 727 266 119 125 139
87 726 267 112 118 131
87 727 266 114 120 134
87 727 267 109 116 128
84 724 268 142 146 160
84 724 269 152 158 172
85 724 268 133 138 152
85 724 269 139 145 159
86 724 268 130 135 149
86 724 269 129 134 148
86 725 268 125 130 144
87 724 269 122 127 140
87 725 268 117 123 137
87 725 269 115 120 133
86 724 270 132 138 152
87 724 270 121 126 140
87 725 270 116 121 134
87 726 268 109 115 128
80 728 256 132 140 156
80 728 257 133 141 156
80 729 256 131 139 154
80 729 257 131 139 154
80 728 258 129 137 152
80 728 259 138 146 161
80 729 258 133 140 156
80 729 259 139 147 162
81 729 258 136 143 158
81 729 259 141 148 164
80 730 256 127 134 149
80 730 257 127 135 151
81 730 256 129 136 151
81 730 257 130 137 152
81 731 256 132 139 153
81 731 257 131 137 151
80 730 258 132 139 155
81 730 258 135 142 157
81 730 259 137 143 159
81 731 258 133 139 154
82 730 258 135 141 156
82 730 259 136 142 158
82 731 258 131 138 153
82 731 259 133 140 156
83 731 259 128 135 150
80 728 260 149 157 173
81 728 260 153 161 177
81 728 261 157 165 181
81 729 260 148 155 172
81 728 262 152 160 176
82 728 261 152 161 177
82 729 260 147 155 172
82 729 261 146 154 172
82 728 262 141 150 167
82 729 262 138 147 165
83 728 262 131 140 157
83 728 263 126 134 151
83 729 262 130 138 155
82 730 260 141 148 165
82 730 261 139 147 165
83 730 260 134 141 158
83 730 261 132 139 156
83 731 260 130 137 153
81 732 256 135 141 157
81 732 257 131 137 152
82 732 256 133 141 157
82 732 257 132 139 155
82 733 256 146 154 170
82 733 257 137 145 161
83 733 256 151 160 176
83 733 257 139 148 166
82 732 258 130 137 153
83 732 258 129 137 152
83 732 259 129 136 150
83 733 258 130 138 155
83 734 256 155 165 183
83 734 257 144 155 173
83 735 256 159 169 187
84 728 263 126 133 148
84 729 262 129 137 152
84 729 263 130 138 153
85 728 263 128 136 152
85 729 263 133 142 158
84 730 261 127 134 150
84 731 260 126 133 148
84 731 261 126 133 149
85 731 260 126 133 148
85 731 261 127 135 150
84 730 262 127 134 151
85 730 262 129 137 153
85 730 263 133 142 157
85 731 262 125 134 150
86 729 263 146 155 170
86 731 261 132 140 155
86 730 263 147 156 172
86 731 262 132 141 157
86 731 263 135 145 161
87 730 263 143 152 169
87 731 263 134 144 161
84 732 259 127 133 148
84 733 258 130 137 153
84 733 259 128 134 148
85 732 259 126 132 146
85 733 259 128 133 146
84 734 257 140 149 167
84 735 256 153 162 181
84 735 257 150 158 176
85 734 257 137 144 160
85 735 257 140 146 163
84 734 258 129 137 153
85 734 258 129 135 150
85 734 259 127 132 146
86 733 259 126 131 144
86 734 258 125 131 145
86 734 259 125 130 144
86 735 258 126 132 147
86 735 259 122 128 142
87 735 259 121 127 140
84 732 260 125 132 146
85 732 260 127 133 147
86 732 260 129 136 150
86 732 261 133 140 155
86 733 260 131 137 150
86 733 261 136 143 157
87 733 261 139 146 160
86 732 262 136 144 159
87 732 262 137 145 161
87 732 263 135 144 161
87 733 262 135 143 157
87 733 263 131 140 155
86 734 260 128 134 148
87 734 260 127 132 146
87 734 261 131 136 150
87 735 260 120 126 139
87 735 261 119 124 138
87 734 262 132 137 151
85 728 264 123 132 147
85 728 265 120 128 143
86 728 264 123 132 148
86 728 265 123 131 146
86 729 264 142 151 167
87 728 265 124 132 146
87 729 265 130 138 153
87 728 266 115 122 136
87 728 267 108 115 128
87 729 266 118 125 140
86 730 264 151 160 176
87 730 264 141 150 167
87 730 265 128 137 152
87 731 264 133 143 159
87 731 265 126 135 150
87 732 264 135 145 161
88 723 271 125 131 145
88 725 269 113 118 130
88 724 270 118 124 137
88 724 271 121 127 141
88 725 270 115 120 133
88 725 271 118 124 136
89 724 271 120 125 139
89 725 271 118 124 137
88 726 268 107 113 125
88 726 269 109 115 127
88 727 268 108 114 126
88 727 269 110 116 129
89 726 269 111 117 130
89 727 269 116 123 137
88 726 270 113 119 131
89 726 270 113 120 133
89 726 271 115 122 135
89 727 270 122 130 143
90 726 271 117 126 140
90 727 271 128 137 151
88 733 262 122 129 144
88 733 263 122 130 145
88 735 261 115 120 134
88 734 262 119 124 136
88 734 263 113 121 134
88 735 262 111 117 130
88 735 263 110 116 129
88 728 267 106 113 126
88 729 266 111 118 132
88 729 267 108 115 128
88 731 265 125 134 149
88 730 266 116 124 138
88 730 267 110 119 133
88 731 266 124 132 147
88 731 267 115 124 138
89 731 267 115 124 138
88 728 268 108 115 127
88 728 269 110 117 129
88 729 268 109 115 128
89 728 269 119 125 138
89 729 268 111 118 130
89 729 269 121 127 139
89 728 270 132 139 153
89 730 268 110 117 131
89 730 269 113 120 132
89 731 268 112 119 132
89 731 269 111 117 130
90 729 269 125 131 143
90 728 270 134 142 156
90 728 271 139 147 162
90 729 270 132 139 152
90 729 271 133 140 155
90 730 269 121 127 139
90 731 269 113 119 131
90 730 270 123 129 141
90 730 271 121 127 140
90 731 270 110 116 128
91 730 271 113 119 132
91 731 271 108 113 125
88 732 264 132 142 158
88 732 265 124 134 149
88 733 264 117 127 142
88 733 265 114 124 139
88 732 266 124 132 147
88 733 266 121 129 144
89 732 266 128 137 151
89 732 267 126 134 148
89 733 266 121 130 144
89 733 267 121 128 142
88 734 264 112 120 134
88 734 265 113 122 136
88 735 264 115 122 135
89 734 265 115 123 137
89 735 264 118 124 137
89 735 265 114 122 135
89 734 266 113 120 133
89 734 267 109 115 127
89 735 266 110 117 129
89 735 267 107 113 125
90 734 267 107 113 124
90 735 267 107 113 125
89 732 268 119 126 139
89 733 268 118 125 137
90 732 269 111 117 129
90 733 268 113 119 131
90 733 269 111 117 128
90 732 270 109 115 127
90 733 270 109 115 126
91 732 270 107 114 125
91 732 271 108 114 125
91 733 270 110 115 126
91 733 271 109 115 126
90 734 268 107 113 124
90 734 269 108 114 125
90 735 268 107 113 124
90 735 269 108 114 125
91 734 269 108 114 125
91 735 269 108 114 125
91 734 270 109 114 125
91 734 271 109 115 126
91 735 270 108 114 124
91 735 271 108 115 127
92 735 271 108 115 128
80 720 272 158 166 183
80 720 273 162 171 188
80 721 272 159 167 184
81 720 273 171 180 199
81 721 272 171 179 196
81 721 273 173 182 200
81 720 274 174 183 202
81 720 275 175 184 202
82 720 273 167 177 196
82 721 272 164 172 190
82 721 273 159 168 187
83 721 272 143 151 169
83 721 273 141 148 166
82 720 274 155 164 183
82 720 275 151 159 178
83 720 274 139 146 163
83 720 275 141 148 165
83 721 274 139 146 164
83 722 272 144 152 169
83 720 276 143 149 166
84 721 273 134 141 157
85 721 273 130 136 152
84 720 274 139 144 161
84 720 275 139 146 162
84 721 274 136 142 159
85 720 274 134 140 156
85 720 275 138 144 160
85 721 274 134 139 155
84 722 272 133 141 157
85 722 272 128 135 152
85 722 273 128 135 150
86 721 273 130 137 152
87 721 273 128 134 149
86 720 275 134 140 155
86 721 274 131 137 152
87 720 275 131 137 151
87 721 274 128 134 149
87 721 275 131 136 151
86 722 272 127 134 150
86 722 273 129 135 151
87 722 272 128 134 150
87 722 273 128 135 151
87 723 272 128 135 150
84 720 276 144 151 167
85 720 276 141 147 163
86 720 276 137 143 158
87 720 276 138 144 159
88 720 275 132 137 151
88 721 274 126 132 148
88 721 275 130 135 149
89 721 275 129 135 149
88 722 273 134 143 158
88 723 272 133 139 154
88 723 273 147 155 170
89 723 272 133 139 153
89 723 273 144 150 165
88 722 274 130 138 154
89 722 274 136 144 160
89 722 275 125 132 147
89 723 274 145 153 168
90 723 273 133 139 153
90 722 275 124 131 145
90 723 274 130 136 151
90 723 275 119 126 139
91 723 275 117 124 137
88 720 276 146 151 166
89 720 276 144 149 165
89 721 276 134 138 153
90 721 276 129 134 149
90 722 276 122 128 141
90 723 276 119 126 139
91 722 276 120 126 140
91 723 276 119 125 138
89 724 272 121 126 139
89 724 273 122 128 141
89 725 272 119 125 137
90 724 273 121 126 139
90 725 272 118 123 136
90 725 273 117 123 135
90 724 274 118 125 138
90 725 274 116 122 135
91 724 275 115 121 134
91 725 274 114 121 133
91 725 275 111 118 131
90 726 272 120 128 142
90 726 273 118 126 141
90 727 272 140 149 165
91 726 273 120 127 141
91 727 273 137 146 162
91 726 274 115 122 134
91 726 275 114 121 133
91 727 274 123 131 144
91 724 276 116 122 135
91 725 276 114 119 131
92 726 275 116 122 135
92 727 274 121 128 142
92 727 275 119 126 139
92 725 276 117 123 135
92 726 276 118 124 137
92 726 277 122 128 141
92 727 276 122 129 142
93 726 277 128 135 148
93 727 277 137 144 158
90 728 272 145 154 170
91 728 272 140 150 166
91 728 273 137 146 162
91 729 272 134 142 157
91 729 273 126 135 150
91 728 274 126 134 148
91 730 272 111 118 132
91 730 273 113 121 134
91 731 272 109 115 126
91 732 272 110 116 127
91 733 272 110 116 127
92 729 273 120 128 142
92 728 274 120 128 141
92 728 275 115 122 135
92 729 274 114 122 135
92 729 275 110 117 130
92 730 273 111 118 130
92 731 273 110 116 128
92 730 274 110 116 128
92 730 275 109 115 127
92 731 274 109 115 126
93 730 275 110 116 127
93 731 275 109 114 126
92 728 276 115 122 136
92 729 276 110 117 131
93 728 276 123 130 144
93 728 277 142 148 162
93 729 276 115 121 134
93 729 277 132 137 150
93 730 276 111 116 128
93 730 277 121 126 139
93 731 276 113 118 128
93 731 277 119 124 136
94 730 277 121 126 139
94 731 277 118 123 135
94 731 278 120 126 139
92 732 272 113 118 129
92 732 273 111 117 128
92 733 272 111 117 129
92 733 273 111 117 129
92 732 274 109 114 126
92 733 274 111 117 130
93 732 274 107 113 124
93 732 275 106 111 123
93 733 274 108 115 128
93 733 275 106 113 125
92 734 272 114 121 134
92 734 273 121 128 142
92 735 272 114 122 135
92 735 273 129 138 151
93 735 273 134 142 157
93 734 274 125 133 148
93 734 275 121 128 142
93 735 274 137 147 162
93 735 275 133 142 156
93 732 276 108 114 125
93 733 276 105 112 124
93 734 276 114 121 135
94 732 277 111 117 129
94 733 276 107 114 126
94 733 277 109 116 128
94 732 278 114 120 132
94 733 278 111 118 129
95 733 278 114 120 132
94 734 276 112 121 134
94 734 277 113 120 133
94 735 276 120 129 143
94 735 277 116 123 137
94 734 278 115 121 134
95 734 278 117 123 136
95 735 278 119 126 139
95 735 279 120 128 141
84 736 256 137 145 162
84 737 256 132 138 153
85 736 256 133 140 156
85 736 257 130 137 153
85 737 256 122 128 141
85 737 257 121 128 142
85 738 256 114 120 133
85 739 256 112 117 131
86 736 257 122 129 144
86 737 256 119 125 137
86 737 257 117 124 137
86 736 258 121 128 141
86 736 259 119 126 139
86 737 258 117 124 137
87 736 259 119 125 138
87 737 258 117 124 137
87 737 259 119 125 137
86 738 256 114 120 132
86 738 257 117 123 136
86 739 256 116 122 134
86 739 257 121 127 140
87 739 257 122 130 144
87 738 258 119 126 139
87 738 259 122 128 141
87 739 258 124 132 147
87 739 259 125 133 147
87 736 260 116 122 135
87 737 260 116 122 133
86 740 256 114 120 133
86 740 257 120 126 138
86 741 256 115 122 135
87 740 257 125 132 146
87 741 256 119 125 138
87 741 257 125 131 145
87 740 258 128 136 151
87 740 259 128 136 151
87 741 258 124 131 145
86 742 256 114 121 134
87 742 256 116 123 137
87 742 257 122 128 142
87 743 256 118 126 140
87 743 257 122 129 143
87 744 256 124 132 145
87 744 257 124 130 144
87 745 256 123 130 144
88 738 259 124 130 143
88 739 259 123 130 144
88 736 261 113 119 132
88 737 260 116 122 134
88 737 261 114 120 132
88 736 262 110 117 129
88 736 263 109 115 126
88 737 262 111 117 128
88 737 263 108 114 125
89 737 263 107 112 124
88 738 260 120 126 138
88 738 261 115 121 133
88 739 260 121 127 139
88 739 261 114 120 131
88 738 262 111 116 127
88 739 262 109 115 127
89 738 262 109 114 126
89 738 263 107 113 125
89 739 262 108 114 126
89 739 263 111 118 129
88 740 259 122 130 145
88 741 258 120 128 141
88 741 259 120 128 141
88 743 257 125 130 144
88 742 258 122 128 142
88 742 259 118 124 137
88 743 258 123 129 143
88 743 259 117 123 136
88 740 260 117 124 137
88 740 261 110 117 129
88 741 260 113 119 132
88 741 261 109 115 127
89 741 261 108 114 126
88 740 262 108 115 127
89 740 262 107 113 125
89 740 263 109 116 128
89 741 262 106 112 123
89 741 263 103 109 121
88 742 260 111 117 130
88 742 261 110 116 127
88 743 260 111 118 131
89 742 261 110 116 128
89 743 261 109 116 128
89 742 262 106 112 123
89 742 263 102 108 119
89 743 262 105 111 122
89 743 263 102 107 118
89 736 264 113 119 131
89 736 265 107 114 127
89 737 264 105 111 123
89 737 265 103 109 122
89 736 266 108 115 127
89 737 266 107 114 125
89 738 264 106 113 125
89 738 265 104 111 124
89 739 264 112 120 133
89 739 265 115 122 135
90 736 266 110 116 128
90 736 267 110 116 128
90 737 266 108 114 125
90 737 267 110 116 128
90 738 265 107 114 126
90 739 265 115 121 133
90 738 266 109 115 127
90 738 267 108 114 125
90 739 266 112 118 130
90 739 267 109 114 126
90 736 268 110 116 128
90 736 269 110 115 127
90 737 268 110 116 127
91 736 269 109 115 126
91 737 268 109 114 126
91 737 269 109 115 126
91 736 270 107 114 125
91 736 271 110 118 130
91 737 270 109 115 127
90 738 268 108 114 125
91 738 268 107 113 124
91 738 269 106 113 125
91 739 268 108 114 125
91 739 269 107 114 126
91 738 270 106 113 124
91 739 270 107 114 126
89 740 264 113 120 132
89 741 264 103 109 121
89 742 264 102 108 119
90 740 265 114 120 132
90 741 264 103 110 121
90 741 265 106 112 124
90 740 266 111 117 128
90 740 267 107 114 125
90 741 266 107 113 125
90 741 267 107 114 125
91 740 267 107 114 125
91 741 267 108 113 125
90 742 264 103 109 119
90 742 265 106 111 122
90 743 264 104 110 121
90 743 265 107 112 123
90 742 266 107 113 124
90 743 266 106 112 123
91 742 267 109 115 126
91 743 266 105 112 124
91 743 267 107 114 125
91 740 268 109 115 126
91 740 269 111 118 130
91 741 268 115 120 132
91 741 269 125 131 143
91 742 268 114 119 130
91 742 269 117 123 135
91 743 268 109 115 126
91 743 269 110 116 128
92 736 271 112 120 134
92 737 271 117 125 137
92 738 270 107 114 126
92 738 271 111 118 130
92 739 270 107 114 126
92 739 271 108 114 126
92 741 269 133 139 151
92 740 270 114 121 133
92 740 271 112 119 131
92 741 270 130 136 148
92 741 271 121 128 140
93 741 271 118 125 137
92 742 269 125 131 143
92 743 269 113 119 131
92 742 270 123 129 141
92 743 270 116 122 133
93 742 271 118 125 138
93 743 270 116 122 134
93 743 271 118 125 138
94 743 271 122 129 142
88 744 257 123 129 143
88 745 256 119 126 141
88 745 257 118 124 139
88 744 258 119 126 139
88 744 259 113 120 132
88 745 258 111 118 132
88 745 259 110 116 128
89 745 259 111 117 128
88 746 256 119 125 139
88 746 257 115 122 136
88 747 256 118 124 138
88 747 257 116 122 135
89 747 257 114 120 133
88 746 258 109 116 129
89 746 258 108 116 129
89 746 259 111 117 129
89 747 258 111 118 132
89 747 259 115 122 135
88 744 260 111 118 131
89 744 260 110 117 129
89 744 261 108 114 126
89 745 260 109 115 126
89 745 261 106 113 125
89 744 262 104 110 121
89 744 263 103 109 120
89 745 262 105 111 123
89 746 260 110 116 128
89 746 261 107 115 128
89 747 260 115 123 137
89 747 261 113 121 134
89 746 262 104 112 124
90 744 263 104 110 121
90 745 262 105 112 124
90 745 263 108 114 126
90 747 261 114 122 135
90 746 262 107 114 126
90 746 263 109 116 128
90 747 262 111 118 130
90 747 263 108 115 127
88 748 256 121 127 140
89 748 256 118 124 138
89 748 257 116 122 135
89 749 256 118 125 139
89 749 257 117 125 138
89 748 258 116 124 137
89 748 259 118 126 140
89 749 258 116 124 138
89 750 256 117 126 140
90 748 259 118 127 141
90 749 258 117 124 138
90 749 259 117 126 139
90 750 256 117 125 139
90 750 257 118 126 139
90 751 256 117 124 138
90 751 257 116 123 136
90 750 258 118 126 139
90 750 259 116 124 138
90 751 258 118 125 138
90 751 259 113 121 134
91 751 259 106 114 127
89 748 260 119 127 142
90 748 260 122 131 144
90 748 261 120 128 141
90 749 260 119 127 141
90 749 261 118 126 139
90 748 262 111 118 131
90 748 263 108 114 127
90 749 262 111 119 132
91 748 263 110 116 128
91 749 262 114 122 136
91 749 263 113 121 134
90 750 260 115 123 135
90 750 261 117 124 137
90 751 260 112 120 132
91 750 261 114 122 135
91 751 260 106 114 128
91 751 261 108 116 129
91 750 262 116 125 139
91 750 263 122 131 145
91 751 262 120 128 142
91 751 263 132 140 154
92 751 263 133 139 153
90 744 264 108 113 124
90 744 265 110 115 127
90 745 264 110 117 129
90 745 265 113 119 131
90 744 266 110 116 128
90 745 266 114 121 133
91 744 266 110 117 129
91 744 267 110 117 129
91 745 266 116 122 134
91 745 267 118 126 140
90 746 264 108 116 128
90 746 265 112 119 131
90 747 264 109 115 128
91 746 265 114 120 132
91 747 264 111 117 129
91 747 265 115 121 133
91 746 266 122 128 139
91 746 267 128 136 150
91 747 266 128 135 147
91 744 268 110 117 130
91 748 264 111 117 129
91 748 265 115 122 134
91 749 264 114 121 134
91 749 265 114 121 134
91 748 266 124 131 144
91 750 264 124 131 145
92 746 267 133 141 156
92 747 266 135 142 155
92 747 267 140 147 162
92 744 268 113 121 134
92 744 269 113 120 133
92 745 268 121 131 145
92 745 269 130 138 153
93 744 269 122 130 144
93 745 269 137 145 160
93 744 270 115 122 135
93 744 271 116 124 137
93 745 270 128 136 151
92 746 268 142 151 166
92 747 268 148 156 172
93 746 269 154 162 178
93 747 268 152 161 177
93 747 269 156 164 181
93 746 270 149 158 173
94 744 271 122 129 143
94 745 270 127 136 151
94 745 271 123 131 145
95 744 271 126 133 148
95 745 271 130 138 154
94 747 269 151 159 175
94 746 270 144 153 169
94 747 270 144 153 169
95 746 270 138 147 162
95 746 271 137 145 161
95 747 270 141 149 164
92 749 265 116 125 139
92 748 266 129 136 150
92 748 267 135 143 158
92 749 266 122 130 144
93 748 267 130 138 153
93 749 267 125 133 148
92 750 265 123 130 143
92 751 264 132 139 152
92 751 265 128 134 147
93 751 265 127 134 147
92 750 266 123 131 144
93 750 266 124 132 145
93 750 267 126 134 148
93 751 266 127 134 147
94 750 267 131 138 152
94 751 266 130 137 150
94 751 267 131 138 151
95 750 267 130 137 151
95 751 266 130 136 149
95 751 267 129 136 150
93 748 268 135 143 159
93 748 269 145 154 170
93 749 268 126 134 149
94 748 268 128 136 151
94 748 269 136 145 161
94 749 268 129 137 151
94 749 269 128 136 152
95 748 269 132 140 155
95 749 268 130 137 152
95 749 269 129 137 152
95 748 270 137 144 159
94 750 268 132 139 153
95 750 268 130 137 151
92 736 272 123 131 144
92 736 273 135 143 157
92 737 272 132 139 153
92 737 273 138 145 159
93 736 273 137 146 161
93 737 273 141 149 163
93 736 274 143 152 168
93 736 275 144 152 167
93 737 274 143 151 166
93 737 275 147 156 171
92 738 272 116 123 135
92 739 272 109 116 127
93 738 273 122 129 142
93 739 272 110 116 128
93 739 273 114 120 133
93 738 274 129 136 150
94 736 275 144 153 168
94 737 275 142 151 166
94 739 273 115 122 135
94 738 274 129 137 151
94 738 275 124 133 148
94 739 274 120 126 139
94 739 275 119 127 140
95 738 275 118 126 141
95 739 275 122 130 145
94 736 276 127 135 150
94 736 277 119 127 140
94 737 276 129 138 153
95 736 277 121 128 141
95 737 276 121 129 142
95 737 277 121 128 142
95 736 278 123 130 143
94 738 276 119 128 143
95 738 276 118 126 140
95 739 276 123 132 147
92 740 272 110 117 128
93 740 272 112 119 131
93 740 273 116 123 135
93 741 272 117 124 136
93 741 273 117 124 137
93 742 272 122 129 142
94 740 273 119 126 139
94 741 272 123 130 144
94 741 273 122 130 143
95 741 273 130 138 152
94 740 274 120 128 141
95 740 274 122 130 143
95 740 275 125 134 149
95 741 274 129 138 153
94 742 272 125 132 145
94 742 273 127 134 148
94 743 272 125 132 145
95 742 273 133 141 156
95 743 272 129 136 151
95 743 273 133 141 157
95 744 272 131 138 154
95 745 272 133 141 157
90 752 256 115 121 133
90 752 257 113 120 132
90 753 256 111 117 129
91 753 256 109 115 126
91 753 257 108 115 127
90 752 258 114 121 133
91 752 258 111 117 129
91 752 259 107 114 127
91 753 258 106 113 125
91 753 259 103 110 122
91 754 256 109 114 126
91 754 257 106 112 124
91 755 256 105 111 123
91 755 257 105 112 123
91 754 258 101 108 120
91 754 259 99 106 117
91 755 258 101 107 119
91 755 259 99 106 117
91 752 260 103 111 124
91 752 261 111 118 130
91 753 260 104 111 123
91 753 261 113 119 130
91 752 262 121 128 141
91 753 262 119 125 137
91 754 260 101 108 119
91 754 261 109 116 128
91 756 256 103 110 121
91 756 257 104 110 121
91 757 256 104 110 122
92 755 258 100 107 118
92 755 259 101 107 118
92 752 262 121 129 142
92 752 263 125 132 145
92 753 262 118 125 137
92 753 263 119 126 139
92 754 260 102 109 121
92 754 261 109 116 128
92 755 260 100 107 118
92 755 261 105 111 123
92 754 262 115 121 134
92 754 263 118 124 137
92 755 262 112 118 130
93 754 263 118 124 136
93 755 262 114 120 132
93 755 263 114 120 133
92 756 257 104 110 121
92 757 256 103 110 120
92 757 257 104 110 121
92 756 258 101 108 120
92 756 259 102 109 120
92 757 258 100 107 118
92 757 259 104 111 123
92 758 256 103 109 119
92 758 257 100 106 117
92 759 256 98 104 115
92 759 257 98 104 114
92 758 258 99 106 116
92 758 259 107 113 124
92 759 258 100 106 116
93 758 259 111 118 129
93 759 258 101 106 117
93 759 259 106 111 121
92 756 260 104 112 124
92 756 261 110 117 129
92 757 260 113 120 132
93 756 261 113 120 133
93 757 260 122 129 141
93 757 261 122 129 141
93 756 262 113 120 132
93 756 263 110 117 129
93 757 262 118 124 137
93 758 260 123 129 140
93 758 261 128 134 146
93 759 260 110 115 127
93 759 261 114 120 132
93 758 262 124 130 142
94 756 263 108 114 127
94 757 262 111 118 130
94 757 263 107 114 126
95 757 263 108 115 127
94 759 261 115 122 134
94 758 262 112 118 130
94 758 263 106 113 125
94 759 262 114 120 132
94 759 263 108 114 126
95 758 263 111 118 130
95 759 263 111 117 129
92 752 264 128 135 147
92 753 264 122 129 141
93 752 264 126 132 145
93 752 265 127 133 146
93 753 264 121 127 139
93 753 265 123 129 141
93 754 264 117 123 134
93 755 264 114 120 132
94 752 265 124 131 143
94 753 265 121 127 140
95 753 265 121 127 140
94 752 266 126 132 145
95 752 266 126 132 145
95 752 267 127 134 148
95 753 266 123 129 142
94 754 264 117 123 134
94 754 265 118 124 136
94 755 264 111 117 130
95 754 265 119 125 137
95 755 264 109 116 128
95 755 265 114 120 132
94 756 264 108 114 127
95 756 264 107 114 127
95 757 264 108 115 128
95 758 264 113 120 132
92 760 256 100 105 115
92 760 257 100 106 116
92 761 256 102 107 116
93 760 257 101 107 117
93 761 256 102 107 116
93 761 257 102 107 118
93 760 258 102 108 118
93 760 259 107 112 123
93 761 258 103 109 120
93 761 259 108 114 125
93 762 256 101 106 116
93 762 257 103 108 118
93 763 256 103 108 119
93 763 257 107 113 124
93 762 258 106 111 122
93 762 259 110 116 127
93 763 258 112 118 128
93 763 259 111 117 128
94 762 259 110 117 129
94 763 259 111 117 128
93 760 260 108 114 125
93 761 260 109 116 127
94 760 261 112 118 130
94 761 260 110 117 129
94 761 261 111 118 130
94 760 262 111 118 129
95 760 262 110 116 128
95 760 263 112 119 131
95 761 262 111 117 129
94 762 260 112 119 130
94 762 261 112 119 131
94 763 260 112 118 129
95 762 261 111 117 129
95 762 262 112 118 130
93 764 256 106 112 123
93 764 257 111 117 129
96 745 271 138 145 161
96 746 271 142 149 164
96 747 270 140 146 161
96 747 271 141 147 162
97 746 271 148 155 171
97 747 271 136 143 159
98 747 271 131 139 156
96 751 267 129 136 151
97 751 267 126 134 150
96 749 269 128 135 150
97 749 269 122 129 144
96 748 270 134 141 156
96 749 270 127 133 148
97 748 270 125 132 147
97 748 271 130 137 152
97 749 270 121 128 143
96 750 268 125 132 147
96 751 268 126 134 149
97 750 268 123 131 146
97 750 269 121 129 144
97 751 268 130 138 154
98 749 269 121 129 143
98 748 270 121 128 142
98 748 271 124 132 147
98 749 270 121 128 143
99 748 270 118 124 139
99 748 271 122 129 144
99 749 270 119 126 139
98 750 269 126 134 148
98 751 268 142 151 166
98 751 269 138 146 161
99 750 269 122 130 144
99 751 269 129 137 152
99 750 270 119 125 139
100 748 271 119 126 140
100 749 270 115 121 135
100 749 271 114 120 134
101 749 271 115 122 135
100 751 269 117 124 139
100 750 270 112 119 133
100 750 271 110 117 130
100 751 270 111 118 132
101 750 271 112 118 130
101 751 270 110 116 129
101 751 271 111 117 129
102 750 271 114 120 133
102 751 271 113 119 131
96 737 277 122 129 143
96 736 278 125 132 145
96 736 279 135 142 156
96 737 278 125 132 146
97 736 279 136 144 159
97 737 278 129 137 151
97 737 279 131 139 154
96 738 276 122 131 146
96 738 277 123 131 145
96 739 276 128 137 154
97 738 277 130 138 152
97 739 276 136 146 164
97 739 277 138 147 163
97 738 278 131 139 154
98 737 279 136 145 160
98 739 277 145 153 170
99 739 277 144 152 169
98 738 278 138 147 162
98 739 278 143 151 167
99 738 278 142 150 166
99 738 279 141 150 166
99 739 278 143 151 167
96 740 275 136 146 163
96 741 274 141 150 168
96 741 275 147 157 175
97 741 275 159 169 188
96 742 273 139 148 164
96 743 273 139 148 165
97 743 273 141 150 167
96 742 274 146 156 174
97 742 274 156 165 183
97 742 275 167 176 193
97 743 274 147 156 173
98 741 275 168 177 195
98 742 274 163 172 188
98 742 275 165 173 189
98 743 274 149 157 174
99 742 275 149 157 173
99 743 274 141 149 165
99 743 275 140 148 164
96 740 276 138 149 166
97 740 276 148 158 178
97 741 276 159 170 190
98 740 276 148 159 179
98 740 277 147 156 175
98 741 276 159 170 189
99 740 277 146 154 172
99 741 276 150 159 175
99 741 277 144 152 168
99 742 276 143 151 167
100 738 279 143 151 167
100 739 278 143 150 167
101 739 278 140 146 162
101 739 279 143 150 167
102 739 279 158 164 180
100 743 275 131 138 153
100 740 277 141 148 165
100 741 276 136 144 159
100 741 277 135 142 158
101 741 277 129 136 152
100 740 278 141 148 164
101 740 278 135 142 158
100 742 276 136 143 158
100 743 276 131 138 153
101 742 276 125 131 147
101 742 277 124 131 146
101 743 276 122 129 144
102 741 277 125 131 146
102 740 278 136 142 157
102 741 278 125 132 147
103 740 278 137 143 158
103 740 279 145 150 165
103 741 278 124 131 146
102 742 277 121 128 142
102 743 276 118 125 139
102 743 277 118 125 139
103 742 277 120 126 140
103 743 277 115 122 135
103 742 278 119 126 140
96 744 272 138 147 163
96 744 273 139 147 164
96 745 272 144 152 169
97 744 273 138 148 165
97 745 272 155 163 181
97 745 273 144 154 171
96 746 272 149 156 172
97 746 272 154 161 178
98 744 273 137 147 165
98 745 272 156 165 182
98 745 273 146 156 173
99 745 273 137 146 163
98 744 274 142 152 168
99 744 274 136 144 159
99 745 274 131 139 155
98 746 272 147 156 173
98 747 272 136 144 161
99 746 272 138 146 163
99 746 273 138 148 165
99 747 272 131 139 155
100 745 273 126 134 150
100 744 274 126 133 148
100 744 275 125 132 147
100 745 274 123 130 145
101 744 275 121 128 142
101 745 274 121 128 142
101 745 275 121 128 141
100 746 273 122 129 145
100 747 272 123 130 145
100 747 273 119 126 141
101 746 273 120 127 141
101 747 273 117 125 139
100 746 274 120 127 141
101 746 274 121 128 142
102 745 275 119 126 140
103 745 275 118 126 141
102 747 273 121 129 143
102 746 274 125 133 146
102 746 275 122 130 143
102 747 274 131 138 152
103 746 275 129 137 152
103 747 274 147 154 168
101 744 276 118 125 140
102 744 276 116 123 137
102 745 276 117 124 138
103 744 276 112 119 132
103 744 277 111 118 132
103 745 276 115 122 135
100 748 272 121 128 142
101 748 272 116 123 137
101 748 273 112 120 134
101 749 272 114 122 136
102 748 272 110 118 133
102 748 273 119 126 141
102 749 272 119 127 141
103 748 273 128 136 151
103 749 273 125 134 149
103 748 274 136 145 159
102 750 272 122 128 141
103 750 272 124 131 145
103 750 273 123 132 147
103 751 272 127 134 147
103 751 273 135 142 156
104 741 278 125 131 145
104 741 279 126 132 146
105 741 279 123 129 142
104 743 277 113 120 132
104 742 278 120 126 139
104 743 278 116 123 135
105 742 278 119 125 138
105 742 279 119 125 138
105 743 278 116 122 134
106 742 279 114 120 133
106 743 279 112 117 129
107 743 279 110 116 128
104 746 275 127 135 150
104 747 274 150 158 173
104 747 275 143 151 165
105 747 275 124 133 148
104 744 277 111 118 130
104 745 276 113 120 133
104 745 277 110 116 129
105 745 277 109 116 128
104 744 278 112 119 130
105 744 278 113 119 131
104 746 276 115 123 137
105 746 276 108 116 129
105 746 277 107 114 127
105 747 276 112 121 135
106 745 277 107 114 126
106 744 278 112 118 129
106 744 279 111 117 129
106 745 278 108 115 127
107 744 278 110 116 128
107 744 279 110 116 128
107 745 278 109 115 128
106 746 277 104 111 125
106 747 276 106 116 130
106 747 277 108 116 131
107 746 277 106 113 125
107 747 277 115 121 135
107 746 278 106 113 125
104 749 273 130 139 155
104 748 274 135 144 160
104 748 275 134 143 158
104 749 274 132 141 157
105 748 275 133 143 158
105 749 274 133 142 157
105 749 275 133 142 157
104 750 273 129 138 153
104 751 273 128 135 149
105 751 273 117 125 139
104 750 274 126 135 149
105 750 274 124 132 147
105 750 275 128 136 151
105 751 274 116 125 139
106 749 275 131 140 155
106 750 275 123 132 147
106 751 275 116 124 139
105 748 276 121 131 146
106 748 276 129 138 153
106 749 276 128 138 153
107 748 276 126 134 148
107 748 277 123 130 144
107 749 276 128 136 149
107 749 277 137 143 156
106 750 276 123 131 146
106 751 276 120 128 142
107 750 276 123 131 145
107 750 277 126 132 144
107 751 276 123 130 143
107 751 277 112 119 131
108 744 279 114 121 133
108 745 279 113 120 133
108 746 278 106 113 126
108 746 279 108 115 128
108 747 278 108 115 128
108 747 279 108 115 127
109 746 279 109 116 128
109 747 279 110 116 127
108 748 277 121 128 141
108 749 277 130 136 149
108 748 278 117 124 136
108 748 279 113 119 131
108 749 278 116 122 134
108 749 279 112 117 128
109 748 279 110 116 127
109 749 279 110 115 125
108 750 277 122 128 141
108 751 277 115 121 134
108 750 278 113 118 130
108 750 279 111 116 126
108 751 278 108 114 125
108 751 279 105 110 120
109 750 279 109 113 123
109 748 280 104 109 120
109 749 280 105 110 120
108 751 280 102 107 117
109 750 280 104 109 119
109 751 280 100 105 116
109 751 281 100 105 115
110 748 280 102 107 118
96 759 263 119 126 138
96 752 266 122 129 144
96 752 267 126 133 149
96 753 266 123 129 142
97 752 267 137 146 162
97 753 266 131 138 152
97 753 267 142 151 166
96 754 265 120 126 138
96 755 265 113 119 131
97 755 265 113 120 132
96 754 266 124 130 143
97 754 266 138 145 158
97 755 266 121 127 139
98 752 267 146 156 172
98 753 267 147 155 170
99 753 267 149 157 172
98 754 266 136 143 156
98 754 267 140 147 161
98 755 266 118 124 137
99 754 267 142 149 163
99 755 267 117 123 136
98 752 268 149 158 173
99 752 268 148 157 173
99 752 269 137 145 160
99 753 268 149 157 173
96 756 264 109 116 128
96 756 265 112 118 130
96 757 264 117 123 135
96 757 265 117 124 135
97 756 265 110 117 129
97 757 265 119 125 137
96 758 264 127 133 145
96 759 264 129 135 147
97 758 264 141 146 158
97 758 265 130 136 148
97 759 264 125 131 144
97 759 265 133 138 150
98 757 265 111 117 129
98 756 266 108 114 126
98 757 266 108 114 126
99 756 266 110 116 127
99 756 267 109 115 126
99 757 266 109 115 126
98 758 265 115 122 133
98 759 264 113 120 132
98 759 265 115 121 133
99 759 265 109 115 127
99 758 266 108 114 126
99 759 266 109 115 126
100 755 267 116 122 134
100 752 268 143 151 166
100 752 269 124 132 145
100 753 268 141 149 163
100 753 269 130 137 151
101 752 269 116 122 135
101 753 269 118 124 136
101 752 270 111 117 129
101 753 270 110 116 128
100 754 268 126 133 147
100 754 269 123 130 143
100 755 268 107 113 125
101 754 269 110 116 128
101 755 268 103 108 120
101 755 269 104 110 121
102 752 270 108 114 126
102 752 271 108 114 126
102 753 270 106 112 123
103 752 271 110 116 128
103 753 271 104 109 120
102 754 269 106 112 123
102 755 269 103 108 119
102 754 270 106 111 122
102 755 270 105 110 120
103 754 271 104 110 120
103 755 270 105 110 121
103 755 271 106 112 123
100 756 267 106 112 124
100 757 267 107 113 125
100 758 266 108 113 124
100 758 267 106 112 124
100 759 266 108 114 126
100 759 267 107 113 125
101 758 267 105 112 123
101 759 267 107 113 125
100 756 268 102 108 119
100 757 268 103 109 121
101 756 268 101 107 119
101 756 269 103 109 120
101 757 268 102 109 121
101 758 268 106 112 123
101 759 268 110 115 126
102 756 269 105 110 121
102 757 269 111 117 128
102 756 270 106 111 123
103 756 270 108 114 126
103 756 271 116 122 134
103 757 270 118 124 136
103 757 271 118 124 138
102 758 269 117 122 133
102 759 268 112 117 128
103 758 270 124 130 143
96 760 263 115 121 133
96 761 262 115 121 133
96 761 263 116 123 135
97 760 263 114 121 133
97 761 263 117 124 137
96 762 262 116 122 135
97 760 264 114 121 133
97 761 264 117 123 136
98 760 264 113 119 132
98 760 265 111 117 129
98 761 264 114 120 133
99 760 265 109 115 127
99 760 266 109 115 126
100 760 266 109 115 126
103 752 272 116 122 135
103 753 272 103 109 120
103 754 272 104 109 120
104 752 272 113 119 131
104 752 273 112 118 130
104 753 272 105 110 121
104 753 273 105 110 121
105 752 273 108 114 127
105 753 273 107 113 123
105 752 274 110 117 129
105 753 274 109 114 125
104 754 272 105 110 121
104 754 273 106 112 123
104 755 272 108 114 124
104 755 273 109 115 126
105 754 273 107 112 122
105 755 273 107 113 124
105 754 274 110 114 125
105 754 275 108 112 124
105 755 274 109 114 125
105 755 275 106 111 121
106 752 275 114 121 133
106 753 275 112 117 129
106 754 275 107 113 124
106 755 275 104 109 120
106 752 276 119 125 137
106 753 276 110 115 127
107 752 276 114 120 132
107 752 277 107 113 124
107 753 276 103 109 121
107 753 277 101 107 118
107 752 278 103 108 118
107 753 278 100 106 116
107 753 279 100 105 115
106 754 276 105 110 121
106 755 276 103 108 118
106 755 277 107 111 121
107 754 277 104 109 119
107 755 277 108 113 122
106 755 278 102 106 116
107 754 278 100 105 115
107 754 279 98 103 113
107 755 278 104 108 118
104 756 272 117 122 135
104 756 273 110 117 128
104 757 272 119 125 138
104 757 273 111 117 128
105 756 273 113 119 131
105 756 274 114 120 130
105 756 275 110 114 123
105 756 276 109 113 122
108 752 278 103 108 118
108 752 279 102 107 117
108 753 279 101 106 117
108 754 279 98 103 113
108 752 280 101 106 116
108 753 280 100 104 114
109 752 280 101 106 116
109 752 281 100 106 116
109 753 280 98 104 114
109 753 281 97 103 113
108 754 280 99 104 114
139 698 256 54 57 62
139 698 257 53 57 62
138 698 259 55 59 64
139 698 258 54 58 63
139 698 259 54 58 63
139 699 258 53 57 62
139 699 259 53 57 62
139 698 260 54 58 63
139 698 261 53 57 62
139 699 260 52 56 61
140 698 256 53 57 61
140 699 256 53 57 61
140 699 257 54 58 62
141 698 256 53 56 60
141 699 256 52 56 60
141 699 257 52 55 60
140 698 258 53 57 62
140 699 258 54 57 62
140 699 259 52 56 61
141 699 258 54 57 62
141 699 259 54 57 62
142 698 256 52 56 60
142 698 257 52 55 60
142 699 256 53 56 60
142 699 257 52 55 59
143 698 257 51 55 59
143 699 257 52 55 59
142 698 258 52 55 59
142 698 259 52 55 59
142 699 258 53 56 60
142 699 259 53 56 61
143 698 258 52 55 59
143 698 259 51 55 59
143 699 258 52 55 59
143 699 259 54 57 62
140 698 260 52 56 61
140 699 260 53 56 61
140 699 261 53 56 61
141 699 260 54 57 61
142 698 260 54 57 61
142 699 260 56 59 64
143 698 260 52 55 60
140 700 258 53 56 61
140 700 259 53 56 61
141 700 258 53 56 61
93 768 231 90 95 106
94 768 229 85 90 99
95 768 228 86 92 101
95 768 229 85 91 100
95 769 228 85 91 100
95 769 229 87 93 103
94 768 230 87 92 101
94 768 231 89 95 105
94 769 230 90 96 105
94 769 231 90 96 107
95 770 228 87 94 104
95 770 229 94 100 110
95 771 228 89 96 107
95 771 229 96 103 114
94 770 230 98 104 115
94 770 231 97 103 115
94 771 230 99 106 117
94 771 231 98 105 117
95 770 230 99 105 115
95 771 230 100 107 118
93 768 232 95 101 112
93 768 233 98 107 118
93 769 232 97 103 114
93 769 233 101 108 119
93 768 234 108 115 127
93 768 235 115 123 137
93 769 234 111 117 129
93 769 235 116 123 136
93 770 234 111 118 130
93 770 235 112 119 132
94 769 232 95 102 112
94 769 233 103 109 120
94 770 232 98 105 116
94 770 233 104 111 122
94 771 232 100 107 118
94 770 234 110 116 128
94 770 235 112 119 132
93 768 236 123 132 147
93 768 237 132 141 158
93 769 236 121 128 143
93 769 237 127 135 150
93 768 238 128 136 153
93 768 239 126 133 148
93 769 238 126 133 148
93 769 239 126 133 147
93 770 236 115 122 136
93 768 240 123 129 143
93 768 241 118 125 138
93 769 240 124 130 143
93 768 242 115 121 133
93 768 243 113 118 130
103 768 219 91 97 106
103 769 219 92 98 107
103 770 219 93 99 109
103 771 219 93 100 110
100 768 223 92 97 106
100 769 223 90 95 104
101 768 222 90 96 106
101 768 223 90 96 106
101 769 222 90 96 106
101 769 223 89 95 104
100 770 223 90 96 105
101 770 222 91 97 107
101 770 223 91 97 107
101 771 222 96 102 113
101 771 223 94 100 111
102 768 220 95 100 110
102 768 221 93 99 109
102 769 220 95 101 110
102 769 221 93 99 109
103 768 220 94 100 109
103 769 220 95 101 110
102 770 220 93 99 109
102 770 221 92 98 108
102 771 221 97 103 114
103 770 220 94 100 110
103 771 220 95 102 112
102 770 222 92 98 108
102 771 222 96 102 113
103 772 219 95 102 112
100 772 223 102 108 119
101 772 222 103 110 121
102 772 221 102 109 120
103 772 220 99 105 116
102 772 222 102 109 120
107 768 213 85 90 99
107 769 213 84 90 99
106 768 214 82 88 97
106 768 215 83 89 99
106 769 215 88 94 104
107 768 214 85 91 100
107 769 214 87 94 103
107 770 213 90 96 106
107 771 213 94 101 112
106 770 215 97 103 113
106 771 215 104 110 121
107 770 214 98 104 114
107 771 214 103 109 119
107 772 213 95 102 113
107 773 213 98 106 116
106 772 215 99 106 116
106 773 215 96 104 115
107 772 214 96 103 114
107 772 215 94 102 113
107 773 214 98 105 116
109 768 210 97 102 112
109 768 211 92 98 107
109 769 210 93 98 107
109 769 211 90 95 104
109 770 210 92 98 107
109 770 211 91 96 105
109 771 210 93 98 107
109 771 211 91 97 106
110 768 209 96 102 113
110 769 209 93 99 109
111 768 208 92 99 110
111 768 209 93 100 111
111 769 208 89 96 107
111 769 209 90 97 107
110 768 210 99 105 115
110 769 210 95 100 110
110 770 209 91 97 107
110 771 209 91 97 107
111 770 208 89 97 108
111 770 209 89 96 106
111 771 208 97 104 115
111 771 209 92 98 109
110 770 210 93 98 107
110 771 210 93 99 108
108 768 212 86 92 101
108 768 213 83 89 98
108 769 212 85 91 100
108 769 213 82 88 97
108 770 212 88 93 103
108 770 213 87 93 102
108 771 212 90 96 106
108 771 213 91 98 108
109 772 210 91 97 106
109 772 211 89 96 106
109 773 210 92 98 109
109 773 211 93 99 109
110 772 209 89 96 107
111 772 208 100 107 118
111 772 209 93 100 111
111 773 208 103 110 121
111 773 209 94 101 112
110 772 210 90 96 106
110 773 210 92 98 109
108 772 212 90 97 107
108 772 213 94 101 112
108 773 212 94 101 111
108 773 213 98 105 115
109 773 212 93 99 110
104 768 217 86 92 101
104 769 217 84 91 100
105 768 216 84 90 100
105 768 217 85 91 100
105 769 216 85 91 101
105 769 217 84 90 100
104 768 218 87 93 102
104 769 218 87 93 102
104 769 219 89 95 104
104 770 217 85 92 101
105 770 216 86 93 103
105 770 217 86 92 102
105 771 216 90 97 107
105 771 217 90 97 106
104 770 218 88 94 104
104 770 219 91 97 106
104 771 218 92 98 108
104 771 219 93 99 109
106 769 216 86 92 102
106 770 216 90 97 107
106 771 216 96 102 112
105 772 216 92 99 110
105 772 217 94 100 111
105 773 216 97 104 115
104 772 218 96 102 113
104 772 219 96 102 112
106 772 216 95 102 113
115 768 203 96 103 113
115 769 203 97 104 115
115 770 203 102 109 120
115 771 203 104 111 122
113 768 205 103 109 120
112 768 207 94 100 111
112 769 207 91 98 110
113 768 206 100 105 116
113 769 206 99 105 116
112 770 207 99 107 119
112 771 207 110 117 129
113 770 206 104 110 122
113 771 206 110 117 129
114 768 205 105 111 122
114 769 205 106 112 122
115 768 204 101 108 119
115 769 204 105 111 122
114 770 205 106 112 123
114 771 205 106 113 124
115 770 204 107 113 124
115 771 204 108 115 126
114 771 206 106 113 125
115 772 203 105 112 124
115 773 203 111 117 128
115 774 203 116 122 132
112 772 207 113 120 132
112 773 207 112 119 131
113 772 206 109 116 129
113 773 206 106 114 126
114 772 205 109 116 128
114 773 205 108 115 126
115 772 204 109 116 127
115 773 204 111 117 128
114 772 206 108 115 127
114 773 206 105 112 124
114 774 204 107 112 122
115 774 204 111 116 126
116 768 202 85 92 103
116 768 203 91 98 108
116 769 202 87 95 105
116 769 203 91 98 109
117 768 202 82 89 99
117 769 202 81 88 98
117 770 201 80 87 97
117 771 201 81 87 97
116 770 202 88 96 107
116 770 203 97 104 115
116 771 202 89 97 108
116 771 203 98 106 117
117 770 202 83 90 100
118 768 201 80 87 96
118 769 201 78 84 93
119 768 201 77 83 92
119 769 200 73 79 87
119 769 201 76 82 90
118 770 200 76 82 90
118 770 201 77 83 92
118 771 200 77 84 92
118 771 201 78 85 94
119 770 200 72 78 86
119 771 200 74 80 88
117 772 201 83 90 100
117 773 201 85 93 103
116 772 202 92 100 111
116 772 203 101 108 119
116 773 202 100 107 119
116 773 203 108 114 126
117 773 202 94 101 112
117 774 201 91 99 110
116 774 202 108 115 127
116 774 203 115 121 132
117 774 202 98 106 117
118 772 200 79 86 95
118 772 201 80 86 96
118 773 200 83 89 99
118 773 201 83 90 100
119 772 200 79 84 92
119 773 200 82 87 95
118 774 200 82 88 98
118 774 201 86 94 104
119 774 200 78 84 93
120 774 199 70 75 84
121 774 199 65 70 78
127 768 195 67 71 78
127 769 195 66 71 78
127 770 195 69 74 81
125 768 199 57 61 68
125 769 199 58 62 68
125 770 199 58 62 69
125 771 199 58 63 70
126 768 197 59 64 70
126 769 197 59 63 70
127 768 196 64 68 75
127 768 197 61 65 73
127 769 196 63 68 74
127 769 197 60 65 72
126 768 198 57 62 69
126 769 198 60 64 71
126 769 199 59 63 69
126 770 197 59 64 70
126 771 197 63 67 74
127 770 196 65 70 77
127 770 197 60 64 71
127 771 196 67 71 79
127 771 197 61 66 73
126 770 198 60 64 70
126 770 199 59 63 69
126 771 198 62 66 73
126 771 199 60 64 71
125 773 199 60 65 72
126 772 197 65 70 77
126 773 197 63 68 75
127 772 196 59 64 71
127 772 197 62 67 74
127 773 196 59 64 71
127 773 197 61 67 73
126 772 198 64 69 76
126 772 199 61 66 73
126 773 198 63 68 75
120 768 201 70 77 85
120 769 200 68 74 82
121 768 201 64 70 77
121 769 200 64 70 77
121 769 201 62 67 74
120 770 200 66 73 80
120 771 200 67 73 81
121 770 200 63 68 75
121 771 200 63 69 77
122 768 201 61 67 74
122 769 201 59 64 71
123 768 200 57 62 69
123 768 201 57 62 70
123 769 201 54 59 66
122 770 201 58 64 71
122 771 201 59 64 71
123 770 201 53 58 65
123 771 201 51 57 64
120 772 200 71 77 85
120 773 200 72 78 86
121 772 200 65 71 79
121 773 200 65 71 79
122 772 200 62 67 75
122 772 201 58 64 71
122 773 200 59 65 72
122 773 201 58 63 70
123 772 201 52 57 65
123 773 200 52 58 65
124 768 200 52 56 63
124 769 200 49 54 60
124 769 201 50 55 62
125 768 200 54 59 65
125 769 200 53 58 64
124 770 201 49 54 61
124 771 201 50 55 62
125 770 200 53 58 65
125 770 201 51 56 62
125 771 200 55 60 66
125 771 201 53 58 64
124 772 201 51 56 63
125 772 200 57 62 69
125 772 201 53 58 65
112 768 208 91 98 109
112 769 208 88 96 107
112 770 208 93 101 112
112 771 208 105 112 123
112 772 208 108 115 127
112 773 208 110 116 128
96 768 227 84 90 99
96 769 227 82 88 97
97 768 226 84 90 99
97 768 227 83 89 98
97 769 226 82 87 96
96 770 227 84 90 100
96 771 227 85 91 101
97 770 226 82 88 97
97 771 226 83 89 98
98 768 225 85 91 100
98 769 225 83 89 98
99 768 224 97 102 111
99 768 225 90 95 105
99 769 224 88 94 103
