ply
format ascii 1.0
comment PCL generated
element vertex 2256
property float x
property float y
property float z
property uchar red
property uchar green
property uchar blue
element camera 0
property float view_px
property float view_py
property float view_pz
property float x_axisx
property float x_axisy
property float x_axisz
property float y_axisx
property float y_axisy
property float y_axisz
property float z_axisx
property float z_axisy
property float z_axisz
property float focal
property float scalex
property float scaley
property float centerx
property float centery
property int viewportx
property int viewporty
property float k1
property float k2
end_header
209 480 112 46 51 58
209 480 113 46 52 59
210 480 112 46 52 59
210 481 112 46 51 58
211 480 112 47 52 59
211 481 112 46 52 59
212 480 112 49 53 59
212 481 112 49 53 59
213 480 112 47 52 58
213 481 112 49 53 59
214 480 112 43 49 56
215 480 112 42 49 56
216 480 112 42 48 56
217 480 112 42 49 56
218 480 112 43 49 56
218 480 113 44 49 56
219 480 112 43 49 56
221 480 112 44 50 58
222 480 112 44 51 58
223 480 112 44 51 59
208 498 99 48 54 60
208 499 98 48 53 60
208 499 99 46 51 58
209 498 99 49 54 61
209 499 98 49 54 60
209 499 99 49 54 61
210 498 99 47 53 59
210 499 98 47 53 60
210 499 99 47 52 59
211 498 99 45 52 59
211 499 98 45 51 58
211 499 99 45 51 58
208 496 101 47 53 60
208 497 100 48 54 61
208 497 101 46 52 60
209 496 100 48 54 60
209 496 101 48 54 60
209 497 100 49 54 61
208 498 100 47 53 60
210 496 100 47 53 59
210 497 100 46 52 59
211 496 100 47 53 60
211 497 100 48 54 61
210 498 100 46 52 59
208 500 97 48 53 60
208 501 96 48 54 60
209 500 96 51 56 63
209 500 97 49 54 60
209 501 96 50 55 61
208 500 98 49 54 60
209 500 98 49 54 60
210 500 96 44 51 58
210 500 97 46 52 60
210 501 96 45 51 57
211 500 96 45 51 58
211 500 97 45 51 58
212 497 99 48 53 60
213 497 99 47 53 59
212 499 97 48 53 60
212 498 99 47 52 59
212 499 98 46 52 59
213 498 98 47 53 60
213 498 99 46 52 59
213 499 98 47 52 59
214 497 99 43 50 57
215 497 99 41 47 54
214 498 99 43 50 57
214 499 98 44 50 57
215 498 99 41 48 54
215 499 98 42 48 55
215 499 99 41 47 54
212 496 100 49 54 61
212 497 100 49 54 60
213 496 100 48 53 60
213 497 100 48 54 60
214 496 100 44 50 57
214 497 100 44 50 57
215 496 100 41 48 54
215 497 100 41 47 54
212 500 96 47 52 59
212 500 97 47 53 59
212 501 96 47 52 58
213 500 96 47 53 60
213 500 97 46 52 59
213 501 96 47 52 59
214 500 97 45 51 58
214 501 96 44 50 58
215 500 97 43 50 57
215 501 96 43 49 56
215 501 97 44 50 57
214 500 98 43 50 57
215 500 98 42 49 56
214 502 96 45 50 57
215 502 96 43 49 55
216 497 99 40 46 53
216 498 99 41 47 54
216 499 98 42 48 55
216 499 99 41 47 54
217 498 99 41 47 54
217 499 99 42 48 55
216 496 100 40 47 54
216 497 100 40 46 53
217 496 100 40 47 54
217 497 100 40 46 53
218 496 100 42 48 55
218 497 100 42 48 55
216 501 96 42 48 55
216 501 97 42 48 55
216 500 98 43 48 55
216 501 98 42 48 55
217 500 99 43 49 56
231 455 127 44 50 57
230 463 119 47 53 60
231 463 119 46 53 60
227 459 127 46 53 60
225 463 123 45 51 58
227 463 121 45 52 60
226 462 123 46 53 61
226 463 122 46 53 60
226 463 123 45 52 59
227 462 123 46 53 61
227 463 122 46 53 60
227 463 123 47 53 61
224 461 127 45 51 58
225 460 127 45 51 59
225 461 126 45 52 59
225 461 127 45 52 59
224 462 125 45 51 58
224 463 124 46 52 58
224 463 125 46 52 58
225 462 124 45 51 59
225 462 125 45 51 58
225 463 124 46 52 59
224 462 126 46 52 58
224 462 127 46 52 58
225 462 126 45 52 59
226 461 125 45 52 59
227 461 124 45 53 61
227 461 125 45 52 60
226 460 126 45 52 59
226 460 127 45 51 59
226 461 126 45 52 59
227 460 126 45 52 60
227 460 127 45 52 59
227 461 126 45 52 60
226 462 124 46 53 60
226 462 125 46 52 60
227 462 124 46 53 61
228 459 126 47 53 60
228 459 127 46 52 59
229 458 127 45 51 58
229 459 126 46 52 59
229 459 127 46 52 58
230 457 127 44 50 57
231 456 127 44 50 57
231 457 126 44 50 57
231 457 127 45 50 57
230 459 125 46 52 60
231 459 124 46 52 60
231 459 125 45 52 59
230 458 127 45 52 58
230 459 126 44 51 59
230 459 127 44 51 58
231 458 126 45 51 58
231 459 126 44 51 58
228 461 123 45 52 60
229 461 122 47 53 61
229 461 123 46 53 60
228 463 121 46 52 60
229 462 121 48 54 61
229 463 120 47 54 61
229 463 121 46 53 60
228 462 122 46 52 60
228 462 123 45 53 60
228 463 122 45 52 60
229 462 122 47 53 60
229 462 123 45 52 59
231 461 121 46 52 59
230 460 123 46 52 60
230 461 122 47 53 60
230 461 123 46 53 60
231 460 123 46 53 61
231 461 122 46 53 60
231 461 123 46 53 61
230 462 121 47 54 60
230 463 120 47 54 61
230 463 121 47 54 61
231 462 121 46 52 59
231 463 120 46 52 60
230 462 122 47 53 60
228 460 125 46 53 60
228 461 124 45 52 60
228 461 125 46 53 60
229 460 124 46 52 60
229 460 125 46 53 60
229 461 124 46 52 60
228 460 126 46 53 60
230 460 124 47 53 60
230 460 125 46 53 60
231 460 124 47 53 61
233 453 127 45 52 59
232 454 127 44 50 57
232 455 127 44 51 58
233 454 126 45 51 58
233 454 127 44 51 58
233 455 126 44 51 58
233 455 127 45 51 58
234 452 127 47 53 60
234 453 127 45 52 59
235 452 127 47 53 60
235 453 126 46 52 59
235 453 127 46 52 59
234 455 125 45 51 58
235 454 125 46 52 58
235 455 125 46 51 58
234 454 126 45 51 58
234 455 126 45 51 58
235 454 126 46 52 59
236 451 127 47 53 61
237 451 127 46 53 60
238 451 127 45 51 59
239 451 126 45 52 59
239 451 127 44 51 58
238 455 123 43 50 57
239 454 123 43 50 58
239 455 123 42 49 57
236 453 125 45 51 58
237 452 125 46 52 59
237 453 125 45 51 58
236 452 126 47 53 59
236 452 127 47 53 60
236 453 126 46 52 59
237 452 126 46 53 60
237 452 127 47 53 60
236 454 125 45 51 58
236 455 124 45 51 57
236 455 125 45 51 57
237 454 124 44 51 58
237 454 125 45 51 58
237 455 124 44 51 58
238 452 125 44 52 59
238 453 124 43 51 58
238 453 125 44 51 59
239 452 125 44 51 58
239 453 124 43 51 58
239 453 125 44 51 59
238 452 126 45 52 60
239 452 126 45 52 59
238 454 124 43 51 58
238 455 124 43 50 57
239 454 124 44 51 59
232 463 119 46 53 60
233 463 119 48 54 61
234 463 119 47 54 61
235 463 118 46 53 60
235 463 119 45 52 60
236 462 119 46 52 59
233 459 123 46 53 60
234 459 123 46 53 60
235 458 123 46 52 59
235 459 122 46 52 59
235 459 123 46 52 59
233 456 125 44 51 59
233 457 125 45 52 60
232 456 126 45 51 58
232 456 127 45 51 57
232 457 126 44 51 58
232 457 127 44 50 57
233 456 126 45 51 59
233 457 126 45 52 59
232 458 125 45 52 59
232 459 124 46 53 60
232 459 125 45 52 59
233 458 124 46 53 60
233 458 125 46 53 60
233 459 124 46 52 60
232 458 126 44 51 58
234 456 125 45 51 58
234 457 124 45 51 58
234 457 125 46 52 60
235 456 124 45 51 58
235 456 125 45 51 58
235 457 124 45 51 57
234 458 124 46 53 60
234 459 124 46 53 60
235 458 124 46 52 59
232 461 121 47 53 60
233 461 121 47 53 61
232 460 123 46 53 61
232 461 122 46 53 60
232 461 123 46 52 60
233 460 122 47 53 61
233 460 123 46 53 61
233 461 122 47 53 60
232 462 120 47 53 60
232 462 121 47 53 60
232 463 120 46 53 60
233 462 120 48 54 62
233 462 121 47 54 61
233 463 120 48 54 62
234 461 121 47 53 61
235 460 121 46 53 60
235 461 120 46 52 60
235 461 121 46 53 60
234 460 122 46 53 60
234 460 123 46 53 60
235 460 122 46 53 60
234 462 120 46 53 60
234 462 121 46 53 60
234 463 120 47 54 61
235 462 120 45 52 60
232 460 124 46 53 60
236 457 123 45 51 58
237 456 123 43 50 57
237 457 123 44 51 58
236 458 123 46 52 59
236 459 122 46 52 59
237 458 122 45 51 59
237 458 123 45 52 59
237 459 122 45 52 59
238 456 123 43 50 57
238 457 122 42 49 57
238 457 123 43 50 57
239 456 123 42 49 56
238 458 122 44 51 59
238 458 123 43 50 58
236 456 124 45 50 57
236 457 124 45 51 57
237 456 124 43 50 57
236 460 121 46 53 60
236 461 120 47 53 60
236 461 121 47 53 60
237 460 121 47 53 60
236 460 122 46 53 60
236 462 120 46 52 59
227 475 111 46 53 60
225 477 111 45 52 59
224 479 111 45 52 59
225 478 111 45 51 58
225 479 110 44 51 59
225 479 111 44 51 59
226 476 111 46 53 60
226 477 110 46 53 60
226 477 111 46 52 59
227 476 110 46 53 60
227 476 111 46 53 60
227 477 110 46 53 60
227 479 109 46 52 60
226 478 110 46 52 60
226 478 111 46 52 59
226 479 110 45 52 59
226 479 111 45 52 59
227 478 110 45 52 59
227 479 110 46 53 60
228 475 111 46 52 60
229 475 111 47 53 60
228 476 110 46 52 59
228 476 111 46 52 59
228 477 110 46 53 60
225 467 119 46 52 59
226 467 119 45 51 58
227 466 119 45 51 58
227 467 118 43 50 58
227 467 119 44 51 58
225 469 117 44 51 58
224 468 119 44 50 57
224 469 118 44 50 58
224 469 119 43 50 57
225 468 119 45 51 58
225 469 118 44 51 58
224 471 117 45 52 59
225 470 117 45 52 59
225 471 117 45 52 59
224 470 118 44 51 58
224 470 119 43 50 57
224 471 118 45 51 59
225 470 118 45 51 58
226 468 117 44 51 58
226 469 117 44 51 58
227 468 117 44 51 59
227 469 116 45 51 59
227 469 117 45 51 59
226 468 118 44 51 58
226 468 119 44 51 58
227 468 118 43 50 58
226 470 116 45 52 59
226 470 117 45 52 59
226 471 116 46 52 59
226 471 117 46 52 59
227 470 116 45 52 59
227 471 116 46 52 59
228 465 119 46 53 60
229 464 119 48 54 61
229 465 118 47 54 61
229 465 119 47 53 61
228 467 117 45 52 59
229 467 117 47 53 61
228 466 118 46 52 59
228 466 119 46 52 59
228 467 118 44 51 59
229 466 118 47 53 60
229 467 118 45 52 60
230 464 119 48 54 61
230 465 118 48 54 61
231 464 119 48 54 60
231 465 118 47 53 61
231 465 119 48 54 61
230 466 117 47 54 61
230 467 116 46 53 61
230 467 117 46 53 61
231 466 117 47 54 62
231 467 116 47 54 61
231 467 117 47 54 61
230 466 118 48 54 61
231 466 118 47 53 61
228 469 115 46 52 59
229 469 115 46 52 60
228 470 115 46 52 59
228 471 115 46 52 60
229 470 114 46 52 60
229 470 115 47 53 60
229 471 114 46 53 60
229 471 115 46 53 60
230 468 115 46 53 60
230 469 114 45 52 60
230 469 115 45 52 60
231 468 115 46 53 61
231 469 114 45 52 60
231 469 115 45 52 60
231 471 113 45 52 60
230 470 114 45 52 60
230 471 114 45 52 60
231 470 114 46 52 60
231 471 114 45 52 60
228 468 116 45 52 59
228 468 117 45 51 59
228 469 116 45 52 59
229 468 116 46 52 60
229 468 117 46 53 60
229 469 116 47 53 60
230 468 116 46 53 60
231 468 116 47 54 62
224 465 121 45 51 58
225 465 121 45 51 58
224 464 122 45 51 58
224 464 123 46 52 58
224 465 122 45 51 58
225 464 122 46 52 59
225 464 123 45 52 59
225 465 122 45 52 59
224 466 121 44 51 58
224 467 120 43 50 57
224 467 121 42 49 56
225 466 121 45 51 58
225 467 120 45 51 58
226 464 121 46 52 59
226 465 121 46 53 60
227 464 120 45 52 59
227 464 121 45 52 59
227 465 120 46 52 59
227 465 121 46 52 59
226 464 122 46 52 60
227 464 122 45 52 59
226 466 120 46 52 59
226 466 121 46 52 59
226 467 120 45 52 59
227 466 120 46 52 59
224 464 124 45 51 58
224 468 120 44 50 57
228 464 120 46 53 60
228 465 120 46 53 60
229 464 120 47 53 61
230 464 120 49 54 61
225 473 115 46 53 60
224 475 113 46 52 59
225 475 112 46 52 59
225 475 113 46 52 60
224 474 114 46 52 59
224 474 115 46 52 60
224 475 114 46 52 59
225 474 114 46 53 60
225 474 115 46 53 60
226 473 115 46 53 60
227 472 115 46 52 60
227 473 114 46 53 60
227 473 115 46 53 60
226 475 112 46 52 59
226 475 113 47 53 60
227 474 113 47 53 60
227 475 112 47 53 60
227 475 113 47 53 60
226 474 114 47 53 60
226 474 115 46 53 60
226 475 114 46 53 61
227 474 114 47 53 60
224 472 117 45 51 59
224 473 116 46 52 60
224 473 117 45 52 59
225 472 116 46 52 60
225 472 117 46 52 60
225 473 116 46 52 60
225 473 117 46 52 60
224 472 118 44 51 58
224 474 116 45 52 59
226 472 116 46 52 59
226 473 116 46 52 60
227 472 116 46 52 60
227 473 116 46 52 60
224 476 112 45 51 58
224 476 113 46 52 58
224 477 112 46 52 59
224 477 113 45 51 58
225 476 112 45 51 58
225 477 112 45 51 58
224 478 112 45 51 58
224 479 112 45 52 59
225 478 112 45 51 59
226 476 112 46 52 59
228 473 113 46 52 59
229 473 112 47 53 60
229 473 113 46 53 60
228 472 114 46 53 61
228 472 115 46 53 60
228 473 114 46 53 60
228 473 115 46 53 60
229 472 114 46 53 60
229 473 114 46 53 60
228 474 112 46 53 60
228 474 113 46 52 60
228 475 112 46 53 60
229 474 112 46 53 60
229 475 112 46 53 60
228 474 114 46 53 60
230 472 113 45 52 60
230 473 112 46 53 60
230 473 113 45 52 59
233 467 115 46 53 61
233 465 117 48 54 61
232 464 119 47 54 61
232 465 118 48 54 61
233 464 119 48 54 61
233 465 118 48 54 61
232 466 117 47 54 61
232 467 116 47 54 62
232 467 117 48 54 62
233 466 116 47 53 61
233 466 117 48 55 62
233 467 116 48 54 62
234 465 117 46 53 60
234 464 118 47 54 61
234 464 119 48 54 61
234 465 118 47 53 61
235 464 118 46 53 60
235 464 119 46 53 60
234 466 117 47 53 61
232 468 115 47 54 61
232 469 114 46 53 61
232 469 115 46 53 61
232 468 116 48 54 62
240 451 126 43 50 57
240 451 127 43 49 56
241 451 126 44 50 57
241 451 127 43 49 57
242 450 127 42 48 55
240 453 123 44 51 58
240 452 125 44 51 58
240 453 124 44 51 58
241 452 125 45 51 58
240 452 126 44 51 58
241 452 126 44 51 58
224 483 106 45 52 59
224 483 107 45 52 60
225 483 106 47 53 60
225 483 107 46 53 60
224 481 109 46 53 60
225 481 109 46 52 60
224 480 110 46 53 61
224 480 111 46 53 60
224 481 110 47 54 61
225 480 110 45 52 59
225 480 111 44 51 59
225 481 110 45 52 60
224 482 108 46 53 60
224 482 109 47 53 61
224 483 108 46 53 60
225 482 108 46 53 60
225 482 109 46 53 60
226 480 109 45 52 59
226 481 108 46 53 60
226 481 109 46 53 60
226 480 110 45 52 60
224 484 105 46 53 60
224 485 104 46 53 60
224 485 105 46 52 59
224 484 106 45 52 59
224 480 112 45 52 60
129 441 142 49 58 67
128 442 143 45 54 64
128 443 143 42 51 60
129 442 142 42 52 61
129 442 143 43 53 62
129 443 142 41 50 59
129 443 143 41 50 60
131 441 141 47 57 66
130 441 142 48 57 66
131 442 141 46 55 64
131 443 141 45 54 63
130 442 142 43 53 62
130 443 142 41 51 60
131 442 142 45 54 64
131 443 142 43 52 62
128 444 143 42 51 61
128 445 143 45 53 62
129 444 142 42 51 60
129 444 143 42 51 60
129 445 142 44 53 62
129 445 143 44 52 61
128 446 143 45 54 63
128 447 142 45 54 63
128 447 143 45 54 63
129 446 142 46 54 63
129 447 142 45 54 63
131 444 141 44 53 62
131 445 141 46 54 63
130 444 142 42 51 60
130 445 142 44 53 61
131 444 142 42 52 61
130 446 141 47 54 63
130 447 141 46 54 63
131 446 141 47 55 64
131 447 140 46 55 63
131 447 141 47 55 64
130 446 142 46 54 63
130 447 142 46 54 63
135 440 139 48 55 62
135 441 139 46 54 63
134 442 139 46 55 64
134 443 139 47 55 64
135 442 139 45 54 63
135 443 139 46 55 64
132 441 141 46 55 65
133 440 140 47 55 63
133 441 140 46 54 63
132 442 140 49 57 66
132 442 141 47 56 65
132 443 140 47 56 65
132 443 141 46 55 64
133 442 140 47 55 65
133 443 140 46 55 64
134 440 140 47 55 63
134 441 140 46 55 63
135 440 140 48 55 63
135 441 140 47 55 63
134 442 140 46 55 64
134 443 140 46 55 64
133 446 139 43 52 62
133 447 139 44 53 62
134 444 139 43 52 61
134 445 139 43 52 61
135 444 139 44 53 62
135 445 138 43 52 61
135 445 139 43 52 61
134 446 139 42 51 61
134 447 139 42 52 61
135 446 138 43 51 60
135 446 139 42 51 60
135 447 138 43 51 60
132 444 140 45 54 63
132 444 141 45 54 63
132 445 140 45 54 63
132 445 141 46 55 64
133 444 140 44 53 62
133 445 140 44 53 62
132 446 140 46 55 64
132 447 140 45 54 63
133 446 140 44 53 63
134 444 140 43 52 62
140 439 137 50 55 61
141 439 137 49 53 59
142 439 136 46 51 57
142 439 137 46 51 56
143 439 136 46 50 56
138 447 135 43 50 58
139 446 135 44 52 60
139 447 135 43 50 58
141 443 135 45 52 60
142 441 135 48 53 59
143 440 135 44 49 56
143 441 135 47 52 58
142 442 135 48 53 59
142 443 135 46 52 59
143 442 134 48 53 59
143 442 135 48 53 59
143 443 134 46 52 59
143 443 135 48 53 59
143 447 131 47 54 62
140 445 135 46 54 62
141 444 135 45 52 60
141 445 135 47 54 62
141 447 133 45 52 59
140 446 135 45 53 61
140 447 134 43 51 58
140 447 135 43 51 59
141 446 134 46 53 61
141 446 135 47 54 62
141 447 134 45 52 60
142 445 133 47 54 61
143 444 133 45 52 59
143 445 132 47 54 61
143 445 133 46 53 61
142 444 134 45 52 59
142 444 135 45 52 59
142 445 134 46 53 61
143 444 134 45 51 59
142 446 133 47 54 62
142 447 132 45 52 60
142 447 133 47 53 61
143 446 132 48 55 62
143 446 133 47 54 62
143 447 132 46 54 61
142 446 134 47 54 62
136 440 139 48 54 62
136 441 139 47 54 62
137 440 138 47 53 60
137 440 139 48 54 61
137 441 138 46 53 61
137 441 139 47 54 61
136 442 138 45 53 62
136 442 139 45 53 62
136 443 138 48 55 64
136 443 139 47 55 64
137 442 138 46 54 62
137 443 138 47 54 63
139 440 137 52 57 64
139 441 137 48 54 61
138 440 138 49 54 61
138 441 138 46 53 61
139 440 138 50 55 62
139 441 138 47 54 61
138 443 137 44 52 61
139 442 137 45 53 61
139 443 137 44 52 60
138 442 138 45 53 61
138 443 138 45 53 61
139 442 138 45 52 60
137 444 137 46 54 63
137 445 137 44 53 61
136 444 138 46 54 63
136 444 139 46 54 63
136 445 138 43 52 61
137 444 138 47 55 64
136 446 137 43 52 60
136 447 137 43 51 60
137 446 137 44 52 60
137 447 136 43 51 59
137 447 137 43 51 60
136 446 138 43 51 60
136 447 138 43 51 60
138 444 137 46 54 63
138 445 136 44 52 61
138 445 137 45 53 62
139 444 136 45 53 62
139 444 137 45 54 62
139 445 136 45 53 62
138 446 136 44 52 60
138 446 137 44 52 60
138 447 136 43 50 58
139 446 136 45 53 61
140 440 137 53 58 64
140 441 137 50 55 62
141 440 136 50 55 61
141 440 137 51 56 61
141 441 136 50 55 62
141 441 137 53 57 63
140 442 136 46 53 61
140 442 137 46 53 61
140 443 136 44 52 60
141 442 136 47 54 61
141 443 136 46 53 60
142 440 136 47 52 58
142 441 136 49 54 60
143 440 136 45 50 56
142 442 136 48 54 61
140 444 136 44 52 60
140 445 136 46 53 61
128 443 144 42 52 61
128 444 144 43 52 61
144 439 135 47 51 57
145 439 135 48 53 59
147 438 133 50 55 62
147 439 133 52 56 63
146 438 134 52 57 63
146 439 134 51 56 62
147 438 134 49 55 62
150 439 131 51 55 61
151 438 131 45 51 58
151 439 131 49 54 60
149 437 132 45 52 59
148 438 133 49 54 61
148 439 132 52 57 63
148 439 133 52 57 63
149 438 132 48 54 61
149 438 133 47 53 60
149 439 132 51 55 62
150 437 132 46 52 59
151 437 132 45 51 58
150 438 132 47 53 60
150 439 132 50 55 62
151 438 132 46 52 59
147 442 131 47 52 59
147 443 131 49 54 60
144 440 135 44 49 55
144 441 134 48 52 58
144 441 135 46 51 57
145 440 134 46 51 57
145 440 135 45 50 57
145 441 134 46 51 57
144 443 133 45 51 58
145 442 133 49 54 60
145 443 133 47 53 59
144 442 134 48 53 59
144 442 135 48 53 59
144 443 134 46 52 59
145 442 134 48 53 59
146 440 133 46 51 58
146 441 133 46 51 57
147 440 133 49 54 60
147 441 132 46 51 57
147 441 133 46 51 57
146 440 134 47 52 58
146 441 134 45 51 57
146 442 132 48 53 59
146 442 133 48 53 59
146 443 132 48 54 60
146 443 133 49 54 60
147 442 132 47 52 58
147 443 132 49 54 60
145 445 131 46 53 61
144 446 131 49 56 64
144 447 130 47 55 63
144 447 131 48 55 63
145 446 130 48 55 63
145 446 131 48 55 62
145 447 130 48 56 63
147 445 129 47 53 61
146 444 131 47 53 59
146 445 130 47 54 61
146 445 131 47 53 60
147 444 130 49 54 61
147 444 131 49 54 60
147 445 130 47 53 60
146 447 129 48 55 63
147 446 129 47 54 61
147 447 128 48 55 63
147 447 129 48 55 63
146 446 130 47 54 62
146 447 130 49 56 63
147 446 130 47 53 61
144 444 132 45 52 59
144 444 133 45 52 59
144 445 132 47 54 61
145 444 132 46 52 59
145 444 133 46 52 59
145 445 132 46 53 60
144 446 132 48 55 63
146 444 132 47 53 59
148 441 131 47 52 58
149 440 131 49 54 61
149 441 131 48 53 59
148 442 131 46 51 58
148 443 130 49 54 60
148 443 131 48 53 60
149 442 130 46 51 57
149 442 131 46 51 58
149 443 130 48 53 59
150 440 131 51 56 62
150 441 130 49 53 59
150 441 131 49 53 60
151 440 130 52 56 62
151 440 131 51 55 61
151 441 130 50 54 60
150 443 129 48 53 59
151 442 129 48 52 58
151 443 129 48 53 58
150 442 130 47 51 57
150 443 130 48 53 58
151 442 130 48 53 58
148 440 132 51 55 62
148 441 132 47 52 58
149 440 132 51 56 62
148 445 129 47 53 60
149 444 129 50 54 61
149 445 129 48 54 61
148 444 130 49 54 60
148 445 130 49 54 61
149 444 130 49 54 60
148 446 128 46 53 61
148 446 129 47 53 61
148 447 128 47 54 61
149 446 128 47 54 61
149 447 128 46 54 61
150 444 129 49 54 61
150 445 128 49 55 61
150 445 129 49 54 60
151 444 128 49 54 61
151 444 129 49 54 60
151 445 128 50 56 63
150 446 128 48 55 63
150 447 128 47 54 62
151 446 128 51 57 64
152 437 131 46 52 59
153 437 131 48 54 61
152 438 131 46 52 59
152 439 130 47 52 59
152 439 131 47 52 58
153 438 130 48 54 61
153 438 131 48 54 61
153 439 130 47 53 60
154 437 130 46 52 59
154 437 131 47 53 60
155 437 130 46 52 59
155 437 131 46 52 58
155 439 129 47 52 59
154 438 130 47 53 60
154 438 131 48 54 61
154 439 130 47 53 59
155 438 130 46 52 59
155 439 130 47 53 60
152 437 132 46 53 60
153 437 132 48 54 61
156 437 130 46 52 59
157 437 130 45 52 59
156 439 129 47 53 60
157 438 129 46 52 59
157 439 129 46 52 59
156 438 130 46 53 60
157 438 130 45 52 59
158 437 130 44 51 58
159 437 130 44 50 57
158 438 129 45 52 59
158 439 129 45 51 58
159 438 129 44 50 57
159 439 128 44 51 58
159 439 129 44 51 58
152 441 129 49 54 59
153 441 129 50 54 60
152 440 130 50 55 61
152 441 130 51 55 61
153 440 130 49 54 60
153 441 130 51 55 61
152 442 129 48 52 58
152 443 129 47 52 58
153 442 129 47 52 57
153 443 128 46 51 56
153 443 129 46 51 57
154 440 129 47 52 59
154 441 129 49 54 60
155 440 129 46 52 58
155 441 128 50 55 61
155 441 129 48 53 59
154 440 130 48 53 59
154 442 128 48 52 58
154 442 129 48 52 58
154 443 128 46 51 57
155 442 128 49 54 60
155 443 128 47 51 57
152 444 128 48 53 60
152 445 128 50 56 63
153 444 128 47 53 59
154 444 128 47 52 58
156 440 129 46 52 59
156 441 128 47 53 59
156 441 129 46 52 59
157 440 128 46 52 58
157 440 129 46 52 59
157 441 128 46 52 58
156 442 128 50 55 61
156 443 128 48 53 59
157 442 128 49 54 60
158 440 128 46 52 58
158 441 128 46 51 58
159 440 128 44 50 57
159 441 128 44 50 57
160 437 130 43 50 57
161 437 130 44 51 57
160 438 129 43 50 57
160 439 128 43 49 56
160 439 129 43 50 57
161 438 129 45 51 57
161 439 128 44 50 57
161 439 129 44 50 57
162 437 130 45 51 58
162 437 131 44 50 57
163 437 130 45 50 57
163 437 131 44 50 57
162 438 129 46 52 58
162 439 128 45 51 58
162 439 129 45 51 58
163 438 129 45 51 57
163 439 129 45 50 57
163 438 130 45 51 57
164 437 131 44 50 56
164 438 129 43 49 56
164 439 129 43 49 56
164 438 130 43 50 57
164 438 131 43 49 56
164 439 130 43 49 56
165 438 130 44 50 57
165 438 131 43 50 57
165 439 130 43 50 57
166 438 131 42 49 56
166 439 130 43 50 57
166 439 131 42 49 56
167 439 131 42 48 55
164 437 132 44 50 56
165 437 132 43 50 56
165 438 132 43 49 56
166 437 132 43 50 57
166 438 132 42 49 56
167 438 132 42 48 55
167 438 133 41 48 55
167 439 132 42 48 55
167 439 133 42 48 55
160 440 128 43 49 57
160 441 128 43 50 57
161 440 128 43 49 56
161 441 128 42 49 56
162 440 128 45 51 58
162 441 128 44 51 57
163 440 128 44 50 57
163 441 128 44 50 57
164 440 128 44 50 57
164 440 129 43 49 57
164 441 128 43 50 57
165 440 129 42 49 56
165 441 128 42 49 56
165 441 129 42 49 57
165 440 130 43 50 57
165 442 128 42 48 56
166 441 129 43 50 57
166 440 130 43 50 57
166 440 131 43 49 56
166 441 130 43 50 56
167 440 131 42 48 55
167 441 130 43 50 56
167 441 131 43 49 56
166 442 128 43 49 57
166 442 129 44 50 57
166 443 128 43 49 56
167 442 129 44 50 57
167 443 128 43 49 56
167 443 129 43 49 56
167 442 130 43 50 57
167 440 132 42 48 55
167 444 128 43 49 56
168 438 133 43 49 56
168 439 132 43 49 56
168 439 133 43 50 56
169 439 133 43 49 56
168 438 134 43 49 56
169 438 134 43 49 56
169 438 135 43 49 56
169 439 134 43 49 56
170 438 135 44 50 57
170 439 134 44 50 57
170 439 135 44 50 57
171 438 135 44 50 57
171 439 134 44 50 57
171 439 135 44 50 57
172 438 135 43 50 57
172 439 135 44 50 57
173 438 135 43 50 57
173 439 135 44 51 58
174 439 135 44 51 58
175 439 135 44 51 58
168 441 130 44 50 56
168 441 131 44 50 56
168 443 129 43 49 56
168 442 130 44 50 56
168 442 131 43 50 56
168 443 130 44 50 56
169 442 131 44 50 57
169 443 130 44 50 56
169 443 131 44 50 56
170 443 130 44 51 58
170 443 131 44 50 57
171 443 131 45 51 58
168 440 132 43 49 56
168 440 133 44 50 57
168 441 132 43 49 56
169 440 133 44 50 57
169 441 132 43 49 56
169 441 133 43 50 57
169 440 134 44 50 57
169 442 132 43 49 56
170 440 133 44 50 57
170 441 133 44 50 57
171 441 133 45 51 58
170 440 134 44 50 57
171 440 134 44 50 57
170 442 132 44 50 57
170 442 133 44 51 58
171 442 132 45 51 58
171 442 133 45 51 58
168 444 128 43 49 56
168 444 129 43 49 56
168 445 128 43 49 56
169 444 129 44 50 57
169 445 128 43 49 56
169 445 129 43 49 56
169 444 130 44 50 57
169 446 128 43 50 57
170 444 129 44 51 58
170 445 128 44 51 58
170 445 129 45 51 58
171 445 129 45 51 58
170 444 130 44 51 58
171 444 130 45 51 58
171 444 131 45 51 58
171 445 130 45 51 58
170 446 128 44 51 58
171 446 128 45 52 59
171 446 129 44 51 58
171 447 128 45 51 58
172 443 131 46 52 59
173 443 131 45 52 59
174 443 131 45 51 58
175 443 131 45 51 58
172 441 133 45 51 58
173 441 133 46 52 58
172 440 134 44 50 58
172 441 134 45 51 57
173 440 134 45 51 58
173 440 135 45 51 58
173 441 134 45 51 58
172 442 132 46 52 59
172 442 133 45 51 58
172 443 132 46 52 59
173 442 132 45 52 58
173 442 133 46 52 58
173 443 132 45 51 58
174 441 133 45 52 59
175 441 133 45 51 59
174 440 134 45 51 59
174 440 135 44 51 59
174 441 134 45 51 58
175 440 134 44 51 58
175 441 134 45 51 58
174 442 132 44 51 59
174 442 133 46 52 59
175 442 132 44 51 58
175 442 133 45 51 58
175 443 132 43 49 56
172 445 129 46 53 60
173 445 129 46 53 60
172 444 130 46 52 59
172 445 130 46 53 60
173 444 130 46 52 59
173 445 130 46 52 59
172 446 128 45 52 59
172 446 129 46 53 60
172 447 128 45 52 59
173 446 128 46 52 60
173 446 129 47 53 61
173 447 128 46 52 60
174 445 129 45 52 59
175 445 129 46 52 59
174 444 130 46 52 59
174 444 131 45 52 59
174 445 130 46 52 59
175 444 130 47 53 60
175 444 131 45 51 58
175 445 130 46 53 59
174 446 128 45 52 59
174 446 129 46 52 59
174 447 128 45 52 59
175 446 128 46 52 59
175 446 129 46 52 59
175 447 128 46 52 59
176 439 135 45 51 59
177 439 135 46 52 59
178 439 135 45 51 58
176 439 136 45 51 59
177 439 136 46 52 59
178 439 136 46 52 59
179 439 136 46 51 58
180 439 136 45 51 57
180 439 137 45 51 57
181 439 136 44 50 56
181 439 137 44 50 56
182 439 137 43 49 56
182 439 138 43 49 56
183 439 138 43 49 56
176 443 131 45 52 58
177 443 131 45 51 58
176 441 133 45 51 58
176 440 134 45 51 58
176 440 135 44 51 58
176 441 134 45 51 58
177 440 134 45 52 59
177 440 135 45 51 59
177 441 134 45 51 58
176 442 132 44 50 57
176 442 133 45 51 58
176 443 132 45 51 58
177 442 132 46 52 59
177 442 133 45 51 58
177 443 132 45 51 59
178 440 134 46 52 59
178 440 135 45 51 58
178 441 134 45 52 59
178 441 135 45 51 58
179 440 135 45 51 58
179 441 134 45 52 59
179 441 135 45 51 58
178 442 132 45 52 59
178 442 133 45 51 59
178 443 132 45 51 59
179 442 133 45 51 59
179 443 132 45 51 58
179 443 133 45 51 58
178 442 134 45 52 59
179 442 134 44 50 57
176 445 129 45 52 59
177 445 129 45 52 59
176 444 130 45 51 58
176 444 131 45 51 58
176 445 130 45 52 59
177 444 130 44 51 58
177 444 131 45 51 58
177 445 130 45 51 58
176 446 128 45 52 59
176 446 129 46 52 60
176 447 128 45 52 59
177 446 128 46 52 59
177 446 129 45 52 59
177 447 128 45 52 59
178 444 130 44 50 57
178 444 131 44 51 58
178 445 130 44 50 57
179 444 131 45 51 58
179 445 130 45 51 58
179 445 131 45 50 57
178 446 128 45 51 58
178 446 129 45 51 58
178 447 128 45 51 58
179 446 129 45 50 57
179 447 128 44 50 57
179 447 129 44 51 57
179 446 130 46 51 57
179 444 132 45 51 58
180 441 134 44 50 57
180 441 135 43 50 57
181 441 135 43 49 56
180 443 133 44 50 57
181 443 133 45 50 56
180 442 134 44 50 57
180 442 135 43 49 56
180 443 134 45 50 57
181 442 134 43 49 56
181 442 135 43 49 56
181 443 134 45 50 56
181 443 135 44 50 56
182 442 135 44 50 56
182 443 135 44 50 57
180 444 131 44 50 57
180 445 130 45 51 57
180 445 131 44 50 57
181 445 131 44 50 57
180 446 129 46 51 58
180 447 129 45 51 58
181 447 129 45 51 58
180 446 130 45 51 57
181 446 130 45 51 58
181 446 131 44 50 57
181 447 130 45 51 58
182 446 131 45 50 56
182 447 130 44 50 56
182 447 131 45 50 56
180 444 132 44 50 56
180 444 133 45 50 56
181 444 132 45 50 57
181 444 133 45 50 57
181 445 132 45 50 57
181 444 134 45 51 57
182 444 133 44 49 56
182 445 132 44 50 56
182 445 133 43 50 56
183 445 133 43 49 56
182 444 134 44 50 56
182 444 135 44 50 57
183 444 134 44 50 56
183 444 135 43 50 57
183 445 134 44 50 57
183 445 135 44 50 57
182 446 132 45 50 56
182 447 132 45 50 57
183 446 132 45 50 56
183 446 133 44 50 56
183 447 132 44 50 57
183 447 133 44 50 57
183 446 134 42 49 56
179 440 136 45 51 58
180 440 136 45 51 57
180 441 136 44 50 58
181 440 136 44 50 57
181 441 136 44 50 57
181 442 136 43 49 56
182 440 137 43 50 56
182 441 136 43 50 57
182 441 137 43 50 56
183 441 137 42 49 56
182 440 138 43 50 57
183 440 138 43 49 56
183 441 138 43 49 56
182 442 136 43 50 56
182 443 136 43 49 56
183 442 136 43 49 56
183 442 137 43 49 56
183 443 136 43 49 56
183 443 137 43 49 56
182 444 136 43 49 56
183 444 136 43 50 56
183 444 137 43 49 56
183 445 136 43 49 56
183 445 137 42 49 56
184 445 135 44 50 57
184 447 133 44 50 57
184 446 134 43 50 56
184 446 135 43 50 57
184 447 134 44 50 57
184 447 135 44 50 57
185 446 135 44 50 57
185 447 135 44 50 57
186 447 135 45 50 57
187 447 135 45 51 58
184 441 137 42 49 56
184 440 138 43 49 56
184 440 139 43 50 57
184 441 138 43 49 57
184 441 139 43 50 57
185 441 139 44 50 56
184 442 137 43 49 56
184 443 136 43 49 56
184 443 137 42 49 56
185 442 137 43 49 56
185 443 137 42 49 56
184 442 138 43 50 57
185 442 138 43 50 57
185 442 139 44 50 57
185 443 138 43 49 56
186 442 139 43 49 56
186 443 138 44 50 56
186 443 139 43 49 56
187 442 139 44 50 56
187 443 139 43 49 56
184 440 140 44 50 57
185 440 140 44 50 57
185 440 141 44 50 56
185 441 140 44 50 57
185 441 141 44 49 55
186 441 141 44 49 56
187 441 141 43 49 56
186 441 142 43 49 55
187 441 142 43 49 56
186 442 140 44 49 56
187 442 140 43 49 56
187 442 141 43 49 55
187 443 140 42 48 54
184 444 137 43 49 56
184 445 137 43 50 57
185 444 137 44 50 57
185 445 137 44 50 57
184 446 136 43 50 57
184 446 137 44 50 57
185 446 136 44 50 57
185 447 136 44 50 58
186 444 137 44 50 57
186 445 137 44 50 56
186 444 138 44 50 56
186 445 138 44 50 56
187 444 138 43 49 55
187 444 139 43 49 55
187 445 138 43 49 56
186 446 136 44 50 57
186 446 137 44 50 57
186 447 136 44 50 57
187 446 137 44 50 56
187 447 136 44 50 57
187 446 138 43 49 55
188 443 139 43 48 55
188 441 142 42 49 55
188 441 143 42 48 55
189 441 143 42 48 55
188 442 141 42 48 55
188 443 140 43 48 54
188 443 141 42 48 54
189 443 141 42 48 55
188 442 142 42 48 55
189 442 142 42 48 55
189 442 143 42 48 55
189 443 142 42 48 55
190 442 143 42 48 55
190 443 142 42 48 55
190 443 143 42 48 55
191 443 143 41 47 54
188 444 139 43 48 54
188 445 138 43 48 54
188 445 139 43 48 55
189 445 139 43 49 55
188 446 137 44 50 56
188 447 136 44 50 56
188 447 137 44 50 56
189 447 136 43 49 56
189 447 137 43 49 56
188 446 138 43 49 55
189 446 138 43 49 56
189 446 139 43 49 55
189 447 138 43 49 56
190 447 137 44 49 56
190 446 139 43 49 56
190 447 138 44 50 56
190 447 139 44 49 56
191 447 138 45 50 56
191 447 139 45 50 56
188 444 140 43 48 55
189 444 140 43 49 55
189 444 141 43 48 55
189 445 140 43 49 55
190 444 141 42 48 55
190 445 140 42 49 55
190 445 141 43 49 55
191 445 141 43 48 55
190 444 142 42 48 55
190 444 143 43 48 55
191 444 142 43 49 55
191 444 143 42 48 55
191 445 142 43 48 55
191 445 143 42 48 54
190 446 140 43 49 55
191 446 140 44 49 56
191 446 141 44 49 55
191 447 140 44 50 56
191 447 141 44 50 56
191 446 142 44 49 55
190 442 144 42 48 55
191 442 144 40 46 53
191 442 145 41 47 54
191 443 144 41 47 54
191 443 145 41 46 53
191 442 146 41 47 54
191 444 144 42 48 54
135 452 135 44 52 59
135 453 135 45 52 60
134 455 135 45 52 60
135 454 134 46 53 61
135 454 135 45 52 60
135 455 134 47 53 61
135 455 135 46 53 60
131 450 139 45 53 62
131 451 139 45 52 61
129 448 141 45 53 62
129 449 141 44 53 62
128 448 143 45 54 63
128 449 142 44 52 62
128 449 143 44 53 62
129 448 142 45 54 63
129 449 142 44 53 62
129 450 141 44 52 61
129 451 141 46 54 62
128 450 142 45 53 62
128 450 143 45 54 64
128 451 142 46 54 63
128 451 143 46 55 64
129 450 142 44 53 61
129 451 142 45 53 62
130 448 141 45 53 62
130 449 140 44 53 61
130 449 141 44 53 62
131 448 140 46 54 63
131 449 140 45 53 62
130 450 140 44 53 61
130 450 141 44 53 61
130 451 140 44 52 61
130 451 141 45 53 61
131 450 140 45 53 61
131 451 140 44 52 61
131 452 139 45 52 60
131 453 139 46 53 60
130 455 139 46 53 61
131 454 139 46 53 60
131 455 138 47 54 61
131 455 139 47 53 61
129 452 141 46 53 61
129 453 141 45 53 61
128 452 142 46 54 63
128 452 143 46 54 63
128 453 142 45 54 62
128 453 143 45 54 63
129 452 142 46 54 62
129 453 142 45 53 62
128 455 141 45 53 61
129 454 141 45 53 61
129 455 140 45 52 60
129 455 141 45 52 60
128 454 142 45 53 61
128 454 143 45 53 62
128 455 142 44 53 61
130 452 140 45 53 61
130 452 141 45 53 61
130 453 140 45 53 61
131 452 140 46 53 61
131 453 140 46 53 61
130 454 140 45 53 60
130 455 140 45 53 60
132 449 139 46 54 63
133 448 139 44 53 62
133 449 139 44 53 62
132 450 139 45 53 62
132 451 139 45 52 61
133 450 138 44 52 60
133 450 139 45 53 61
133 451 138 44 52 60
133 451 139 44 52 60
135 449 137 43 51 59
134 448 138 42 51 60
134 448 139 43 51 60
134 449 138 43 51 60
135 448 138 42 51 59
135 449 138 43 51 59
134 451 137 43 50 58
135 450 137 42 50 58
135 451 136 43 51 58
135 451 137 43 50 58
134 450 138 43 51 59
134 451 138 43 51 59
135 450 138 43 51 59
132 448 140 46 54 63
132 449 140 46 54 62
133 452 137 43 51 59
133 453 137 44 51 59
132 452 138 45 52 60
132 452 139 45 52 60
132 453 138 45 52 60
132 453 139 46 53 60
133 452 138 44 51 59
133 453 138 44 51 59
132 454 137 46 53 61
132 455 137 47 54 62
133 454 137 45 52 60
133 455 136 44 52 59
133 455 137 46 53 60
132 454 138 46 53 60
132 455 138 48 54 62
134 452 136 43 50 58
134 452 137 43 50 58
134 453 136 44 51 59
135 452 136 43 51 58
135 453 136 44 51 59
134 454 136 45 52 59
134 455 136 44 52 59
133 457 135 46 53 60
133 458 135 45 53 60
133 459 135 45 53 61
134 456 135 46 53 60
134 457 134 46 53 60
134 457 135 46 53 60
135 456 134 47 53 61
135 457 134 47 54 61
135 458 133 46 53 60
135 459 133 45 53 61
134 458 134 45 53 61
134 458 135 45 52 60
134 459 134 44 52 60
135 458 134 46 53 60
133 460 135 45 53 61
133 461 135 50 57 65
133 462 134 49 57 65
133 462 135 50 57 66
133 463 134 48 56 65
133 463 135 49 57 66
134 460 133 49 56 64
134 461 133 50 57 65
135 460 133 48 55 63
135 461 132 50 57 64
135 461 133 50 57 65
134 460 134 46 53 62
134 461 134 49 56 64
134 462 133 46 54 63
134 463 133 49 57 66
135 462 132 47 54 62
135 462 133 46 53 62
135 463 132 49 56 65
135 463 133 49 57 65
134 462 134 49 56 65
134 463 134 48 56 65
129 458 139 47 54 62
129 459 139 46 54 62
130 456 139 47 53 61
130 457 139 47 54 62
131 456 138 47 54 62
131 456 139 47 54 61
131 457 138 47 54 62
131 458 137 46 54 62
131 459 137 46 54 62
130 458 138 47 54 62
130 458 139 47 54 62
130 459 138 46 54 63
130 459 139 46 54 62
131 458 138 47 54 62
131 459 138 46 54 63
128 456 141 45 53 61
128 457 141 46 53 61
129 456 140 45 53 60
129 456 141 45 53 61
129 457 140 46 53 61
129 457 141 45 53 60
128 456 142 46 53 61
128 457 142 46 53 62
128 458 141 46 54 62
128 459 140 46 54 63
128 459 141 46 54 63
129 458 140 46 54 62
129 459 140 46 54 62
128 458 142 46 54 62
130 456 140 45 52 60
129 460 139 46 54 63
129 461 139 46 55 64
129 462 139 46 55 65
131 460 137 46 54 63
131 461 137 47 55 64
130 460 138 47 55 63
130 460 139 46 54 63
130 461 138 47 55 64
130 461 139 47 55 64
131 460 138 47 55 63
131 461 138 47 55 64
131 462 137 48 56 65
131 463 137 49 57 66
130 462 138 47 56 65
130 462 139 47 56 65
130 463 138 49 57 67
130 463 139 47 57 67
131 462 138 47 56 65
131 463 138 49 58 67
128 460 140 46 55 64
128 460 141 46 55 64
128 461 140 45 54 64
128 461 141 45 55 64
129 460 140 46 54 63
129 461 140 46 54 64
128 462 140 46 55 65
128 462 141 45 56 66
128 463 141 47 57 68
129 462 140 46 55 65
129 463 140 46 56 67
132 456 137 47 54 61
132 457 136 46 53 61
132 457 137 47 54 62
133 456 136 45 52 60
133 457 136 45 53 60
132 458 136 46 53 62
132 458 137 46 54 62
132 459 136 45 53 62
132 459 137 46 54 62
133 458 136 45 53 61
133 459 136 46 53 61
132 460 136 46 54 62
132 461 136 47 55 64
132 461 137 47 55 63
133 460 136 45 53 61
132 462 136 50 57 66
132 463 136 49 57 66
133 463 136 49 57 66
136 451 135 45 52 60
137 450 135 45 52 60
137 451 134 45 53 61
137 451 135 46 53 61
139 449 133 45 52 59
138 448 135 43 50 58
138 449 135 45 52 59
139 448 134 42 50 58
139 448 135 43 50 58
139 449 134 44 51 59
139 450 133 45 52 60
139 451 132 46 54 62
139 451 133 45 53 61
138 450 134 45 52 60
138 450 135 45 52 60
138 451 134 46 53 61
139 450 134 45 52 60
139 453 131 48 55 64
139 454 131 48 55 64
139 455 131 47 55 63
137 453 133 47 54 62
136 452 134 46 53 61
136 452 135 46 53 60
136 453 134 46 53 61
136 453 135 45 53 61
137 452 134 46 53 62
137 453 134 46 53 62
136 455 133 47 54 62
137 454 133 47 54 63
137 455 132 46 54 62
137 455 133 47 54 62
136 454 134 46 53 61
136 455 134 47 54 61
138 452 133 46 54 62
138 453 133 47 55 63
139 452 132 48 55 63
139 452 133 47 54 62
139 453 132 48 55 64
138 452 134 46 54 62
138 454 132 47 55 64
138 454 133 47 55 63
138 455 132 47 55 63
139 454 132 47 55 64
139 455 132 47 55 63
140 451 131 47 54 62
141 450 131 45 52 60
141 451 131 46 53 61
142 448 131 45 52 60
142 449 131 45 52 60
143 448 131 45 52 60
143 449 130 45 53 61
143 449 131 45 52 60
143 451 129 47 55 63
142 450 131 46 53 60
142 451 130 46 53 61
142 451 131 45 53 60
143 450 130 46 53 61
143 450 131 45 52 60
143 451 130 46 54 62
140 448 133 44 51 58
140 449 133 45 52 59
141 448 133 44 51 59
141 449 132 45 52 59
141 449 133 44 52 59
140 448 134 43 50 58
140 450 132 46 53 61
140 450 133 46 53 61
140 451 132 47 54 62
141 450 132 45 52 60
142 448 132 45 52 59
142 449 132 45 52 60
140 452 131 46 54 62
140 453 130 46 54 62
140 453 131 47 55 63
141 452 130 46 53 62
141 452 131 46 54 62
141 453 130 45 54 62
141 454 129 45 53 62
141 455 129 44 53 62
140 454 131 47 55 64
140 455 130 46 54 63
140 455 131 46 54 63
141 454 130 45 53 62
141 455 130 45 53 62
142 452 129 46 54 63
142 453 129 46 54 63
143 452 128 48 56 65
143 452 129 47 55 63
143 453 128 47 56 64
143 453 129 47 55 64
142 452 130 46 54 62
142 453 130 46 54 63
142 454 129 45 54 63
142 455 128 45 54 62
142 455 129 45 53 62
143 454 128 47 55 64
143 455 128 46 54 63
140 452 132 48 55 63
136 448 137 42 50 59
136 449 136 43 50 59
136 449 137 42 50 59
137 448 136 43 50 59
137 449 136 43 51 58
136 450 136 44 51 59
136 450 137 43 50 58
136 451 136 44 51 59
137 450 136 44 52 59
138 448 136 44 51 59
137 458 131 46 53 61
137 459 131 46 53 61
138 456 131 45 53 62
138 457 131 45 52 60
139 456 131 46 54 62
139 457 130 45 53 61
139 457 131 46 53 62
139 459 129 46 53 61
138 458 131 45 53 61
138 459 130 46 53 61
138 459 131 46 53 61
139 458 130 45 53 61
139 459 130 46 53 61
136 456 133 47 54 62
136 457 132 46 53 61
136 457 133 47 54 61
137 456 132 46 53 61
137 456 133 47 54 62
137 457 132 45 53 61
136 458 132 46 53 61
136 458 133 46 53 61
136 459 132 46 53 61
136 459 133 45 52 60
137 458 132 46 53 61
137 459 132 47 53 61
138 456 132 46 53 62
138 457 132 44 52 61
136 461 131 50 56 64
137 460 131 47 54 62
137 461 130 49 56 63
137 461 131 49 55 63
136 462 131 47 54 62
136 463 131 49 56 64
137 462 130 47 54 62
137 462 131 47 54 62
137 463 130 46 54 62
137 463 131 47 55 63
138 461 129 47 54 62
139 460 129 47 53 61
139 461 129 46 53 61
138 460 130 46 53 61
138 460 131 45 53 60
138 461 130 48 55 62
138 462 129 49 55 62
138 463 129 47 54 61
139 462 128 48 54 61
139 462 129 48 55 62
139 463 128 49 55 62
139 463 129 48 55 63
138 462 130 48 55 62
138 463 130 46 53 61
136 460 132 48 55 63
136 461 132 50 57 64
136 462 132 46 54 62
136 463 132 50 57 65
140 457 129 44 52 61
141 456 128 44 53 62
141 456 129 44 53 62
141 457 128 45 53 62
141 457 129 44 52 61
140 456 130 45 53 62
140 456 131 45 53 62
140 457 130 45 53 62
141 456 130 44 53 61
140 458 129 45 52 61
140 459 129 45 53 61
141 458 128 45 53 61
141 458 129 45 53 61
141 459 128 45 52 60
140 458 130 45 53 61
142 456 128 45 53 62
142 457 128 45 53 62
143 456 128 45 53 61
142 458 128 45 53 61
140 460 128 46 53 60
140 460 129 46 53 60
140 461 128 45 52 60
141 460 128 46 53 60
141 461 128 46 52 60
140 462 128 46 52 60
140 463 128 47 54 61
133 464 135 49 58 67
133 465 135 49 59 68
133 466 135 48 57 67
133 467 135 48 58 68
134 464 133 50 58 68
135 464 133 48 56 66
135 465 133 45 55 65
134 464 134 50 58 68
134 465 134 48 58 68
134 465 135 49 59 68
135 466 133 44 54 64
135 467 133 46 55 65
134 466 134 46 56 66
134 466 135 47 57 67
134 467 134 47 56 66
134 467 135 48 57 67
135 466 134 45 55 65
135 467 134 45 55 65
135 468 133 47 55 65
135 469 133 47 55 64
134 468 134 46 56 65
134 468 135 47 57 66
134 469 134 46 55 64
134 469 135 47 56 65
135 468 134 46 55 65
135 469 134 45 54 63
135 470 133 48 56 65
135 471 133 48 56 65
134 470 134 46 54 64
134 470 135 46 55 64
134 471 134 47 55 65
134 471 135 46 55 64
135 470 134 45 54 63
135 471 134 46 55 64
131 464 137 49 57 66
131 465 137 51 59 69
130 464 138 50 59 68
130 464 139 50 59 69
130 465 139 50 59 69
131 464 138 50 58 67
131 465 138 49 58 68
131 466 137 51 60 69
130 466 139 48 58 68
130 467 139 47 57 67
131 466 138 49 58 67
131 467 138 49 58 67
131 467 139 47 57 66
128 464 141 48 59 70
128 465 141 48 59 70
129 464 140 48 58 69
129 464 141 48 58 69
129 465 140 49 59 69
129 465 141 48 59 70
128 464 142 48 59 71
128 465 142 48 59 71
128 466 141 46 57 69
129 466 140 49 59 70
129 466 141 47 58 69
129 467 140 49 58 69
129 467 141 48 57 68
128 466 142 46 57 69
128 467 142 46 57 68
130 465 140 50 60 70
130 466 140 50 59 70
130 467 140 48 58 68
130 468 139 47 56 66
130 469 139 46 55 64
131 468 138 50 58 67
131 468 139 47 56 66
131 469 138 49 57 67
131 469 139 46 55 64
130 470 139 47 55 64
130 471 139 47 55 64
131 470 138 48 56 65
131 470 139 46 55 64
131 471 138 48 56 65
131 471 139 46 55 64
129 468 140 48 57 67
129 468 141 47 56 66
129 469 141 47 56 65
128 468 142 45 56 66
128 469 142 45 55 64
128 470 141 46 55 64
128 471 141 46 54 63
129 470 141 48 56 65
129 471 141 47 55 64
128 470 142 46 55 64
128 471 142 46 55 64
130 468 140 48 56 66
130 469 140 47 56 65
130 470 140 47 55 64
130 471 140 47 55 63
132 464 136 50 58 67
132 464 137 50 58 67
132 465 136 51 59 68
132 465 137 51 59 68
133 464 136 50 58 68
133 465 136 50 59 69
132 466 137 49 58 67
132 467 137 48 57 66
133 466 136 48 57 67
133 467 136 47 57 67
132 466 138 49 58 67
132 467 138 49 57 67
132 468 137 48 56 66
132 469 137 46 56 65
133 468 136 48 57 67
133 469 136 47 56 66
132 468 138 49 58 67
132 469 138 48 56 66
132 470 137 44 54 64
132 471 137 44 54 64
133 470 136 45 55 65
133 471 136 46 55 64
132 470 138 47 55 64
132 471 138 45 54 63
133 474 135 48 57 66
133 475 135 48 57 66
135 472 133 48 56 65
135 473 133 47 56 65
134 472 134 48 57 66
134 472 135 48 57 66
134 473 134 48 57 66
134 473 135 49 57 66
135 472 134 47 56 65
135 473 134 47 56 65
135 474 133 46 56 65
135 475 133 46 56 66
134 474 134 48 57 66
134 474 135 48 57 66
134 475 134 49 58 67
134 475 135 49 57 67
135 474 134 47 56 65
135 475 134 48 57 66
133 476 135 49 57 66
133 477 135 48 56 65
133 478 135 48 56 65
133 479 135 47 55 64
135 476 133 48 58 68
135 477 133 48 58 68
134 476 134 50 58 68
134 476 135 49 58 67
134 477 134 49 58 68
134 477 135 49 57 67
135 476 134 48 58 68
135 477 134 49 58 67
135 478 133 47 57 67
135 479 133 48 57 66
134 478 134 48 57 67
134 478 135 48 57 66
134 479 134 47 56 65
134 479 135 47 56 65
130 472 139 47 55 63
130 473 139 46 54 63
131 472 138 47 55 64
131 472 139 47 55 64
131 473 138 46 55 64
131 473 139 47 55 64
130 474 139 47 55 64
130 475 139 48 56 65
131 474 138 47 56 65
131 474 139 47 56 65
131 475 138 48 56 65
128 472 141 46 55 63
128 473 141 47 55 64
129 472 140 48 56 64
129 472 141 48 56 64
129 473 140 47 55 64
129 473 141 48 56 64
128 472 142 46 55 64
128 473 142 47 55 64
128 474 141 46 55 64
128 475 141 47 56 65
129 474 140 48 56 65
129 474 141 48 56 65
129 475 140 48 56 66
129 475 141 48 56 66
128 474 142 46 55 64
128 475 142 47 56 65
130 472 140 46 54 63
130 473 140 45 54 62
130 474 140 47 55 64
130 475 140 48 56 65
131 476 137 48 57 66
131 477 137 49 58 67
130 476 139 47 56 65
130 477 139 48 57 66
131 476 138 48 56 65
131 477 138 48 56 65
131 478 137 50 58 67
131 479 137 48 57 66
130 478 139 48 57 66
130 479 139 48 57 65
131 478 138 47 56 65
131 479 138 46 55 64
128 476 141 48 56 65
128 477 141 49 56 65
129 476 140 48 57 66
129 476 141 48 57 66
129 477 140 49 57 66
129 477 141 48 57 65
128 476 142 48 56 65
128 477 142 48 56 64
128 478 141 49 56 64
128 479 141 48 55 63
129 478 140 49 57 66
129 478 141 48 56 65
129 479 140 48 56 65
129 479 141 47 55 64
128 478 142 49 56 64
128 479 142 48 56 64
130 476 140 48 57 66
130 477 140 49 57 66
132 472 137 45 55 64
132 473 137 46 55 65
133 472 136 48 56 66
133 473 136 48 57 66
132 472 138 46 54 64
132 473 138 46 55 64
132 474 137 46 55 64
132 475 137 47 55 64
133 474 136 48 56 65
133 475 136 47 56 65
132 474 138 47 55 64
132 476 137 47 56 65
132 477 137 49 57 66
133 476 136 47 56 65
133 477 136 46 55 64
132 478 137 50 58 66
132 479 137 50 58 66
133 478 136 47 55 64
133 479 136 47 56 65
136 464 131 48 56 65
136 465 131 46 54 63
137 464 130 49 56 64
137 464 131 49 57 65
137 465 130 48 56 64
137 465 131 46 54 63
137 466 130 45 53 62
137 466 131 45 53 62
137 467 131 46 54 63
138 464 129 47 54 62
138 465 129 49 55 63
139 464 128 45 53 61
139 464 129 46 53 61
139 465 128 45 52 60
139 465 129 47 54 62
138 464 130 48 55 63
138 465 130 49 56 64
138 466 129 48 55 63
139 466 128 45 53 61
139 466 129 48 54 62
139 467 128 47 54 62
139 467 129 48 55 63
138 466 130 47 54 63
138 467 130 46 54 62
136 464 132 47 56 65
136 465 132 45 53 63
136 466 132 44 53 63
136 466 133 44 54 64
136 467 132 46 54 64
136 467 133 46 55 65
137 468 131 46 54 63
137 469 131 51 58 66
137 470 131 51 58 67
137 471 131 49 57 65
139 468 129 49 56 63
139 469 129 52 58 66
138 468 130 47 55 63
138 469 130 52 58 66
139 470 129 49 56 64
139 471 129 51 58 66
138 470 130 49 56 64
138 471 130 50 57 66
139 470 130 49 56 63
136 468 132 46 55 64
136 468 133 46 55 64
136 469 132 49 57 66
136 469 133 48 56 65
137 468 132 46 54 64
137 469 132 49 57 66
136 470 132 51 58 67
136 470 133 50 57 66
136 471 132 50 58 66
136 471 133 50 57 65
137 470 132 51 58 66
137 471 132 50 57 66
140 464 128 47 54 62
140 465 128 46 53 61
140 466 128 44 52 60
140 467 128 45 52 61
140 468 128 48 56 63
140 469 128 51 58 65
140 470 128 49 56 64
140 471 128 52 58 66
137 472 131 50 57 66
137 473 131 48 56 65
137 474 131 48 57 66
137 475 131 49 58 67
138 473 129 48 56 64
139 472 129 51 58 66
139 473 128 48 55 63
139 473 129 48 56 64
138 472 130 51 59 67
138 473 130 48 56 64
138 474 129 47 56 65
138 475 129 48 57 66
139 474 128 50 57 66
139 474 129 49 57 66
139 475 128 49 57 66
139 475 129 48 56 65
138 474 130 47 55 64
138 475 130 48 57 67
136 472 132 50 58 66
136 472 133 50 57 66
136 473 132 49 57 66
136 473 133 48 56 65
137 472 132 50 58 66
137 473 132 49 57 65
136 474 132 48 57 66
136 474 133 48 56 66
136 475 132 48 57 67
136 475 133 47 56 66
137 476 131 49 58 68
137 477 130 47 57 67
137 477 131 48 57 67
137 478 130 47 57 67
137 478 131 47 57 67
137 479 130 48 57 67
137 479 131 48 57 67
138 476 129 49 58 67
138 477 129 47 57 67
139 476 128 48 56 65
139 476 129 49 58 67
139 477 128 49 57 66
139 477 129 48 57 67
138 476 130 49 58 67
138 477 130 47 57 67
138 478 129 47 57 67
138 479 129 46 56 66
139 478 128 48 56 66
139 478 129 47 57 66
139 479 128 47 56 65
139 479 129 46 55 65
138 478 130 47 56 66
138 479 130 47 57 66
136 476 132 49 58 68
136 476 133 48 58 67
136 477 132 48 57 68
136 477 133 48 58 68
136 478 132 47 57 67
136 478 133 47 57 67
136 479 132 47 57 66
136 479 133 48 57 67
140 472 128 50 57 65
140 473 128 48 55 63
140 474 128 51 58 66
140 475 128 50 57 66
140 476 128 48 56 65
140 477 128 48 57 66
140 478 128 47 56 65
140 479 128 47 56 65
145 448 129 44 53 61
145 449 129 44 52 61
144 448 130 45 53 61
144 448 131 45 53 61
144 449 130 45 53 61
145 448 130 45 53 62
144 450 129 47 54 62
144 451 128 47 55 63
144 451 129 47 55 63
145 450 128 45 53 62
145 450 129 45 53 61
145 451 128 46 54 62
145 451 129 46 54 62
144 450 130 46 54 62
146 448 129 47 54 62
146 449 128 45 53 61
146 449 129 44 53 61
147 448 128 47 55 63
147 448 129 49 56 63
147 449 128 46 53 61
146 450 128 45 53 61
146 451 128 45 53 61
147 450 128 46 53 61
144 452 128 47 55 64
144 453 128 48 56 64
145 452 128 45 54 62
144 454 128 47 55 64
148 448 128 46 53 61
133 480 135 46 54 63
133 481 135 46 54 63
133 482 135 47 54 63
