ply
format ascii 1.0
comment PCL generated
element vertex 2415
property float x
property float y
property float z
property uchar red
property uchar green
property uchar blue
element camera 0
property float view_px
property float view_py
property float view_pz
property float x_axisx
property float x_axisy
property float x_axisz
property float y_axisx
property float y_axisy
property float y_axisz
property float z_axisx
property float z_axisy
property float z_axisz
property float focal
property float scalex
property float scaley
property float centerx
property float centery
property int viewportx
property int viewporty
property float k1
property float k2
end_header
289 8 209 54 58 63
289 9 208 50 53 57
289 9 209 50 54 58
288 8 211 54 58 63
288 9 210 48 52 58
288 9 211 50 55 60
289 8 210 54 58 63
289 8 211 54 58 64
289 9 210 50 54 60
289 9 211 52 56 61
288 10 209 43 46 49
288 11 208 44 45 48
288 11 209 43 45 48
289 10 208 45 47 51
289 10 209 45 48 51
289 11 208 43 45 49
289 11 209 43 45 49
288 10 210 44 48 51
288 10 211 45 49 54
288 11 210 44 45 48
288 11 211 44 46 49
288 8 212 53 58 63
288 9 212 51 55 61
288 10 212 46 50 55
288 10 213 47 51 57
288 11 212 44 47 50
288 12 208 44 45 48
288 12 209 44 45 48
288 12 210 45 45 47
288 12 211 46 45 47
296 5 208 56 59 64
296 5 209 56 59 64
296 5 210 57 59 64
296 5 211 57 60 64
296 6 208 56 59 63
296 6 209 56 59 64
297 6 208 57 59 63
297 6 209 57 59 64
296 6 210 57 60 64
296 6 211 58 60 64
297 6 210 57 60 64
297 6 211 58 60 64
298 6 208 57 59 63
298 6 209 57 59 63
299 6 208 58 59 63
299 6 209 58 60 63
298 6 210 58 60 64
298 6 211 59 60 64
299 6 210 59 60 63
299 6 211 59 60 63
296 5 212 57 60 64
296 5 213 57 60 64
296 6 212 57 60 64
296 6 213 57 60 64
297 6 212 58 60 64
297 6 213 58 60 64
296 6 214 57 60 64
296 6 215 57 60 64
297 6 214 58 60 64
297 6 215 57 60 64
298 6 212 59 60 64
298 6 213 59 60 64
299 6 212 59 60 63
299 6 213 59 60 63
298 6 214 59 60 64
298 6 215 58 60 64
299 6 214 59 60 64
299 6 215 59 60 64
300 6 208 58 59 62
300 6 209 59 60 63
301 6 208 59 59 62
301 6 209 60 60 62
301 7 209 60 60 62
300 6 210 60 60 63
300 6 211 60 60 63
301 6 210 60 60 62
301 6 211 61 61 62
301 7 210 61 60 62
301 7 211 61 61 62
302 7 208 61 60 61
302 7 209 61 60 62
303 7 208 61 60 60
303 7 209 62 60 61
302 7 210 62 60 62
302 7 211 62 61 62
303 7 210 62 61 61
303 7 211 63 61 61
300 6 212 60 61 63
300 6 213 60 61 63
301 7 212 61 61 62
301 7 213 61 61 62
300 6 214 60 61 63
300 6 215 60 61 63
301 7 214 62 61 62
301 7 215 61 61 63
302 7 212 62 61 62
302 7 213 62 61 62
303 7 212 63 61 61
303 7 213 63 61 61
302 7 214 63 61 62
302 7 215 63 61 62
303 7 214 64 62 62
303 7 215 64 62 62
296 6 216 56 60 64
296 6 217 56 59 64
297 6 216 57 60 64
297 6 217 57 60 64
296 6 218 56 59 64
296 6 219 56 59 64
297 6 218 57 60 64
297 6 219 57 59 64
298 6 216 58 60 64
298 6 217 58 60 64
299 6 216 59 60 64
299 6 217 59 60 64
298 6 218 58 60 64
298 6 219 58 60 64
299 6 218 59 60 64
299 6 219 58 60 64
299 7 219 59 60 63
296 6 220 56 59 63
296 6 221 55 58 63
297 6 220 57 59 63
297 6 221 56 59 63
296 6 222 55 58 62
296 6 223 55 58 62
296 7 223 54 57 61
297 6 222 56 59 63
297 6 223 56 58 62
297 7 223 56 58 62
298 6 220 57 59 63
298 6 221 57 59 63
298 7 220 57 59 63
298 7 221 57 59 63
299 7 220 58 60 63
299 7 221 58 59 63
298 6 222 57 59 63
298 7 222 57 59 63
298 7 223 57 59 62
299 7 222 58 59 62
299 7 223 58 59 62
300 6 216 60 61 63
300 6 217 59 60 63
300 7 216 60 61 63
300 7 217 60 61 63
301 7 216 61 61 63
301 7 217 61 61 63
300 7 218 60 60 63
300 7 219 59 60 63
301 7 218 61 61 63
301 7 219 61 61 63
302 7 216 62 61 62
302 7 217 62 61 62
303 7 216 64 62 62
303 7 217 64 62 62
302 7 218 62 61 62
302 7 219 62 61 62
303 7 218 63 62 62
303 7 219 63 61 62
300 7 220 59 60 63
300 7 221 59 60 62
301 7 220 61 60 62
301 7 221 61 60 62
300 7 222 59 60 62
300 7 223 59 59 61
301 7 222 61 60 62
301 7 223 61 60 61
302 7 220 61 61 62
302 7 221 62 61 62
303 7 220 63 61 62
303 7 221 63 61 61
302 7 222 62 60 61
302 7 223 62 60 61
303 7 222 63 61 61
303 7 223 63 61 61
303 8 221 64 61 61
303 8 222 64 61 61
303 8 223 63 61 60
304 7 205 60 58 58
304 7 206 61 59 59
304 7 207 62 59 59
304 9 192 54 51 49
304 9 193 54 50 49
305 9 192 54 50 49
305 9 193 54 50 48
304 8 195 53 50 49
304 9 194 53 50 49
304 9 195 53 50 49
305 9 194 53 50 48
305 9 195 53 50 48
306 9 192 53 50 48
306 9 193 53 50 48
306 9 194 53 49 48
306 9 195 52 49 48
307 9 194 52 49 47
307 9 195 52 49 47
306 10 192 53 50 48
307 10 192 53 49 47
307 10 193 53 49 47
307 10 194 52 49 47
307 10 195 52 49 47
304 8 196 53 50 49
304 8 197 53 50 49
304 9 196 53 50 49
305 9 196 53 50 48
305 9 197 53 50 49
304 8 198 53 51 50
304 8 199 54 52 51
305 8 198 53 51 50
305 8 199 54 51 51
305 9 198 53 50 49
305 9 199 54 51 50
306 9 196 53 49 48
306 9 197 53 50 48
307 9 196 53 49 48
307 9 197 53 50 48
306 9 198 53 50 49
306 9 199 54 51 49
307 9 198 53 50 48
307 9 199 54 51 49
307 10 196 53 49 48
307 10 197 53 50 48
307 10 198 54 50 49
307 10 199 54 51 49
308 10 192 53 49 47
308 10 193 52 49 47
308 11 192 52 48 46
308 11 193 52 48 46
309 11 192 51 48 45
309 11 193 51 47 45
308 10 194 52 48 47
308 10 195 52 49 47
309 11 194 52 48 46
309 11 195 53 49 47
310 11 194 52 48 46
310 11 195 52 49 47
308 10 196 53 49 48
308 10 197 53 50 48
309 10 196 53 49 48
309 10 197 54 50 48
309 11 196 53 49 47
309 11 197 54 50 48
308 10 198 54 50 49
308 10 199 55 51 49
309 10 198 55 51 49
309 10 199 56 52 50
310 11 196 53 49 47
310 11 197 54 50 48
310 10 199 56 52 50
310 11 198 55 52 49
310 11 199 56 52 50
311 11 198 56 52 50
311 11 199 57 53 51
309 12 192 51 47 45
310 12 192 51 47 45
310 12 193 51 47 45
310 13 192 50 46 44
310 13 193 50 46 44
311 13 193 50 46 44
310 12 194 51 47 45
310 12 195 51 48 45
311 12 194 51 47 45
311 12 195 51 48 45
311 13 194 50 46 44
311 13 195 51 47 45
310 14 192 50 46 44
311 14 192 49 45 43
311 14 193 49 45 43
311 15 192 49 45 43
311 15 193 48 44 42
311 14 194 49 45 43
311 15 194 48 44 42
310 12 196 53 49 47
310 12 197 54 50 48
311 12 196 53 49 47
311 12 197 55 51 48
311 13 196 53 49 47
311 13 197 54 50 48
311 12 198 56 52 50
311 12 199 58 54 51
304 8 200 55 53 52
304 8 201 55 53 53
305 8 200 55 52 51
305 8 201 56 53 53
304 8 202 56 55 55
304 8 203 58 56 56
305 8 202 57 55 54
305 8 203 58 56 55
306 8 201 57 54 53
306 9 200 55 52 50
306 9 201 56 53 52
307 9 200 55 52 50
307 9 201 57 53 52
306 8 202 58 55 54
306 8 203 59 56 55
306 9 202 57 55 54
307 8 203 59 56 55
307 9 202 58 55 54
307 9 203 59 56 54
304 8 204 59 57 57
304 8 205 60 58 58
305 8 204 59 57 56
305 8 205 60 58 58
305 8 206 62 59 59
305 8 207 62 60 59
306 8 204 60 57 56
306 8 205 61 58 57
307 8 204 60 57 56
307 8 205 62 58 57
307 9 204 61 57 56
307 9 205 62 58 56
306 8 206 62 59 58
306 8 207 63 60 59
307 8 206 63 59 58
307 8 207 64 60 58
307 9 206 63 59 57
308 9 201 57 53 51
308 9 202 59 55 53
308 9 203 60 56 55
308 10 200 56 52 50
308 10 201 57 53 51
309 10 200 57 53 50
309 10 201 58 54 51
309 10 202 59 55 53
309 10 203 61 57 54
310 10 200 57 53 51
310 10 201 59 55 52
310 11 200 58 53 51
310 11 201 59 54 52
311 11 200 59 54 52
311 11 201 60 55 52
310 10 202 60 56 53
310 10 203 61 57 54
311 10 203 62 57 54
311 11 202 61 56 53
311 11 203 62 57 54
308 9 204 61 57 55
308 9 205 63 58 56
309 9 204 62 58 55
309 9 205 63 59 56
308 9 206 64 59 57
308 9 207 64 60 58
309 9 206 64 60 57
309 9 207 65 60 57
309 10 204 62 58 55
310 9 206 65 60 57
310 9 207 66 60 57
310 10 204 63 58 55
310 10 205 64 59 56
311 10 204 63 58 55
311 10 205 65 60 56
311 11 204 64 59 56
310 10 206 65 60 57
310 10 207 66 61 57
311 10 206 66 60 57
311 10 207 66 61 57
312 15 193 48 44 42
312 14 194 49 45 43
312 14 195 50 46 44
312 15 194 48 44 42
312 15 195 49 45 43
312 13 196 53 49 47
312 13 197 55 51 48
312 12 198 57 53 50
312 12 199 59 54 52
312 13 198 57 53 51
313 13 198 58 54 51
313 13 199 59 55 53
312 14 196 51 48 46
312 14 197 54 50 47
312 15 196 50 46 44
313 14 197 54 51 48
313 15 196 50 46 44
313 15 197 53 49 47
313 14 198 57 53 51
313 14 199 59 55 53
313 15 198 56 52 51
314 14 199 60 55 53
314 15 198 58 54 52
314 15 199 59 55 53
312 11 201 61 56 53
312 11 202 62 57 54
312 11 203 63 58 55
313 11 203 64 59 56
312 10 205 66 60 57
312 11 204 65 59 56
312 11 205 66 60 57
313 11 204 65 60 56
313 11 205 66 60 57
312 10 206 66 61 57
312 10 207 67 61 57
312 11 206 67 61 57
313 11 206 67 61 57
313 11 207 67 61 57
314 11 206 67 61 57
314 11 207 68 62 57
312 12 200 59 55 52
312 12 201 61 56 54
313 12 200 60 56 53
313 12 201 62 57 54
313 13 200 60 56 54
313 13 201 62 57 54
312 12 202 62 57 54
313 12 202 63 58 55
313 12 203 64 59 55
314 13 201 63 58 55
314 12 203 65 60 57
314 13 202 64 59 56
314 13 203 66 61 57
315 13 203 67 61 58
314 14 200 61 57 54
314 14 201 63 58 56
314 15 200 62 57 55
314 15 201 63 59 56
315 15 201 64 59 57
314 14 202 65 60 57
315 14 202 65 60 57
315 14 203 67 61 58
315 15 202 65 60 58
315 15 203 67 62 59
313 12 204 66 60 57
314 12 204 66 61 57
314 12 205 67 61 57
314 13 204 67 61 58
314 13 205 67 62 58
315 12 205 68 62 58
315 13 204 67 62 58
315 13 205 68 62 58
314 12 206 68 62 57
314 12 207 68 62 57
315 12 206 68 62 58
315 12 207 68 62 57
315 13 206 69 62 58
315 13 207 69 62 58
315 14 204 68 62 59
315 14 205 69 63 59
315 15 204 68 63 60
316 15 203 67 62 60
316 13 207 69 62 58
316 14 205 69 63 59
316 15 204 68 63 60
316 15 205 69 64 60
316 14 206 69 63 58
316 14 207 69 62 58
316 15 206 69 63 59
316 15 207 69 62 58
317 15 207 69 62 57
304 7 208 62 60 60
304 7 209 63 60 60
305 7 208 63 60 59
305 7 209 64 61 60
304 7 210 63 61 60
304 7 211 64 61 61
305 7 210 64 61 60
305 7 211 64 61 60
304 7 212 64 61 61
304 7 213 65 62 61
305 7 212 65 62 60
305 7 213 65 62 61
304 7 214 65 62 61
304 7 215 65 62 61
305 7 214 66 62 61
305 7 215 66 62 61
306 7 214 66 62 60
306 7 215 66 62 60
304 7 216 65 62 61
304 7 217 65 62 61
305 7 216 65 62 61
304 7 218 65 62 61
304 7 219 64 62 61
305 8 208 63 60 59
305 8 209 64 61 59
305 8 210 64 61 60
305 8 211 65 61 60
306 8 208 64 60 59
306 8 209 65 61 59
307 8 208 65 60 59
307 8 209 65 61 59
306 8 210 65 61 59
306 8 211 65 61 60
307 8 210 66 61 59
307 8 211 66 62 59
305 8 212 65 61 60
306 8 212 66 62 60
306 8 213 66 62 60
307 8 212 66 62 59
307 8 213 67 62 60
306 8 214 67 62 60
306 8 215 67 62 60
307 8 214 67 63 60
307 8 215 68 63 60
308 8 209 66 61 58
308 9 208 65 61 58
308 9 209 66 61 58
309 9 208 66 61 58
309 9 209 66 61 58
308 8 210 66 61 59
308 8 211 67 62 59
308 9 210 66 61 58
309 9 210 67 62 58
309 9 211 67 62 58
310 9 208 66 61 57
310 9 209 67 61 58
311 9 209 68 62 58
310 9 210 68 62 58
310 9 211 68 62 58
311 9 210 68 62 58
311 9 211 69 62 58
311 10 208 67 61 57
311 10 209 68 62 58
311 10 210 68 62 58
311 10 211 69 62 58
308 8 212 67 62 59
308 8 213 68 62 59
309 8 212 68 63 59
309 8 213 69 63 59
309 9 212 68 62 59
309 9 213 69 63 59
308 8 214 68 63 59
308 8 215 69 63 59
309 8 214 69 63 59
309 8 215 69 63 59
309 9 214 69 63 59
309 9 215 69 63 59
310 9 212 69 63 58
310 9 213 69 63 59
311 9 212 69 63 58
311 9 213 70 63 58
310 9 214 69 63 58
310 9 215 69 63 59
311 9 214 70 63 58
311 9 215 70 63 58
311 10 212 69 63 58
305 8 216 66 62 61
305 8 217 66 62 61
304 8 219 65 62 61
305 8 218 66 62 61
305 8 219 66 62 61
306 8 216 67 62 60
306 8 217 67 62 60
307 8 216 68 63 59
307 8 217 68 63 59
306 8 218 67 62 60
306 8 219 67 62 60
307 8 218 68 63 59
307 8 219 68 63 59
304 8 220 65 62 61
304 8 221 65 61 61
305 8 220 66 62 60
305 8 221 65 62 60
304 8 222 64 61 60
304 8 223 64 61 59
305 8 222 65 61 60
305 8 223 65 61 59
306 8 220 67 62 60
306 8 221 66 62 60
307 8 220 68 62 59
307 8 221 67 62 59
306 8 222 66 61 59
306 8 223 65 61 58
307 8 222 67 61 59
307 8 223 66 61 58
308 8 216 69 63 59
308 8 217 69 63 59
309 8 216 69 63 59
309 8 217 69 63 59
309 9 216 69 63 59
308 8 218 69 63 59
308 8 219 68 63 59
309 8 218 69 63 59
309 8 219 69 63 59
309 9 219 69 62 58
310 9 216 69 63 58
310 9 217 69 63 58
311 9 216 70 63 58
311 9 217 70 63 58
310 9 218 69 63 58
310 9 219 69 62 58
311 9 218 69 62 58
311 9 219 69 62 57
308 8 220 68 62 59
308 8 221 68 62 58
309 9 220 68 62 58
309 9 221 68 62 57
308 8 222 67 61 57
308 8 223 66 60 56
308 9 223 66 60 56
309 9 222 67 61 56
309 9 223 66 60 55
310 9 220 68 62 57
310 9 221 68 61 56
311 9 220 68 61 56
311 9 221 67 60 55
310 9 222 67 60 55
310 9 223 66 59 55
311 9 222 67 60 55
311 9 223 66 59 54
312 10 208 68 62 57
312 10 209 68 62 58
313 10 208 68 62 57
313 10 209 69 62 58
313 11 208 68 62 57
313 11 209 69 62 57
312 10 210 69 62 58
312 10 211 69 63 58
313 10 210 69 63 58
313 10 211 70 63 58
314 11 208 69 62 57
314 11 209 69 62 57
315 11 208 69 62 57
315 11 209 69 63 58
314 11 210 69 63 58
314 11 211 70 63 58
315 11 210 70 63 58
315 11 211 70 63 58
312 10 212 70 63 58
312 10 213 70 63 58
313 10 212 70 63 58
313 10 213 70 63 58
312 10 214 70 63 58
312 10 215 70 63 58
313 10 214 70 63 58
313 10 215 70 63 57
314 10 212 70 63 58
314 10 213 70 63 58
314 11 212 70 63 58
314 11 213 70 63 58
315 11 212 70 63 58
315 11 213 70 63 57
314 10 214 70 63 57
314 10 215 70 62 57
315 11 214 70 62 57
315 11 215 70 62 57
315 12 208 69 62 57
315 12 209 69 62 57
315 12 210 70 63 57
315 12 211 70 63 57
316 11 213 70 63 57
316 11 214 70 62 57
316 11 215 69 62 56
316 12 209 70 62 57
316 13 208 69 62 57
316 13 209 69 62 57
317 13 209 69 62 57
316 12 210 70 63 57
316 12 211 70 63 57
316 13 210 70 63 57
317 13 210 70 62 57
317 13 211 70 63 57
316 14 208 69 62 57
316 14 209 69 62 56
317 14 208 69 62 56
317 14 209 69 62 56
317 15 208 69 62 56
317 15 209 69 61 56
317 14 210 70 62 57
317 14 211 70 63 57
317 15 210 69 62 56
318 14 211 70 63 57
318 15 210 70 62 56
318 15 211 70 63 57
316 12 212 70 63 57
316 12 213 70 63 57
317 12 212 70 63 57
317 12 213 70 63 57
317 13 212 70 63 57
317 13 213 70 63 57
316 12 214 70 62 57
317 12 214 70 62 57
317 12 215 69 62 56
317 14 212 71 63 57
318 13 212 71 63 57
318 13 213 70 63 57
318 12 215 69 62 56
318 13 214 70 62 57
318 13 215 69 61 56
318 14 212 71 63 58
318 14 213 71 63 58
318 15 212 71 64 58
318 15 213 72 64 59
318 14 214 70 63 57
318 15 214 71 64 58
319 14 214 70 63 57
319 14 215 69 62 56
319 15 214 71 64 58
319 15 215 70 62 57
312 9 216 70 63 58
312 9 217 70 62 57
312 9 218 69 62 57
312 9 219 69 61 56
312 10 216 70 63 58
312 10 217 69 62 57
313 10 216 70 62 57
313 10 217 69 62 57
312 10 218 69 62 57
313 10 218 69 62 56
313 10 219 68 61 56
314 10 216 70 62 57
314 10 217 69 62 56
315 10 216 69 62 56
315 10 217 69 61 56
315 11 216 69 62 56
315 11 217 68 61 55
314 10 218 69 61 56
314 10 219 68 61 55
315 10 218 68 61 55
315 10 219 68 60 55
315 11 218 68 61 55
315 11 219 67 60 54
312 9 220 68 61 56
312 9 221 67 60 55
312 9 222 66 59 54
312 9 223 65 58 52
313 9 223 65 57 52
313 10 220 68 60 55
313 10 221 67 59 54
313 10 222 66 58 53
313 10 223 64 57 51
314 10 220 67 60 54
314 10 221 66 59 53
315 10 220 67 60 54
315 10 221 65 58 52
315 11 220 66 58 53
314 10 222 65 58 52
314 10 223 64 57 51
315 10 222 65 57 51
315 10 223 64 56 50
316 11 216 69 61 56
316 11 217 68 61 55
317 11 216 68 61 55
317 11 217 68 60 54
316 11 218 67 60 54
316 11 219 67 59 54
317 11 218 67 59 54
317 11 219 66 58 52
318 11 219 65 58 52
316 11 220 66 58 52
316 11 221 65 57 51
317 11 220 65 57 51
317 11 221 64 56 50
316 10 222 64 56 50
316 10 223 63 56 49
316 11 222 64 56 50
316 11 223 63 55 49
317 11 222 63 56 50
317 11 223 63 55 49
318 11 220 64 56 50
318 11 221 63 56 50
318 11 222 63 55 49
318 11 223 62 55 48
319 11 223 62 54 48
317 12 216 69 61 55
317 12 217 68 60 54
318 12 216 68 60 55
318 12 217 67 59 54
318 13 216 68 61 55
319 13 216 67 60 54
319 13 217 66 58 53
318 12 218 66 58 52
318 12 219 64 57 51
319 12 218 65 57 51
319 12 219 63 56 50
319 13 218 64 57 51
319 13 219 63 56 50
319 14 216 67 60 54
319 14 217 65 58 52
319 15 216 68 61 55
318 12 220 64 56 50
318 12 221 63 55 49
319 12 220 63 55 49
319 12 221 63 55 49
319 12 222 62 55 48
319 12 223 62 54 48
311 16 192 47 44 42
312 16 192 49 44 40
312 16 193 49 44 41
312 17 192 55 50 46
312 17 193 58 52 48
312 16 194 50 45 43
312 16 195 49 45 42
312 17 194 57 52 48
313 16 194 54 49 46
313 16 195 53 49 46
313 17 194 61 56 53
313 17 195 63 57 54
312 18 192 65 59 56
312 18 193 65 59 55
312 19 192 70 65 61
313 18 193 68 61 58
313 19 192 71 65 61
313 19 193 71 64 60
313 18 194 68 62 58
313 18 195 68 63 59
313 19 194 69 63 59
313 19 195 69 63 59
314 19 195 68 62 58
313 16 196 54 50 48
313 16 197 57 52 50
313 17 196 64 59 56
313 17 197 65 60 57
313 18 196 67 62 59
314 17 197 66 61 58
314 16 198 61 57 55
314 16 199 64 59 57
314 17 198 67 62 59
314 17 199 68 63 61
314 18 196 68 62 59
314 18 197 68 62 59
314 19 196 67 61 58
314 19 197 65 60 56
314 18 198 68 63 60
314 18 199 68 63 60
314 19 198 65 60 56
315 18 199 68 63 61
315 19 198 64 58 55
315 19 199 65 60 57
313 20 192 70 63 59
313 20 193 69 62 58
313 21 192 68 62 58
313 21 193 68 62 58
313 20 194 68 62 58
313 22 192 64 59 56
313 22 193 66 61 57
313 23 192 56 52 49
314 21 193 67 62 58
314 20 194 67 61 57
314 20 195 66 61 57
314 21 194 66 61 57
314 21 195 64 59 57
314 22 193 63 58 55
314 23 192 52 48 45
314 23 193 54 49 46
314 22 194 62 57 54
314 22 195 60 56 54
314 23 194 53 49 46
314 23 195 54 51 49
315 23 195 50 46 43
314 20 196 65 59 56
314 20 197 64 58 55
314 21 196 63 58 56
314 21 197 63 58 56
315 21 197 61 56 54
314 20 198 63 58 54
315 20 198 63 58 54
315 20 199 62 57 54
315 21 198 59 55 53
315 21 199 57 53 50
314 22 196 60 56 54
315 22 196 56 52 50
315 22 197 55 51 49
315 23 196 49 45 42
315 23 197 47 43 41
315 22 198 52 48 46
315 22 199 52 48 46
315 23 198 47 44 41
316 22 199 48 44 42
316 23 198 46 42 40
316 23 199 46 42 40
314 16 200 65 61 58
315 16 200 66 61 59
315 16 201 67 62 60
315 17 200 69 64 62
315 17 201 69 64 61
315 16 202 67 62 60
315 17 202 69 64 61
315 18 200 68 63 60
315 18 201 67 62 59
315 19 200 66 60 57
315 19 201 65 60 57
315 20 200 62 57 54
315 21 200 59 54 51
316 16 203 67 63 61
316 17 202 69 64 61
316 17 203 68 63 60
316 19 201 64 58 55
316 18 202 67 62 59
316 18 203 66 61 58
316 19 202 64 59 56
316 19 203 64 59 56
317 19 203 62 57 55
316 16 204 69 64 61
316 16 205 69 64 61
316 17 204 67 63 60
316 17 205 68 63 60
317 16 205 70 65 61
317 17 205 69 63 60
316 16 206 70 64 60
317 16 206 70 63 59
317 16 207 69 62 57
317 17 206 69 63 59
317 17 207 68 62 58
316 18 204 65 60 57
316 19 204 63 58 56
317 18 204 64 59 56
317 18 205 64 60 57
317 19 204 62 57 55
317 19 205 61 57 55
317 18 206 65 60 57
317 18 207 67 61 57
317 19 206 61 57 55
318 18 207 65 60 56
318 19 206 59 55 53
318 19 207 60 56 54
316 20 201 61 56 53
316 21 200 56 51 48
316 21 201 55 51 49
316 20 202 59 54 52
316 20 203 60 56 53
316 21 202 52 49 47
317 20 203 57 53 51
317 21 202 50 46 44
317 21 203 51 47 45
316 22 200 48 44 42
316 22 201 48 45 42
316 23 200 45 41 39
316 23 201 46 42 39
317 22 201 47 43 40
317 23 200 46 42 39
317 23 201 46 42 39
317 22 202 47 43 41
317 22 203 47 43 40
317 23 202 46 42 39
317 23 203 46 42 39
318 23 203 48 43 40
317 20 204 57 53 51
317 20 205 55 52 50
317 21 204 50 46 44
317 21 205 49 46 43
317 22 204 47 43 40
318 20 205 53 50 48
318 21 205 48 44 41
318 20 206 53 49 47
318 20 207 52 47 44
318 21 206 48 43 40
318 21 207 47 43 39
318 22 204 46 42 39
318 22 205 47 42 39
318 23 204 49 44 40
318 23 205 50 45 42
319 23 205 54 48 44
318 22 206 48 43 40
318 22 207 49 43 39
319 22 206 50 45 41
319 22 207 51 46 42
319 23 206 54 48 44
319 23 207 57 51 47
314 24 192 50 46 43
314 24 193 50 45 42
314 25 192 53 49 47
314 25 193 52 48 45
314 24 194 49 45 41
314 25 194 52 48 45
315 24 194 49 45 41
315 24 195 49 44 42
315 25 194 52 48 45
315 25 195 52 48 45
314 26 192 56 52 51
314 26 193 56 52 50
314 27 192 58 54 51
314 27 193 59 54 51
315 27 193 59 54 51
315 26 194 56 52 49
315 26 195 56 51 48
315 27 194 59 54 51
315 24 196 47 43 40
315 24 197 46 42 39
315 25 196 50 46 43
314 28 192 60 55 52
314 29 192 63 57 53
315 28 193 60 55 52
315 29 192 63 57 53
315 29 193 63 58 54
315 28 194 60 55 51
315 29 194 62 56 53
314 30 192 65 58 53
315 30 192 67 60 55
315 30 193 67 60 56
315 31 192 69 62 56
315 31 193 70 62 56
315 30 194 65 59 54
316 26 195 57 53 50
316 27 195 59 54 51
316 24 197 47 43 40
316 25 196 51 47 45
316 25 197 51 47 44
316 24 198 47 43 41
316 24 199 47 44 41
316 25 198 50 46 44
317 24 199 48 44 42
317 25 198 52 48 46
317 25 199 52 48 47
316 26 196 57 53 50
316 26 197 57 52 50
316 27 196 59 54 51
316 27 197 59 54 51
317 27 197 59 54 51
316 26 198 55 51 48
317 26 198 57 52 49
317 26 199 57 52 49
317 27 198 60 55 51
317 27 199 61 55 51
318 27 199 62 56 52
316 28 194 61 55 52
316 28 195 61 56 52
316 29 194 63 58 54
316 29 195 64 58 53
316 31 193 71 63 57
316 30 194 66 60 55
316 30 195 66 59 54
316 31 194 70 62 56
316 31 195 69 62 55
317 30 195 67 60 54
317 31 195 69 61 55
316 28 196 61 55 52
316 29 196 65 58 53
317 28 196 62 56 52
317 28 197 62 56 52
317 29 196 65 58 53
317 29 197 65 58 53
317 28 198 62 56 52
317 29 198 64 57 52
317 30 196 68 60 54
317 30 197 68 60 54
317 31 196 70 62 55
317 31 197 71 62 55
317 30 198 67 59 52
318 28 198 63 57 53
318 28 199 64 57 53
318 29 198 65 58 53
318 29 199 67 59 54
318 31 197 72 63 55
318 30 198 69 61 53
318 30 199 72 62 55
318 31 198 73 64 56
318 31 199 75 65 56
317 24 200 48 44 42
317 24 201 49 45 42
317 25 200 53 49 46
317 25 201 54 49 46
317 24 202 48 44 41
317 26 200 57 53 49
318 25 201 56 51 48
318 24 202 51 46 43
318 24 203 52 48 44
318 25 202 57 51 48
318 25 203 59 53 49
318 26 200 60 54 50
318 26 201 60 54 50
318 27 200 62 56 51
318 27 201 64 57 52
318 26 202 62 55 50
318 26 203 62 56 51
318 27 202 66 59 53
319 26 203 64 56 51
319 27 202 68 59 53
319 27 203 69 60 53
318 24 204 55 49 45
318 24 205 53 48 44
318 25 204 59 53 49
319 24 205 57 52 48
319 25 204 60 54 50
319 25 205 62 55 50
319 24 206 59 53 49
319 24 207 61 54 50
319 25 206 62 55 50
319 25 207 63 56 51
319 26 204 65 57 51
319 26 205 66 58 51
319 27 204 69 61 54
319 27 205 70 61 54
319 26 206 65 57 51
318 28 200 65 58 52
318 28 201 68 60 54
318 29 200 70 62 55
318 29 201 72 64 57
319 28 202 71 61 54
319 28 203 72 63 55
319 29 202 74 64 56
319 29 203 75 65 56
318 30 200 74 64 56
318 30 201 74 65 57
318 31 200 77 66 56
319 30 201 77 66 58
319 31 200 78 67 57
319 31 201 79 68 58
319 30 202 77 67 58
319 30 203 79 67 58
319 31 202 80 68 58
319 31 203 81 69 58
319 28 204 73 64 55
319 28 205 73 63 55
319 29 204 76 65 56
319 30 204 78 66 56
317 16 208 68 61 56
317 16 209 68 61 56
318 16 208 69 62 57
318 16 209 68 61 56
318 17 208 68 62 57
318 17 209 68 62 57
318 16 210 69 62 56
318 16 211 70 63 57
318 17 210 69 63 58
318 17 211 69 62 58
318 18 208 66 61 57
318 18 209 66 61 57
318 19 208 59 55 52
318 19 209 57 51 47
318 18 210 65 60 56
318 18 211 64 59 55
318 19 210 57 52 48
319 18 211 60 54 51
319 19 210 50 44 40
319 19 211 51 45 41
318 16 212 72 64 59
318 16 213 72 65 59
318 17 212 69 62 58
319 16 212 72 65 60
319 16 213 72 65 60
319 17 212 69 62 58
319 17 213 68 61 57
319 16 214 72 65 60
319 16 215 71 63 58
319 17 214 68 61 56
319 17 215 66 59 53
319 18 212 59 54 50
319 18 213 55 50 46
319 19 212 48 43 39
319 19 213 47 42 38
319 18 214 54 48 44
319 19 214 47 42 38
318 20 208 50 45 42
318 20 209 48 43 39
318 21 208 47 42 37
319 20 209 47 41 36
319 21 208 47 42 38
319 21 209 48 43 38
319 20 210 47 42 36
319 20 211 48 43 38
319 21 210 50 44 39
319 21 211 52 46 42
319 22 208 51 45 41
319 22 209 53 47 43
319 23 208 58 52 48
319 23 209 59 53 48
319 22 210 56 50 46
319 22 211 56 51 46
319 23 210 58 52 48
319 20 212 48 43 38
319 20 213 45 40 36
319 21 212 51 46 41
319 16 216 68 61 55
319 24 208 62 55 51
288 7 224 50 53 57
288 7 225 50 52 56
289 7 224 50 53 58
289 7 225 50 53 57
288 7 226 49 52 55
289 7 226 50 52 55
289 7 227 50 51 55
290 7 224 51 54 58
290 7 225 50 53 57
291 7 224 51 54 58
291 7 225 50 53 57
290 7 226 50 52 56
290 7 227 50 52 55
291 7 226 50 53 56
291 7 227 50 52 55
289 7 228 50 51 54
289 7 229 50 51 54
290 7 228 50 51 54
290 7 229 50 51 54
291 7 228 50 51 54
291 7 229 50 51 54
292 7 224 51 55 59
292 7 225 51 54 58
293 7 224 52 55 59
293 7 225 52 54 59
292 7 226 51 53 57
292 7 227 50 52 56
293 7 226 51 54 58
293 7 227 51 53 57
294 7 224 52 55 60
294 7 225 52 55 59
295 7 224 53 56 60
295 7 225 53 55 59
294 7 226 52 54 58
294 7 227 52 54 57
295 7 226 53 55 59
295 7 227 52 54 57
292 7 228 50 52 54
292 7 229 50 51 54
293 7 228 51 52 55
293 7 229 51 52 55
294 7 228 52 53 56
294 7 229 52 52 55
295 7 228 52 53 56
295 7 229 52 53 55
288 8 226 49 51 55
288 8 227 49 51 54
288 8 228 50 51 53
288 8 229 50 51 53
289 8 228 50 51 54
289 8 229 50 51 53
288 8 230 51 51 52
288 8 231 53 52 52
289 8 230 51 51 53
289 8 231 52 51 52
290 8 229 50 51 53
290 8 230 51 51 53
290 8 231 52 51 52
291 8 230 51 51 53
291 8 231 52 51 52
292 8 229 51 51 54
293 8 229 51 52 54
292 8 230 51 51 53
292 8 231 52 51 52
293 8 230 51 51 53
293 8 231 52 51 52
295 8 229 52 52 54
294 8 230 52 52 54
294 8 231 52 51 53
295 8 230 52 52 54
295 8 231 52 52 53
288 8 232 55 52 52
288 8 233 56 53 52
288 9 232 55 52 52
288 9 233 56 53 52
289 8 232 54 52 52
289 8 233 55 52 52
288 9 234 58 54 52
288 9 235 59 54 52
289 8 234 56 53 52
289 8 235 57 53 52
289 9 234 57 53 52
289 9 235 58 54 52
290 8 232 53 51 52
290 8 233 55 52 52
291 8 232 53 51 52
291 8 233 54 52 51
290 8 234 56 53 51
290 8 235 57 53 51
291 8 234 55 52 51
291 8 235 56 53 51
288 9 236 61 55 52
288 9 237 62 56 52
289 9 236 59 54 52
289 9 237 61 55 52
288 9 238 62 56 52
289 9 238 62 56 52
289 9 239 63 57 52
288 10 238 62 56 52
288 10 239 63 57 52
290 8 236 57 53 51
290 9 236 58 54 52
290 9 237 60 55 52
291 8 236 57 53 51
291 8 237 58 54 52
291 9 237 60 55 52
290 9 238 62 56 52
290 9 239 62 56 52
291 9 238 61 55 52
291 9 239 62 56 52
292 8 232 53 51 52
292 8 233 54 52 51
293 8 232 53 51 52
293 8 233 54 52 52
292 8 234 55 52 51
292 8 235 56 53 51
293 8 234 55 52 51
293 8 235 56 53 51
294 8 232 53 51 52
294 8 233 54 52 52
295 8 232 53 52 52
295 8 233 54 52 52
294 8 234 55 52 51
294 8 235 56 53 51
295 8 234 56 53 52
295 8 235 57 53 51
292 8 236 57 53 51
292 8 237 59 54 52
293 8 236 57 53 51
293 8 237 58 54 52
292 8 238 60 55 52
292 9 238 60 55 52
292 9 239 62 56 52
293 8 238 60 55 52
293 9 239 61 56 52
294 8 236 57 53 51
294 8 237 58 54 51
295 8 236 58 53 51
295 8 237 59 54 51
294 8 238 60 55 51
294 9 239 61 55 52
295 8 238 60 55 51
295 8 239 60 55 52
295 9 239 61 55 52
296 7 224 54 57 61
296 7 225 54 56 60
297 7 224 55 57 61
297 7 225 55 56 60
296 7 226 53 55 59
296 7 227 53 54 57
297 7 226 55 56 59
297 7 227 54 55 57
298 7 224 56 58 61
298 7 225 56 57 60
299 7 224 58 58 61
299 7 225 57 58 60
298 7 226 56 56 59
298 7 227 55 56 57
299 7 226 57 57 59
299 7 227 56 56 58
296 7 228 53 53 56
297 7 228 54 54 56
300 7 224 60 59 60
300 7 225 59 58 60
301 7 224 60 59 60
301 7 225 60 59 60
300 7 226 58 58 59
302 7 224 61 60 60
299 8 227 56 56 57
296 8 229 53 53 55
297 8 228 54 54 56
297 8 229 54 53 55
296 8 230 53 52 54
296 8 231 53 52 53
297 8 230 54 53 54
297 8 231 54 53 53
298 8 228 55 55 56
298 8 229 54 54 55
299 8 228 56 55 56
299 8 229 55 54 55
298 8 230 55 53 54
298 8 231 55 53 53
299 8 230 55 54 54
299 8 231 56 54 53
301 8 225 60 59 59
300 8 226 59 57 59
300 8 227 57 56 57
301 8 226 60 58 59
301 8 227 59 57 57
302 8 224 62 60 60
302 8 225 61 59 59
303 8 224 63 60 59
303 8 225 62 59 58
302 8 226 60 58 57
302 8 227 60 57 57
303 8 226 61 58 57
303 8 227 61 57 56
300 8 228 56 55 56
300 8 229 57 55 55
301 8 228 58 56 56
301 8 229 58 56 55
300 8 230 57 54 54
300 8 231 57 54 53
301 8 230 58 55 54
301 8 231 58 54 53
302 8 228 59 56 56
302 8 229 59 56 55
303 8 228 60 57 55
303 8 229 60 56 54
302 8 230 59 55 54
302 8 231 59 55 53
303 8 230 59 55 53
303 8 231 59 55 52
296 8 232 54 52 53
296 8 233 55 52 52
297 8 232 55 53 53
297 8 233 56 53 52
296 8 234 56 53 52
296 8 235 57 53 51
297 8 234 57 53 52
297 8 235 58 53 51
298 8 232 56 53 53
298 8 233 57 53 52
299 8 232 57 54 53
299 8 233 57 53 52
298 8 234 57 53 52
298 8 235 58 54 51
299 8 234 58 54 51
299 8 235 58 54 51
296 8 236 58 54 51
296 8 237 59 54 51
297 8 236 58 54 51
297 8 237 59 54 51
297 9 237 60 54 51
296 8 238 60 54 51
296 9 238 60 55 51
296 9 239 61 55 51
297 9 238 60 55 51
297 9 239 61 55 51
298 8 236 59 54 51
298 9 237 59 54 51
299 8 236 59 54 51
299 9 236 59 54 51
299 9 237 60 54 51
298 9 238 60 55 51
298 9 239 61 55 51
299 9 238 61 55 51
299 9 239 61 55 51
300 8 232 57 54 52
300 8 233 58 54 52
301 8 232 58 54 52
301 8 233 58 54 52
300 8 234 58 54 51
300 8 235 59 54 51
300 9 235 59 54 51
301 8 234 59 54 51
301 9 235 59 54 51
302 8 232 59 54 52
302 8 233 59 54 52
303 8 232 59 54 52
303 8 233 59 54 51
303 9 233 59 54 51
302 8 234 59 54 51
302 9 234 59 54 51
302 9 235 59 54 51
303 9 234 59 54 51
303 9 235 60 54 50
300 9 236 59 54 51
300 9 237 60 54 51
301 9 236 60 54 51
301 9 237 60 54 51
300 9 238 61 55 51
300 9 239 62 55 51
301 9 238 61 55 51
301 9 239 62 55 51
302 9 236 60 54 50
302 9 237 61 54 50
303 9 236 60 54 50
303 9 237 61 55 50
302 9 238 61 55 50
302 9 239 62 55 51
303 9 238 62 55 50
303 9 239 62 55 50
289 9 240 63 57 52
288 10 240 63 57 52
288 10 241 64 57 53
289 10 240 64 57 53
289 10 241 64 57 53
288 10 242 64 57 53
288 10 243 65 57 53
289 10 242 64 57 53
289 10 243 64 57 53
290 9 240 63 57 53
290 9 241 64 57 53
291 9 240 63 57 52
291 9 241 64 57 53
290 10 241 64 57 53
291 10 241 64 57 53
290 10 242 64 57 53
290 10 243 65 57 53
291 10 242 64 57 53
291 10 243 64 57 53
288 10 244 65 57 52
288 10 245 65 57 52
288 11 245 65 57 52
289 10 244 65 57 52
289 10 245 65 57 52
288 11 246 65 57 52
288 11 247 64 57 52
289 10 246 65 57 52
289 11 246 64 57 52
289 11 247 64 57 52
290 10 244 65 57 52
290 10 245 65 57 52
291 10 244 65 58 52
291 10 245 65 57 52
290 10 246 65 57 52
290 10 247 64 57 52
290 11 247 64 57 52
291 10 246 65 57 52
291 10 247 65 57 52
292 9 240 63 56 52
292 9 241 63 57 52
293 9 240 62 56 52
293 9 241 63 57 52
292 9 242 64 57 52
292 9 243 64 57 52
293 9 242 64 57 52
293 9 243 64 57 52
292 10 242 64 57 52
292 10 243 64 57 52
293 10 243 64 57 52
294 9 240 62 56 52
294 9 241 63 56 52
295 9 240 62 56 52
295 9 241 62 56 52
294 9 242 64 57 52
294 9 243 64 57 52
295 9 242 63 57 52
295 9 243 64 57 52
292 10 244 64 57 52
292 10 245 65 57 52
293 10 244 64 57 52
293 10 245 65 57 52
292 10 246 65 57 52
292 10 247 65 57 52
293 10 246 65 57 52
293 10 247 65 57 52
294 9 244 64 57 52
295 9 244 64 57 52
295 9 245 64 57 52
294 10 244 64 57 52
294 10 245 64 57 52
295 10 245 64 57 52
294 10 246 65 57 52
294 10 247 65 57 52
295 10 246 64 57 52
295 10 247 65 57 52
288 11 248 64 57 51
288 11 249 64 56 51
289 11 248 64 57 51
289 11 249 64 56 51
288 11 250 63 56 50
288 11 251 63 55 50
289 11 250 63 56 50
289 11 251 63 56 50
290 11 248 64 57 52
290 11 249 64 56 51
291 10 248 64 57 52
291 11 248 64 57 52
291 11 249 64 57 51
290 11 250 63 56 51
290 11 251 63 56 50
291 11 250 64 56 51
291 11 251 63 56 50
288 11 252 63 55 49
288 11 253 63 55 49
289 11 252 63 55 49
289 11 253 63 55 49
288 11 254 62 55 49
288 11 255 63 55 48
289 11 254 63 55 49
289 11 255 63 55 49
290 11 252 63 55 50
290 11 253 63 55 49
291 11 252 63 56 50
291 11 253 63 55 50
290 11 254 63 55 49
290 11 255 63 55 49
291 11 254 63 55 49
291 11 255 63 55 49
288 12 253 62 55 49
288 12 254 62 55 49
288 12 255 62 55 48
292 10 248 64 57 52
292 10 249 64 57 51
293 10 248 64 57 52
293 10 249 64 57 52
292 10 250 64 57 51
292 11 250 64 56 51
292 11 251 64 56 51
293 10 250 64 57 51
293 10 251 64 57 51
293 11 251 64 56 51
294 10 248 65 57 52
294 10 249 64 57 52
295 10 248 65 57 52
295 10 249 64 57 52
294 10 250 64 57 52
294 10 251 64 57 51
295 10 250 64 57 52
295 10 251 64 57 51
292 11 252 63 56 50
292 11 253 63 56 50
293 10 252 64 56 51
293 11 252 64 56 51
293 11 253 63 56 50
292 11 254 63 56 50
292 11 255 63 55 49
293 11 254 63 56 50
293 11 255 63 56 50
294 10 252 64 56 51
294 10 253 64 56 51
295 10 252 64 57 51
295 10 253 64 56 51
294 10 254 64 56 50
294 11 254 64 56 50
294 11 255 64 56 50
295 10 254 64 56 51
295 10 255 64 56 50
295 11 255 64 56 50
296 9 240 62 56 52
296 9 241 62 56 52
297 9 240 62 56 52
297 9 241 63 56 52
296 9 242 63 56 52
296 9 243 64 57 52
297 9 242 63 56 52
297 9 243 64 57 52
298 9 240 62 56 51
298 9 241 63 56 52
299 9 240 62 56 51
299 9 241 63 56 51
298 9 242 63 56 52
298 9 243 64 57 52
299 9 242 63 56 52
299 9 243 64 57 52
296 9 244 64 57 52
296 9 245 64 57 52
297 9 244 64 57 52
297 9 245 64 57 52
296 10 245 64 57 52
297 10 245 64 57 52
296 10 246 64 57 52
296 10 247 65 57 52
297 10 246 65 57 52
297 10 247 65 57 52
298 9 244 64 57 52
298 9 245 64 57 52
299 9 244 64 57 52
299 9 245 65 57 52
299 9 246 65 57 52
298 10 246 65 57 52
298 10 247 65 57 52
299 10 246 65 57 52
299 10 247 65 57 52
300 9 240 62 56 51
300 9 241 63 56 51
301 9 240 62 56 51
301 9 241 63 56 51
300 9 242 64 57 51
300 9 243 64 57 52
301 9 242 64 57 51
301 9 243 64 57 51
302 9 240 63 56 51
302 9 241 63 56 51
303 9 240 63 56 50
303 9 241 64 56 51
302 9 242 64 57 51
302 9 243 64 57 51
303 9 242 65 57 51
303 9 243 65 57 51
300 9 244 64 57 52
300 9 245 65 57 52
301 9 244 65 57 51
301 9 245 65 57 52
300 9 246 65 57 52
301 9 246 66 58 52
300 10 246 65 57 52
300 10 247 65 58 52
301 10 246 66 58 52
301 10 247 66 58 52
302 9 244 65 57 51
302 9 245 66 58 52
303 9 244 66 57 51
303 9 245 66 58 51
302 9 246 66 58 52
303 9 246 66 58 52
302 10 246 66 58 52
302 10 247 66 58 52
303 10 246 67 58 52
303 10 247 67 59 52
296 10 248 65 57 52
296 10 249 65 57 52
297 10 248 65 57 52
297 10 249 65 57 52
296 10 250 65 57 52
296 10 251 64 57 51
297 10 250 65 57 52
297 10 251 65 57 52
298 10 248 65 57 52
298 10 249 65 57 52
299 10 248 65 58 52
299 10 249 65 58 52
298 10 250 65 57 52
298 10 251 65 57 52
299 10 250 65 58 52
299 10 251 65 58 52
296 10 252 64 57 51
296 10 253 64 57 51
297 10 252 65 57 51
297 10 253 64 57 51
296 10 254 64 56 51
296 10 255 64 56 50
297 10 254 64 57 51
297 10 255 64 57 51
298 10 252 65 57 52
298 10 253 65 57 51
299 10 252 65 57 52
299 10 253 65 57 52
298 10 254 65 57 51
298 10 255 65 57 51
299 10 254 65 57 52
299 10 255 65 57 51
300 10 248 66 58 52
300 10 249 66 58 52
301 10 248 66 58 52
301 10 249 66 58 52
300 10 250 66 58 52
300 10 251 66 58 52
301 10 250 66 58 52
301 10 251 66 58 52
302 10 248 67 58 52
302 10 249 67 59 52
303 10 248 67 59 52
303 10 249 68 59 53
302 10 250 67 59 53
302 10 251 67 59 53
303 10 250 68 60 53
303 10 251 68 60 53
300 10 252 65 58 52
300 10 253 65 58 52
301 10 252 66 58 52
301 10 253 66 59 52
300 10 254 65 58 52
300 10 255 66 58 52
301 10 254 66 58 52
301 10 255 66 59 52
302 10 252 67 59 53
302 10 253 67 59 53
303 10 252 68 60 53
303 10 253 68 60 53
302 10 254 67 59 53
302 10 255 68 59 53
303 10 254 68 60 54
303 10 255 69 60 54
304 8 224 64 60 58
304 8 225 63 59 58
305 8 224 64 60 58
305 8 225 64 60 58
304 8 226 62 58 57
304 8 227 61 57 55
305 8 226 63 58 56
305 8 227 62 57 55
306 8 224 65 60 57
306 8 225 64 59 57
307 8 224 65 60 57
307 8 225 64 59 56
306 8 226 63 58 56
306 8 227 62 57 54
307 8 226 63 58 55
307 8 227 63 57 53
307 9 227 63 57 53
304 8 228 61 57 55
304 8 229 60 56 54
305 8 228 61 57 54
305 8 229 61 56 53
304 8 230 60 55 53
304 8 231 60 55 52
305 8 230 60 55 52
305 9 230 60 55 52
305 9 231 60 55 51
306 8 228 62 56 53
306 8 229 61 56 52
306 9 229 61 55 52
307 8 228 62 56 52
307 9 228 62 56 52
307 9 229 61 56 51
306 9 230 60 55 51
306 9 231 60 54 51
307 9 230 61 55 51
307 9 231 60 54 50
308 8 224 65 59 56
308 8 225 65 59 55
308 9 224 65 59 55
309 8 225 65 58 54
309 9 224 65 59 55
309 9 225 65 58 54
308 8 226 64 58 54
308 9 226 64 57 53
308 9 227 63 57 52
309 9 226 64 57 53
309 9 227 63 56 51
310 9 224 65 58 54
310 9 225 64 58 53
311 9 224 65 58 53
311 9 225 64 57 52
310 9 226 64 57 52
310 9 227 63 56 51
311 9 226 63 56 51
311 9 227 62 55 49
308 9 228 62 56 51
308 9 229 62 55 51
309 9 228 62 55 50
309 9 229 62 55 50
308 9 230 61 55 50
308 9 231 61 54 49
309 9 230 61 54 49
309 9 231 61 54 48
310 9 228 62 55 50
310 9 229 62 54 49
311 9 228 62 54 49
311 9 229 62 54 48
310 9 230 61 54 48
310 9 231 61 54 48
311 9 230 61 54 47
311 9 231 62 54 47
304 8 232 59 54 51
304 9 232 59 54 51
304 9 233 59 54 51
305 9 232 60 54 51
305 9 233 60 54 50
304 9 234 60 54 50
304 9 235 60 54 50
305 9 234 60 54 50
305 9 235 60 54 49
306 9 232 60 54 50
306 9 233 60 54 50
307 9 232 60 54 49
307 9 233 60 54 49
306 9 234 60 54 49
306 9 235 60 54 49
307 9 234 60 54 49
307 9 235 61 54 48
304 9 236 61 54 50
304 9 237 61 55 50
305 9 236 61 54 49
305 9 237 61 54 49
304 9 238 62 55 50
304 9 239 62 55 50
305 9 238 62 55 49
305 9 239 63 55 49
306 9 236 61 54 49
306 9 237 62 54 49
307 9 236 62 54 48
307 9 237 62 54 48
306 9 238 62 55 49
306 9 239 63 55 49
307 9 238 63 55 49
307 9 239 64 56 49
308 9 232 61 54 49
308 9 233 61 54 48
309 9 232 61 54 48
309 9 233 61 54 48
308 9 234 61 54 48
308 9 235 62 54 48
309 9 234 62 54 48
309 9 235 62 54 48
310 9 232 61 54 48
310 9 233 62 54 47
311 9 232 62 54 47
311 9 233 62 54 47
310 9 234 62 54 47
310 9 235 63 55 47
311 9 234 63 54 47
311 9 235 64 55 47
308 9 236 62 54 48
308 9 237 63 55 48
309 9 236 63 54 48
309 9 237 64 55 48
308 9 238 64 55 48
308 9 239 65 56 48
309 9 238 65 56 48
309 9 239 66 56 48
310 9 236 64 55 47
310 9 237 65 56 48
311 9 236 65 55 47
311 9 237 66 56 47
310 9 238 66 56 48
310 9 239 66 57 48
311 9 238 67 57 48
311 9 239 67 57 48
312 9 224 64 57 52
312 9 225 63 56 50
313 9 224 64 57 51
313 9 225 63 56 50
312 9 226 63 55 49
312 9 227 62 54 48
313 9 226 62 55 49
313 9 227 62 54 48
313 10 224 64 56 50
313 10 225 63 56 50
314 9 227 62 54 48
314 10 224 63 56 50
314 10 225 63 55 49
315 10 224 63 55 49
315 10 225 62 55 48
314 10 226 62 54 48
314 10 227 62 54 47
315 10 226 62 54 48
315 10 227 62 54 47
312 9 228 62 54 48
312 9 229 62 54 47
313 9 228 62 54 47
313 9 229 62 54 47
312 9 230 62 54 47
312 9 231 62 54 47
313 9 230 62 53 47
313 9 231 62 54 47
314 9 228 62 54 47
314 9 229 62 53 47
314 9 231 62 54 46
314 10 228 62 54 47
314 10 229 62 53 46
315 10 228 62 54 47
315 10 229 62 54 46
314 10 230 62 53 46
314 10 231 63 54 46
315 10 230 63 54 46
315 10 231 63 54 46
316 10 224 63 55 48
316 10 225 62 54 48
316 11 224 63 55 49
317 10 225 62 54 48
317 11 224 62 54 48
317 11 225 62 54 48
316 10 226 62 54 47
316 10 227 62 54 47
317 10 226 62 54 47
317 10 227 62 54 46
317 11 226 62 54 47
318 11 224 62 54 47
318 11 225 62 54 47
319 11 224 62 54 47
319 11 225 62 54 47
318 11 226 62 54 47
318 11 227 62 54 46
319 11 226 62 54 46
319 11 227 62 54 46
316 10 228 62 54 46
316 10 229 62 54 46
317 10 228 62 54 46
317 10 229 63 54 46
316 10 230 63 54 46
316 10 231 63 54 46
317 10 230 63 54 46
317 10 231 64 54 46
318 11 228 63 54 46
318 11 229 63 54 46
319 11 228 63 54 46
319 11 229 63 54 46
318 10 230 63 54 46
318 10 231 65 55 46
318 11 230 64 54 46
318 11 231 65 55 46
319 11 230 64 55 46
319 11 231 65 55 46
319 12 224 62 54 47
312 9 232 62 54 47
312 9 233 63 54 47
313 9 232 62 54 47
313 9 233 63 54 47
312 9 234 64 55 47
312 9 235 65 55 47
313 9 234 65 55 47
313 9 235 65 56 47
314 9 232 63 54 46
314 9 233 64 55 46
314 9 234 65 55 47
314 9 235 66 56 47
314 10 232 63 54 46
314 10 233 64 55 46
315 10 232 64 54 46
315 10 233 65 55 46
315 10 234 66 56 47
315 10 235 66 56 47
312 9 236 66 56 47
312 9 237 67 56 47
313 9 236 66 56 47
313 9 237 67 57 47
312 9 238 67 57 48
312 9 239 68 58 48
313 10 237 67 57 48
312 10 239 68 58 49
313 10 238 68 57 48
313 10 239 69 58 49
314 9 236 66 56 47
314 10 236 67 56 47
314 10 237 67 57 47
315 10 236 67 57 47
315 10 237 68 57 48
314 10 238 68 58 48
314 10 239 69 58 49
315 10 238 69 58 48
315 10 239 70 59 49
316 10 232 64 55 46
316 10 233 65 55 46
317 10 232 65 55 46
317 10 233 66 56 47
316 10 234 66 56 47
316 10 235 67 56 47
317 10 234 67 56 47
317 10 235 68 57 47
318 10 232 65 55 46
318 10 233 67 56 47
318 11 232 66 56 47
319 10 233 67 57 47
319 11 232 66 56 47
319 11 233 67 56 47
318 10 234 67 57 47
318 10 235 68 57 47
319 10 234 68 57 47
319 10 235 68 58 48
319 11 234 68 57 47
316 10 236 68 57 47
316 10 237 69 58 48
317 10 236 68 57 47
317 10 237 69 58 48
316 10 238 69 58 49
316 10 239 70 59 49
317 10 238 70 59 49
317 10 239 71 60 50
318 10 236 69 58 48
318 10 237 70 58 48
319 10 236 69 58 48
319 10 237 70 59 49
318 10 238 71 60 49
318 10 239 71 60 50
319 10 238 71 60 50
319 10 239 72 61 50
304 9 240 63 56 50
304 9 241 64 56 50
305 9 240 64 56 50
305 9 241 65 56 50
304 9 242 65 57 51
304 9 243 65 57 51
305 9 242 65 57 50
305 9 243 66 57 51
306 9 240 64 56 49
306 9 241 65 57 50
307 9 240 65 56 49
307 9 241 66 57 49
306 9 242 66 57 50
306 9 243 66 58 50
307 9 242 67 57 50
307 9 243 67 58 50
304 9 244 66 58 51
304 9 245 67 58 51
305 9 244 66 58 51
305 9 245 67 58 51
304 10 246 67 59 52
304 10 247 68 59 52
305 10 246 68 59 52
305 10 247 69 60 52
306 9 244 67 58 51
306 9 245 68 59 51
307 9 244 68 59 51
307 9 245 69 60 52
306 9 246 69 60 52
307 9 246 70 60 52
306 10 246 69 60 52
306 10 247 70 60 53
307 10 246 70 60 52
307 10 247 71 61 53
308 9 240 66 57 49
308 9 241 67 57 49
309 9 240 66 57 49
309 9 241 67 58 49
308 9 242 67 58 50
308 9 243 68 59 51
309 9 242 68 58 50
309 9 243 69 60 51
310 9 240 67 57 49
310 9 241 68 58 50
311 9 240 68 58 49
311 9 241 69 59 50
310 9 242 69 59 51
310 9 243 70 60 51
311 9 242 71 60 51
311 9 243 71 61 52
308 9 244 69 60 51
308 9 245 70 60 52
309 9 244 70 60 52
309 9 245 71 61 53
308 9 246 71 61 53
308 10 246 71 61 53
308 10 247 72 62 54
309 10 246 72 62 54
309 10 247 73 63 54
310 9 244 71 61 52
310 9 245 72 62 53
311 9 244 72 62 53
310 10 245 73 63 54
311 10 244 73 63 54
311 10 245 74 64 55
310 10 246 73 63 55
310 10 247 74 64 55
311 10 246 75 64 56
311 10 247 76 65 57
304 10 248 68 60 53
304 10 249 69 60 53
305 10 248 69 60 53
305 10 249 70 61 53
304 10 250 69 60 53
304 10 251 69 61 54
305 10 250 70 61 54
305 10 251 70 61 54
306 10 248 70 61 53
306 10 249 71 61 54
307 10 248 71 62 54
307 10 249 72 62 55
306 10 250 71 62 54
306 10 251 71 62 55
307 10 250 72 63 55
307 10 251 73 63 56
304 10 252 69 60 54
304 10 253 69 61 54
305 10 252 70 62 54
305 10 253 71 62 55
304 10 254 70 61 54
304 10 255 70 61 55
305 10 254 71 62 55
305 10 255 72 63 56
306 10 252 72 63 55
306 10 253 72 63 56
307 10 252 74 64 56
307 10 253 74 65 57
306 10 254 73 64 56
306 10 255 73 64 56
307 10 254 75 65 57
307 10 255 75 65 58
308 10 248 73 63 55
308 10 249 74 64 56
309 10 248 74 64 56
309 10 249 75 65 57
308 10 250 74 64 56
308 10 251 75 65 57
309 10 250 76 66 57
309 10 251 77 66 58
310 10 248 75 65 57
310 10 249 76 66 58
311 10 248 77 66 58
311 10 249 78 67 59
310 10 250 77 67 58
310 10 251 78 67 59
311 10 250 78 68 59
311 10 251 79 69 60
308 10 252 76 66 58
308 10 253 77 67 59
309 10 252 77 67 59
309 10 253 78 68 59
308 10 254 77 67 59
308 10 255 77 67 59
309 10 254 78 68 59
309 10 255 78 68 60
310 10 252 78 68 60
310 10 253 79 69 60
311 10 252 80 69 60
311 10 253 80 70 61
310 10 254 79 69 60
310 10 255 79 69 60
311 10 254 80 70 61
311 10 255 81 70 61
312 9 240 69 59 49
312 9 241 70 60 50
312 9 242 71 61 51
312 9 243 72 61 52
312 10 240 69 59 49
312 10 241 70 60 50
313 10 240 70 59 50
313 10 241 71 60 51
312 10 242 71 60 51
312 10 243 72 62 53
313 10 242 72 61 52
313 10 243 73 62 53
314 10 240 70 60 50
314 10 241 72 61 51
315 10 240 71 60 50
315 10 241 72 61 52
314 10 242 73 62 52
314 10 243 74 63 53
315 10 242 73 62 53
315 10 243 74 63 54
312 9 244 73 62 53
312 10 244 74 63 54
312 10 245 75 64 55
313 10 244 74 64 54
313 10 245 75 65 56
312 10 246 76 65 56
312 10 247 77 66 57
313 10 246 76 66 57
313 10 247 77 67 58
314 10 244 75 64 55
314 10 245 76 65 56
315 10 244 76 65 55
315 10 245 77 66 57
314 10 246 77 66 57
314 10 247 78 68 59
315 10 246 78 67 58
315 10 247 79 69 60
316 10 240 71 60 50
316 10 241 73 62 52
317 10 240 72 61 51
317 10 241 74 62 52
316 10 242 74 63 53
316 10 243 75 64 54
317 10 242 74 63 53
317 10 243 75 64 55
318 10 240 73 61 51
318 10 241 74 63 53
319 10 240 73 61 51
319 10 241 74 63 53
318 10 242 75 64 54
318 10 243 76 65 55
319 10 242 75 64 54
319 10 243 76 65 56
316 10 244 76 65 56
316 10 245 77 67 57
317 10 244 76 65 56
317 10 245 78 67 58
316 10 246 79 68 59
316 10 247 80 69 60
317 10 246 79 68 59
317 10 247 80 70 61
318 10 244 77 66 56
318 10 245 78 67 58
319 10 244 78 67 57
319 10 245 79 68 59
318 10 246 79 69 60
318 10 247 81 70 61
319 10 246 80 69 61
319 10 247 81 71 62
312 10 248 78 68 59
312 10 249 79 68 60
313 10 248 79 68 60
313 10 249 80 69 61
312 10 250 80 69 60
312 10 251 80 70 61
313 10 250 80 70 61
313 10 251 81 71 62
314 10 248 80 69 60
314 10 249 81 70 62
315 10 248 81 70 61
315 10 249 82 71 62
314 10 250 82 71 62
314 10 251 83 72 63
315 10 250 83 72 63
315 10 251 83 72 64
312 10 252 81 70 61
312 10 253 81 71 62
313 10 252 82 71 62
313 10 253 82 71 62
312 10 254 82 71 62
312 10 255 82 71 62
313 10 254 82 72 63
313 10 255 83 72 63
314 10 252 83 72 63
314 10 253 83 72 63
315 10 252 84 73 64
315 10 253 84 73 64
314 10 254 83 72 63
314 10 255 84 73 64
315 10 254 85 74 64
315 10 255 85 74 64
317 9 249 83 72 64
316 9 250 83 73 64
316 9 251 84 73 64
317 9 250 84 73 64
317 9 251 85 74 65
316 10 248 81 70 62
316 10 249 82 72 63
317 10 248 82 71 62
317 10 249 83 72 63
316 10 250 83 72 64
316 10 251 84 73 64
318 9 249 83 73 64
318 9 250 84 73 65
318 9 251 85 74 66
319 9 251 86 75 66
318 10 248 82 71 63
318 10 249 83 73 64
319 10 248 83 72 64
319 10 249 84 73 65
318 10 250 84 74 65
319 10 250 85 74 66
319 10 251 86 75 67
317 9 252 85 74 66
316 9 255 86 74 65
317 9 254 86 75 66
317 9 255 86 75 65
316 10 252 85 74 65
316 10 253 85 74 65
317 10 253 86 75 66
316 10 254 86 74 65
316 10 255 86 74 65
318 9 252 86 75 66
319 9 252 86 75 67
318 9 255 86 75 66
318 10 253 86 75 66
319 10 253 87 76 67
318 10 254 86 75 66
318 10 255 87 75 66
319 10 254 87 76 67
319 10 255 87 75 66
315 32 192 71 63 57
315 32 193 71 63 57
315 33 192 73 64 57
316 32 193 72 64 57
316 33 192 74 65 58
316 33 193 74 65 57
316 32 194 72 63 57
316 33 194 74 64 56
317 32 195 72 63 56
317 33 195 75 64 56
316 34 192 75 65 57
316 34 193 75 65 56
316 35 192 76 65 57
316 35 193 77 66 57
316 34 194 75 65 56
316 35 194 78 67 57
317 34 195 78 66 56
317 35 195 80 68 57
317 32 196 73 63 55
317 32 197 74 64 55
317 33 196 76 65 56
317 33 197 77 66 56
317 34 196 79 67 57
317 34 197 81 69 59
317 35 196 83 70 59
317 35 197 85 71 60
318 32 197 75 64 55
318 33 197 78 66 56
318 32 198 77 66 57
318 32 199 78 67 57
318 33 198 80 68 58
318 33 199 83 70 59
318 34 197 83 70 59
318 35 197 86 72 60
318 34 198 84 70 58
318 34 199 85 71 58
318 35 198 87 73 60
318 35 199 88 73 60
316 36 192 78 66 57
316 36 193 79 67 58
316 37 192 81 69 59
316 37 193 83 69 59
316 36 194 80 68 58
316 36 195 83 70 59
316 37 194 85 72 60
316 37 195 91 76 63
317 36 195 84 70 59
317 37 195 90 75 62
316 38 192 87 73 63
316 38 193 90 75 64
316 39 192 93 78 68
316 39 193 95 81 70
316 38 194 94 79 67
316 38 195 98 83 70
316 39 194 97 83 71
316 39 195 100 84 71
317 36 196 88 73 62
317 36 197 90 75 63
317 37 196 95 78 65
317 37 197 97 80 66
317 36 198 93 76 63
317 37 198 99 82 68
317 37 199 100 84 70
316 38 196 100 84 70
316 38 197 100 83 68
316 39 196 101 85 71
316 39 197 100 84 70
317 38 196 100 82 68
317 38 197 100 82 68
316 39 198 100 84 70
317 38 198 101 83 69
317 38 199 101 84 71
317 39 198 100 83 70
317 39 199 101 83 71
318 36 198 91 75 61
318 36 199 92 75 61
318 37 198 96 79 64
318 37 199 97 80 66
318 32 200 80 68 57
318 33 200 83 70 59
319 32 200 80 68 58
319 32 201 81 69 59
319 33 200 83 70 59
319 33 201 84 71 60
319 32 202 82 70 60
319 32 203 83 70 60
319 33 202 85 72 61
319 33 203 85 72 62
318 34 200 85 71 58
318 35 200 88 73 60
318 35 201 88 73 61
319 34 200 85 71 59
319 34 201 86 72 61
319 35 201 88 73 61
319 34 202 86 72 61
319 34 203 87 73 62
319 35 202 89 74 62
319 35 203 89 75 63
319 34 204 88 75 63
319 35 204 90 76 64
319 35 205 92 77 65
317 38 200 99 81 67
317 38 201 97 80 66
317 39 200 100 82 69
317 39 201 100 84 72
317 39 202 102 88 76
318 36 200 92 75 61
318 36 201 92 76 62
318 37 200 97 80 66
318 37 201 96 80 66
319 36 201 91 76 62
318 37 202 96 81 67
318 37 203 97 81 67
319 36 202 93 78 65
319 36 203 94 79 67
319 37 203 97 81 68
318 38 200 98 81 67
318 38 201 97 81 67
318 38 202 98 82 68
318 38 203 98 83 69
318 39 202 101 86 73
318 39 203 102 87 75
319 36 204 95 79 67
319 36 205 95 79 66
319 37 204 97 82 69
319 37 205 97 82 68
319 37 206 97 81 68
319 37 207 97 82 70
318 38 204 99 84 71
318 38 205 101 86 74
318 39 204 102 87 74
318 39 205 102 87 75
319 38 205 99 84 71
318 39 206 101 86 74
318 39 207 99 85 73
319 38 206 100 85 73
319 38 207 101 87 76
319 39 206 102 87 76
319 39 207 100 87 76
