ply
format ascii 1.0
comment PCL generated
element vertex 2385
property float x
property float y
property float z
property uchar red
property uchar green
property uchar blue
element camera 0
property float view_px
property float view_py
property float view_pz
property float x_axisx
property float x_axisy
property float x_axisz
property float y_axisx
property float y_axisy
property float y_axisz
property float z_axisx
property float z_axisy
property float z_axisz
property float focal
property float scalex
property float scaley
property float centerx
property float centery
property int viewportx
property int viewporty
property float k1
property float k2
end_header
76 109 165 39 46 53
77 108 165 39 46 53
77 109 165 40 47 54
76 110 165 39 46 54
76 111 165 39 47 54
77 110 165 39 46 54
77 111 165 40 47 54
78 108 165 40 46 53
78 109 165 40 47 54
79 108 164 40 47 54
79 109 164 41 47 55
78 110 164 41 48 55
78 110 165 41 47 55
78 111 164 41 47 55
78 111 165 40 47 55
79 110 164 41 47 55
79 111 164 40 47 55
64 112 175 40 48 57
64 113 175 40 48 57
65 112 174 40 48 56
65 112 175 40 48 56
65 113 174 41 48 57
65 113 175 40 49 57
65 114 175 41 49 59
65 115 175 41 51 60
66 112 172 39 47 55
66 112 173 40 47 55
66 113 173 40 47 55
67 112 172 39 46 54
67 113 172 39 47 55
67 113 173 39 47 55
66 113 174 40 48 56
67 114 172 39 47 55
67 114 173 40 48 57
67 115 173 41 50 59
66 114 174 40 49 58
66 114 175 40 49 59
66 115 174 41 50 60
66 115 175 41 51 61
67 115 174 41 51 61
66 116 175 43 54 64
67 116 174 44 54 65
67 116 175 46 56 67
67 117 175 48 58 70
69 112 169 39 46 53
68 112 170 39 46 54
68 112 171 39 46 54
68 113 171 39 47 54
69 112 170 39 46 54
69 113 170 38 46 54
69 113 171 39 46 54
69 114 171 39 47 55
69 115 171 39 47 55
70 112 169 38 46 53
70 113 169 38 45 53
71 112 168 39 46 53
71 113 168 39 46 54
71 113 169 38 46 54
70 113 170 38 46 54
70 114 169 38 46 54
71 114 169 39 46 54
71 115 169 39 46 54
70 114 170 39 46 54
70 115 170 39 47 55
70 115 171 40 47 56
71 115 170 39 47 55
68 113 172 40 47 54
68 114 172 40 48 56
68 115 172 41 49 57
68 115 173 41 50 59
69 115 172 40 48 57
70 116 170 41 49 57
70 116 171 42 50 59
71 116 170 42 50 58
71 117 170 44 52 61
71 117 171 45 54 63
71 118 171 45 54 64
68 116 173 43 53 62
68 117 173 45 55 66
69 116 172 42 51 61
69 117 172 45 54 64
69 117 173 45 55 66
68 116 174 46 56 67
68 117 174 47 58 69
68 117 175 49 60 71
69 117 174 47 57 68
69 118 173 47 57 68
68 118 174 49 59 70
68 118 175 47 58 69
69 118 174 46 57 68
69 118 175 44 55 66
69 119 175 43 53 64
70 116 172 42 51 60
70 117 172 45 55 64
70 117 173 46 56 67
70 118 172 46 56 66
70 118 173 46 56 67
71 118 172 44 54 64
71 118 173 44 54 65
71 119 173 41 51 62
70 118 174 43 54 65
70 119 174 42 52 63
70 119 175 40 51 62
71 119 174 40 51 61
71 119 175 38 48 59
71 120 175 35 45 56
72 112 167 39 46 53
72 113 167 39 46 54
73 112 167 38 45 53
73 113 167 38 46 53
73 114 167 39 46 53
75 112 165 38 46 54
74 112 166 37 45 53
74 113 166 38 45 53
74 113 167 37 45 53
75 112 166 38 46 54
75 113 166 38 45 53
74 114 167 38 45 53
74 115 167 39 46 53
75 114 166 38 45 53
75 114 167 38 45 52
75 115 167 40 46 53
75 116 167 41 47 55
76 112 165 40 46 54
76 113 165 39 46 53
77 112 165 40 47 54
77 113 165 40 47 54
76 113 166 38 45 53
77 114 165 39 47 54
76 114 166 39 46 53
76 115 166 40 47 54
76 115 167 40 46 54
77 114 166 40 46 54
77 115 166 40 47 54
78 112 165 39 47 54
78 113 165 40 47 54
79 112 164 39 47 54
79 112 165 39 46 54
79 113 165 39 47 55
78 114 165 40 47 54
78 115 165 40 47 54
79 114 165 39 47 55
79 115 165 39 47 55
78 115 166 40 47 55
76 116 167 41 47 55
76 117 167 42 49 57
77 116 166 41 48 55
77 116 167 41 48 56
77 117 167 42 50 58
78 116 166 40 48 55
78 117 166 41 49 57
78 117 167 43 50 58
79 116 166 39 47 55
79 117 166 40 48 57
79 117 167 42 50 59
78 118 167 45 53 61
79 118 167 44 52 61
72 112 168 39 46 53
72 113 168 39 46 54
72 114 168 38 46 53
72 115 168 38 46 54
72 115 169 39 47 54
73 114 168 39 46 53
73 115 168 39 46 54
74 115 168 40 46 54
72 116 169 40 48 56
73 116 168 40 48 56
73 116 169 41 48 56
73 117 169 43 51 60
72 116 170 42 50 58
72 117 170 44 52 61
72 117 171 45 53 63
73 117 170 45 53 62
72 118 171 44 53 63
73 118 170 45 54 63
73 118 171 44 53 63
74 116 168 41 48 56
74 117 168 42 50 59
74 117 169 44 52 61
75 116 168 41 48 56
75 117 168 43 51 59
74 118 169 45 54 64
75 118 169 46 54 63
74 118 170 44 53 63
74 118 171 44 53 63
74 119 171 43 52 62
75 118 170 46 55 64
75 119 170 44 54 64
75 119 171 41 51 61
72 118 172 43 52 62
72 119 172 42 52 63
72 119 173 40 50 60
73 118 172 43 52 62
73 119 172 42 51 61
73 119 173 38 48 58
72 119 174 38 48 59
74 119 172 40 50 60
74 119 173 36 46 56
76 117 168 43 50 59
77 117 168 43 51 59
76 118 168 44 53 62
76 118 169 46 55 64
77 118 168 45 54 63
77 118 169 47 55 65
77 119 169 47 56 65
76 119 170 44 54 64
76 119 171 41 50 60
77 119 170 43 53 63
77 119 171 40 49 59
78 118 168 47 55 64
78 119 169 46 54 64
79 118 168 46 54 64
79 119 168 46 55 64
79 119 169 45 53 62
78 119 170 42 51 61
79 119 170 42 51 60
73 120 173 36 46 56
72 120 174 36 46 56
72 120 175 34 44 54
73 120 174 34 44 54
73 120 175 34 43 51
74 120 172 36 47 56
74 120 173 34 45 54
75 120 172 36 46 56
75 120 173 34 44 53
74 120 174 34 43 52
74 120 175 34 42 50
74 121 175 34 42 50
75 120 174 33 42 51
75 121 174 34 42 51
75 121 175 34 42 50
76 120 171 37 47 57
77 120 171 37 46 56
78 120 170 40 49 59
78 120 171 36 46 55
79 120 170 39 48 58
79 120 171 34 44 53
76 120 172 35 45 54
76 120 173 34 43 52
77 120 172 34 43 52
77 120 173 34 43 52
77 121 173 34 43 52
76 120 174 34 43 52
76 121 174 34 43 51
76 121 175 34 42 50
77 121 174 34 43 51
77 121 175 34 42 50
77 122 175 34 42 50
78 120 172 34 43 51
78 121 172 34 42 51
78 121 173 35 43 51
79 121 172 35 43 51
79 121 173 36 44 52
78 121 174 35 43 51
79 122 173 37 44 52
79 123 173 38 46 54
78 122 174 35 43 51
78 122 175 35 43 51
78 123 175 36 44 53
79 122 174 36 44 52
79 123 174 38 46 54
78 124 175 38 46 55
78 125 175 38 46 54
79 124 174 40 48 56
79 124 175 39 47 56
79 125 174 39 47 56
79 125 175 39 47 55
78 126 175 38 46 54
78 127 175 38 45 53
79 126 174 38 46 55
79 126 175 38 46 54
79 127 174 38 46 54
79 127 175 37 45 53
64 112 176 39 48 57
64 113 176 40 49 58
64 114 176 42 51 60
64 115 176 44 54 64
64 115 177 45 54 65
65 114 176 42 51 60
65 115 176 43 53 63
64 116 177 46 56 67
64 117 177 47 58 70
65 116 176 46 56 67
65 116 177 46 57 68
65 117 177 48 60 71
64 116 178 47 57 69
64 117 178 48 59 71
64 117 179 49 60 71
64 118 179 47 58 70
65 118 178 48 59 71
65 118 179 46 57 68
66 116 176 45 56 68
66 117 176 48 59 71
66 117 177 49 60 72
67 117 176 49 60 72
66 118 177 49 60 71
67 118 176 48 59 71
67 118 177 46 57 68
67 119 177 44 54 65
66 118 178 47 58 69
66 118 179 45 55 66
66 119 178 45 56 67
66 119 179 42 53 64
67 119 178 43 53 64
67 119 179 39 49 59
64 117 180 49 60 71
64 118 180 45 56 67
64 118 181 43 54 65
64 119 181 41 52 62
65 119 180 42 53 64
65 119 181 39 49 60
64 119 182 39 50 60
64 119 183 35 45 55
65 119 182 36 46 55
65 119 183 33 42 51
66 119 180 40 50 61
66 119 181 36 45 55
67 119 180 37 47 56
68 118 176 45 56 68
68 119 176 43 54 65
68 119 177 39 50 61
69 119 176 40 51 62
69 119 177 37 47 58
68 119 178 37 47 57
70 119 176 37 48 59
64 119 184 31 41 50
64 119 185 30 40 49
64 119 187 29 39 47
64 119 188 29 38 47
65 120 183 32 41 49
66 120 181 34 43 52
67 120 180 34 43 52
67 120 181 32 41 49
66 120 182 33 42 50
66 120 183 33 40 48
67 120 182 32 40 47
67 120 183 33 40 47
67 121 182 31 39 46
67 121 183 31 38 45
69 120 177 35 45 55
68 120 178 34 44 55
68 120 179 33 43 53
69 120 178 33 43 53
69 120 179 32 41 50
70 120 176 34 45 55
70 120 177 32 42 52
71 120 176 33 43 52
71 120 177 32 41 50
71 121 177 32 41 49
70 120 178 31 40 49
70 120 179 31 40 48
70 121 179 31 40 48
71 120 178 31 40 48
71 121 178 32 40 48
71 121 179 32 39 47
68 120 180 31 40 49
68 120 181 31 39 47
68 121 181 31 39 46
69 120 180 31 40 48
69 121 180 32 39 47
69 121 181 32 39 47
68 121 182 31 38 46
68 121 183 31 38 45
69 121 182 31 39 46
68 122 183 32 39 46
69 122 182 31 39 46
69 122 183 32 40 47
69 123 183 34 41 48
70 121 180 31 39 47
70 121 181 31 39 46
71 121 180 32 39 46
70 122 181 31 39 46
71 122 180 32 39 46
71 122 181 32 39 47
71 123 181 33 40 48
70 122 182 31 39 46
70 122 183 32 39 47
70 123 183 34 41 49
71 122 182 32 40 47
71 123 182 33 41 48
71 123 183 35 42 49
70 124 183 35 42 50
71 124 183 35 43 50
71 125 183 36 43 50
71 126 183 36 44 51
71 127 183 38 45 52
64 120 184 29 39 48
64 120 185 29 39 47
65 120 184 31 40 48
65 120 185 31 39 47
65 121 185 32 40 47
64 120 186 30 39 47
64 120 187 31 39 47
65 120 187 33 41 49
65 121 186 33 40 48
65 121 187 35 42 50
65 122 187 37 44 52
66 120 184 33 40 47
66 121 184 32 40 47
66 121 185 33 40 48
67 121 184 31 39 46
66 121 186 35 42 49
67 122 184 32 39 46
67 122 185 33 40 48
67 123 185 35 42 49
66 122 186 35 42 50
66 122 187 36 44 52
66 123 187 36 44 53
67 122 186 34 42 49
67 123 186 36 43 51
67 123 187 37 45 53
64 120 188 31 39 48
64 120 189 31 40 48
64 121 188 34 41 49
64 121 189 35 42 50
65 121 188 37 44 51
65 121 189 36 43 51
64 120 190 34 42 50
64 120 191 34 41 50
64 121 190 36 43 51
64 121 191 36 43 52
65 121 190 38 45 53
65 121 191 39 46 54
65 122 188 38 45 53
65 122 189 39 46 54
65 123 189 40 47 55
65 122 190 39 46 54
65 122 191 39 46 54
65 123 190 40 48 56
65 123 191 41 48 56
66 123 188 39 46 55
66 123 189 40 48 56
67 124 187 39 47 55
67 125 187 40 48 57
65 124 191 42 49 57
66 124 188 40 48 57
66 124 189 41 49 57
66 125 189 41 49 58
67 124 188 41 48 57
67 125 188 41 49 58
67 125 189 41 49 58
66 124 190 42 49 57
66 124 191 43 50 57
66 125 190 42 49 58
66 125 191 43 50 58
67 126 188 42 50 58
67 126 189 42 50 59
67 127 188 42 50 59
67 127 189 42 50 59
66 126 190 42 50 58
66 126 191 42 49 57
66 127 191 41 49 58
67 126 190 42 50 59
67 127 190 42 50 59
67 127 191 42 50 58
68 122 184 33 40 47
68 123 185 36 43 50
69 123 184 34 41 49
69 123 185 35 42 49
68 123 186 37 44 52
70 123 184 34 41 49
68 124 185 37 44 52
69 124 185 37 44 51
69 125 185 38 45 53
68 124 186 38 45 53
68 124 187 39 47 55
68 125 186 39 46 54
68 125 187 39 47 56
69 124 186 38 45 53
69 125 186 38 46 54
69 126 185 38 45 53
68 126 187 40 48 57
68 127 187 41 49 58
69 126 186 39 47 55
69 127 186 40 48 56
69 127 187 40 49 57
70 124 184 36 43 51
70 125 184 36 43 51
70 125 185 37 45 52
71 125 184 36 43 51
70 126 184 37 44 52
70 126 185 38 45 53
70 127 184 38 45 53
70 127 185 39 46 54
71 126 184 37 44 51
71 127 184 38 45 52
68 126 188 41 49 58
68 127 188 41 50 59
72 120 176 33 42 51
72 121 176 34 41 49
72 121 177 33 41 48
73 120 176 34 42 50
73 121 176 34 41 49
73 121 177 33 40 48
72 121 178 33 40 47
73 121 178 33 40 47
72 122 179 32 39 46
73 122 178 32 39 47
73 122 179 32 39 46
73 123 179 33 40 47
74 121 176 34 41 49
74 121 177 34 41 48
75 121 176 34 41 49
74 122 177 33 40 47
75 122 176 34 42 49
75 122 177 33 40 48
75 123 177 33 40 48
74 122 178 32 40 47
74 122 179 32 39 46
74 123 179 34 41 48
75 122 178 33 40 47
75 123 178 34 41 48
75 123 179 35 42 49
72 122 180 32 39 46
72 123 180 33 40 47
72 123 181 34 41 48
73 123 180 34 41 48
73 123 181 34 41 48
72 123 182 33 41 48
74 124 179 35 42 49
74 125 179 35 42 50
75 124 178 36 43 51
75 124 179 35 42 50
75 125 178 36 43 51
75 125 179 35 42 50
75 126 179 35 43 50
75 127 179 36 43 50
72 124 181 34 41 49
73 124 180 36 42 49
73 124 181 35 42 49
73 125 181 36 43 50
72 124 182 35 42 50
72 125 182 35 42 50
72 125 183 35 42 50
73 125 182 35 42 50
73 126 181 36 43 50
73 127 181 36 43 51
72 126 182 36 43 50
72 126 183 36 43 51
72 127 182 37 44 51
72 127 183 37 44 51
73 126 182 36 43 50
73 127 182 37 44 51
74 124 180 36 42 49
74 125 180 36 43 50
74 126 180 35 42 50
74 127 180 36 43 50
75 127 180 36 43 50
76 121 176 34 42 50
76 122 176 33 41 49
76 122 177 33 41 49
76 123 177 33 41 49
77 122 176 34 42 50
77 123 176 34 42 50
76 123 178 34 42 49
76 124 177 35 43 50
76 125 177 37 44 52
77 124 176 37 45 53
77 124 177 35 43 51
77 125 176 37 45 53
77 125 177 37 44 52
76 124 178 37 44 51
76 125 178 37 44 51
76 126 177 36 44 51
76 127 177 36 44 51
77 126 177 36 44 52
77 127 177 37 44 52
76 126 178 36 44 51
76 127 178 36 43 51
78 124 176 38 45 54
78 125 176 37 45 53
78 126 176 37 45 53
78 127 176 37 45 52
80 96 163 37 42 48
80 97 163 37 43 49
81 96 163 37 42 49
81 97 163 37 43 50
81 98 163 38 44 51
82 96 163 36 42 49
82 97 163 37 43 50
83 96 163 37 43 50
83 97 163 38 44 51
82 98 163 38 44 51
83 98 163 39 45 52
80 97 164 37 43 49
80 98 164 37 43 50
80 99 164 38 44 51
81 98 164 38 44 51
81 99 164 38 45 52
82 98 164 38 44 51
82 99 164 38 45 52
83 99 164 40 46 53
80 100 164 38 45 52
80 101 164 38 45 52
81 100 164 38 45 52
81 101 164 38 45 52
80 102 164 38 45 52
80 103 164 38 45 52
81 102 164 38 45 52
81 103 164 38 45 52
82 100 164 38 45 52
82 101 164 38 45 52
83 100 164 39 46 53
83 101 164 39 45 53
82 102 164 38 45 52
82 103 164 37 44 52
83 102 164 38 45 52
83 103 164 37 44 52
84 96 163 38 44 51
84 97 163 39 45 52
85 96 163 38 44 51
85 97 163 39 45 52
84 98 163 39 45 52
85 98 163 39 45 52
85 99 163 40 46 53
84 99 164 40 46 53
85 98 164 40 46 53
85 99 164 40 46 54
84 100 164 40 46 54
84 101 164 39 46 54
85 100 164 40 46 54
85 101 164 40 46 54
84 102 164 38 45 52
84 103 164 37 44 52
80 104 164 38 45 52
80 105 164 38 45 52
81 104 164 38 45 52
81 105 164 38 45 52
80 106 164 38 45 52
80 107 164 39 46 53
81 106 164 39 45 52
81 107 164 39 46 53
82 104 164 37 44 51
82 105 164 38 44 52
83 104 164 37 44 52
83 105 164 37 44 52
82 106 164 38 45 52
82 107 164 39 46 53
83 106 164 38 45 52
83 107 164 39 45 52
80 108 164 41 47 54
80 109 164 41 48 55
81 108 164 41 47 54
81 109 164 41 48 55
80 110 164 40 47 55
80 111 164 40 47 55
81 110 164 41 48 55
81 111 164 41 48 56
82 108 164 40 47 54
82 109 164 41 47 55
83 108 164 39 46 53
83 109 164 40 47 54
82 110 164 41 48 55
82 111 164 41 48 56
83 110 164 40 47 54
83 111 164 41 47 55
84 104 164 37 44 52
84 105 164 37 44 51
84 106 164 38 45 52
84 107 164 39 45 52
84 108 164 39 45 52
84 109 164 39 46 53
84 110 164 40 46 53
84 111 164 40 46 53
80 112 164 40 47 55
80 113 164 39 47 55
80 113 165 39 47 55
81 112 164 41 48 55
81 113 164 41 48 56
80 114 165 39 47 55
80 115 165 40 47 56
81 114 164 40 48 56
81 114 165 40 48 56
81 115 165 40 48 56
82 112 164 41 48 55
82 113 164 41 48 56
83 112 164 41 47 55
83 113 164 41 47 55
82 114 164 41 48 55
82 115 164 41 48 56
82 115 165 40 48 56
83 114 164 41 48 56
83 115 164 41 48 56
83 115 165 41 48 56
80 116 165 39 47 55
81 116 165 40 48 56
80 116 166 39 48 56
80 117 166 41 49 58
80 117 167 42 50 59
81 116 166 40 48 57
81 117 166 42 50 59
80 118 167 44 53 62
81 118 167 44 53 62
82 116 165 40 48 57
82 117 165 41 49 58
83 116 165 41 48 57
83 117 165 41 49 58
82 117 166 42 50 59
83 117 166 43 51 60
82 118 166 43 52 61
82 118 167 44 53 62
82 119 167 45 54 63
83 118 166 44 52 61
83 119 167 46 54 63
84 112 164 41 47 54
84 113 164 41 47 55
84 114 164 41 48 55
84 114 165 41 48 56
84 115 164 41 48 56
84 115 165 41 48 56
84 116 165 41 48 57
84 117 165 42 50 59
84 117 166 42 51 60
84 118 166 44 52 62
84 119 167 46 54 63
80 118 168 45 54 63
80 119 168 46 54 64
80 119 169 44 52 61
81 118 168 46 54 63
81 119 168 46 54 64
81 119 169 44 52 61
82 119 168 46 54 64
83 119 168 47 55 64
80 120 169 42 50 60
81 120 169 41 49 59
80 120 170 37 46 55
80 120 171 34 43 52
80 121 171 35 43 52
81 120 170 35 45 54
81 121 170 32 41 50
81 121 171 34 42 50
81 122 171 34 43 51
82 120 168 44 53 62
82 120 169 39 48 57
82 121 169 34 43 52
83 120 168 44 53 62
83 120 169 39 48 57
83 121 169 35 44 53
82 120 170 35 44 53
82 121 170 31 41 49
83 121 170 32 41 50
82 122 170 32 41 49
82 122 171 34 42 50
82 123 170 34 42 50
82 123 171 37 44 52
83 122 170 31 40 48
83 123 170 33 41 48
80 121 172 36 43 51
80 122 172 37 45 52
80 122 173 38 45 53
80 123 173 38 46 54
81 122 172 37 44 52
81 123 172 39 46 54
82 124 171 39 46 54
82 125 171 40 47 55
83 124 170 35 42 49
83 124 171 36 43 51
83 125 171 39 45 53
80 124 173 39 47 56
80 125 173 39 47 56
81 124 172 40 47 55
81 124 173 39 47 55
81 125 172 40 48 56
81 125 173 39 47 56
80 126 173 40 48 56
80 127 173 39 47 56
81 126 172 41 49 57
81 126 173 40 48 57
81 127 173 40 48 56
80 126 174 39 47 55
80 127 174 39 47 55
82 125 172 40 48 56
82 126 172 42 49 57
84 120 168 42 51 60
84 121 168 38 46 55
84 121 169 35 44 52
84 122 169 31 40 48
84 122 170 31 40 48
84 123 170 32 39 46
84 124 170 35 41 48
64 79 242 113 123 136
64 79 243 112 122 135
65 79 243 112 121 135
66 79 243 110 119 133
67 79 243 109 119 132
67 79 244 110 120 134
68 79 244 106 116 131
64 86 235 41 51 60
64 87 235 36 44 53
65 87 235 37 44 52
64 85 237 47 57 68
65 85 237 48 57 68
64 84 238 52 58 66
64 84 239 73 71 73
64 85 238 47 57 68
65 84 238 53 60 68
65 84 239 67 67 70
65 85 238 48 57 68
64 86 236 44 53 63
65 86 236 43 52 62
65 86 237 49 57 67
65 87 236 38 46 55
66 85 237 47 56 67
67 85 237 45 54 64
66 84 239 59 61 66
66 85 238 46 55 65
67 84 239 53 56 62
67 85 238 43 52 63
67 85 239 45 52 60
66 86 236 43 51 61
66 86 237 48 55 65
66 87 236 38 46 54
67 86 236 42 49 58
67 86 237 44 51 62
67 87 236 38 46 55
68 85 237 42 50 61
68 84 239 53 55 60
68 85 238 42 50 61
68 85 239 46 52 60
69 85 238 40 49 58
69 85 239 46 52 61
68 86 237 41 49 60
68 87 236 39 47 56
69 86 237 40 48 58
69 87 236 39 48 57
69 87 237 40 49 59
70 85 238 37 47 56
70 85 239 39 48 57
71 85 238 37 46 56
71 85 239 36 45 55
70 86 237 40 48 58
70 87 236 39 47 57
70 87 237 42 50 60
71 86 237 41 48 58
71 87 236 40 48 58
71 87 237 40 48 57
70 86 238 39 47 56
71 86 238 38 47 56
64 88 234 34 40 48
64 88 235 34 41 49
64 89 234 33 40 47
64 89 235 33 40 48
65 88 235 34 41 49
65 89 235 33 40 48
64 90 234 32 39 46
64 90 235 32 39 47
64 91 235 31 38 45
65 90 235 31 39 47
65 91 235 31 38 45
66 88 235 35 41 50
66 89 235 33 40 48
67 88 235 35 42 50
67 89 235 34 41 49
66 90 235 32 39 47
66 91 235 31 38 45
67 90 235 33 39 47
67 91 235 31 38 45
66 88 236 36 43 51
67 88 236 36 43 51
64 92 235 32 39 46
64 93 235 35 41 49
65 92 235 31 38 45
65 93 235 33 40 47
64 94 235 37 43 51
64 95 235 37 44 52
65 94 235 36 42 50
66 92 235 32 38 45
66 93 235 32 38 46
67 92 235 31 38 44
64 95 236 38 45 53
65 94 236 35 42 49
65 95 236 38 45 52
66 93 236 33 39 46
67 92 236 31 38 45
67 93 236 32 39 46
66 94 236 35 42 49
66 95 236 37 44 51
67 94 236 34 40 47
67 95 236 36 42 49
67 95 237 36 43 50
68 89 235 35 41 49
68 90 235 33 39 47
68 91 235 31 38 45
68 88 236 36 43 51
68 89 236 34 41 48
69 88 236 36 44 52
69 89 236 35 41 49
68 90 236 33 39 47
68 91 236 31 38 45
69 90 236 33 39 47
69 91 236 31 37 45
70 88 236 37 44 53
70 89 236 35 42 49
71 88 236 37 45 54
71 89 236 34 42 50
70 90 236 33 40 47
70 91 236 31 38 45
71 90 236 33 40 48
71 91 236 31 38 46
68 92 236 31 37 44
68 93 236 31 38 45
69 92 236 31 37 44
69 93 236 31 38 45
68 94 236 33 40 47
68 94 237 34 41 48
68 95 236 34 41 48
68 95 237 35 42 49
69 94 236 32 39 46
69 94 237 33 40 47
69 95 237 35 42 49
70 92 236 30 37 44
70 93 236 30 37 44
70 93 237 31 38 45
71 92 236 30 37 44
71 92 237 29 37 44
71 93 236 30 37 44
71 93 237 31 37 44
70 94 237 33 39 46
70 95 237 34 41 48
71 94 237 32 39 46
71 95 237 33 40 47
70 95 238 35 41 49
71 95 238 34 41 48
72 85 238 38 46 56
72 85 239 37 46 55
73 85 239 38 46 56
72 86 237 41 49 58
72 87 237 40 48 57
73 87 237 40 48 57
72 86 238 39 47 56
73 86 238 39 47 56
74 85 239 38 47 57
75 85 239 40 48 58
74 87 237 40 48 57
75 87 237 39 47 56
74 86 238 40 48 57
74 86 239 38 47 57
75 86 238 41 49 58
75 86 239 41 49 59
75 87 238 40 49 58
76 86 239 43 51 61
76 87 238 41 50 59
77 86 239 44 53 63
77 87 238 43 51 61
77 87 239 44 53 62
78 86 239 44 54 64
78 87 238 44 53 62
78 87 239 44 54 63
79 86 239 44 53 63
79 87 238 43 52 62
79 87 239 44 53 63
72 88 236 37 44 53
72 88 237 38 46 55
72 89 236 33 42 50
73 88 236 35 43 52
73 88 237 37 45 54
73 89 236 34 42 50
73 89 237 33 42 50
72 90 236 33 40 48
72 91 236 30 38 46
72 91 237 30 38 45
73 90 236 33 40 48
73 90 237 32 40 48
73 91 236 31 39 47
73 91 237 31 38 46
74 88 237 36 44 53
74 89 237 33 41 50
75 88 237 36 44 53
75 89 237 34 42 50
74 90 237 32 40 48
74 91 237 31 38 46
75 90 237 32 40 48
75 91 237 31 39 46
72 92 237 30 37 44
72 93 237 30 37 44
73 92 237 30 37 45
73 93 237 30 37 44
72 94 237 32 38 45
73 94 237 31 38 44
72 94 238 32 39 46
72 95 238 34 40 48
73 94 238 32 39 46
73 95 238 33 40 47
74 92 237 30 37 45
74 93 237 30 37 44
75 92 237 30 38 45
75 93 237 30 37 44
75 93 238 30 37 44
74 94 238 31 38 45
74 95 238 32 39 46
75 94 238 30 37 45
75 95 238 32 39 47
76 88 237 36 44 53
76 89 237 33 42 50
77 88 237 36 44 53
77 89 237 34 42 51
76 88 238 38 46 56
77 88 238 39 47 56
76 90 237 32 40 48
76 91 237 32 39 47
77 90 237 33 41 49
77 91 237 32 39 47
78 89 237 35 42 51
78 88 238 39 47 56
78 89 238 35 43 52
79 88 238 39 48 57
79 89 238 35 43 52
78 90 237 34 41 49
78 91 237 32 39 47
79 90 237 33 41 48
79 91 237 32 39 47
79 90 238 34 41 49
76 92 237 30 38 45
77 92 237 31 38 46
76 93 238 30 37 45
77 92 238 31 38 45
77 93 238 31 38 45
76 94 238 30 38 45
76 95 238 31 39 46
76 95 239 32 40 47
77 94 238 31 38 45
77 95 238 31 38 46
77 95 239 31 39 47
78 92 237 31 38 46
78 92 238 31 38 45
78 93 238 31 38 45
79 92 238 32 38 45
79 93 238 31 38 45
78 94 238 30 37 45
78 95 238 30 38 45
78 95 239 31 38 46
79 94 238 31 38 45
79 95 238 31 38 45
79 95 239 31 38 46
64 81 241 96 104 116
64 80 242 115 124 137
64 80 243 114 123 137
64 81 242 113 121 134
65 80 242 113 122 135
65 80 243 112 121 134
65 81 242 107 115 127
64 82 241 80 85 93
64 83 240 93 88 87
65 82 241 82 87 96
65 83 240 96 91 90
65 83 241 87 85 87
65 82 242 90 97 109
66 80 243 111 120 133
66 81 242 107 115 128
66 81 243 110 118 131
67 80 243 109 118 131
67 81 243 109 117 130
66 83 241 90 87 89
67 83 241 89 85 86
66 82 242 92 100 110
67 82 242 96 103 115
67 82 243 103 111 124
67 83 242 83 89 98
65 84 240 88 83 82
66 84 240 84 80 80
67 84 240 78 75 76
67 84 241 89 85 85
68 80 243 108 117 130
68 81 243 109 118 131
69 80 243 105 114 128
69 81 243 110 118 131
68 83 241 86 84 85
69 83 241 84 82 84
68 82 242 96 104 116
68 82 243 103 111 123
68 83 242 83 87 95
69 82 243 104 112 124
69 83 242 84 87 95
70 80 243 104 114 127
70 81 243 110 118 131
71 80 243 107 116 129
71 81 243 111 119 132
70 82 243 106 114 126
70 83 242 81 84 91
70 83 243 90 96 106
71 82 243 109 117 129
71 83 242 81 84 90
71 83 243 95 102 113
68 80 244 103 113 128
69 80 244 99 110 125
70 80 244 100 110 124
71 80 244 104 114 127
68 84 240 69 68 70
68 84 241 87 83 84
69 84 240 65 65 68
69 84 241 82 79 81
69 85 240 53 55 60
70 84 240 60 60 65
70 84 241 80 78 80
70 85 240 48 51 58
71 84 241 73 72 75
71 85 240 45 49 56
72 80 243 110 118 131
72 81 243 114 122 134
73 80 243 110 118 131
73 81 243 115 122 135
72 82 243 113 120 132
72 83 242 78 83 91
72 83 243 97 104 115
73 82 243 115 122 134
73 83 242 76 81 89
73 83 243 101 107 118
74 80 243 110 118 130
74 81 243 115 122 135
75 80 243 109 117 130
75 81 243 115 121 133
74 82 243 116 123 135
74 83 242 73 78 87
74 83 243 99 106 117
75 82 243 111 118 129
75 83 242 75 82 92
75 83 243 92 99 110
72 80 244 107 116 129
73 80 244 108 117 129
74 80 244 109 117 130
72 84 241 70 69 73
72 85 240 40 46 54
72 85 241 56 57 62
73 84 241 66 66 70
73 85 240 39 46 55
73 85 241 48 50 56
72 84 242 76 76 81
74 84 241 60 61 67
74 85 240 40 47 56
74 85 241 45 49 56
75 84 241 55 59 66
75 85 240 41 49 59
75 85 241 45 51 59
74 84 242 70 71 77
75 84 242 67 72 80
76 80 243 108 116 128
76 81 243 112 119 130
77 80 243 105 113 126
77 81 243 110 116 128
76 82 243 102 109 120
76 83 242 73 81 92
76 83 243 84 92 103
77 82 243 96 104 115
77 83 242 69 78 90
78 80 243 105 113 126
78 81 243 108 115 127
79 80 243 105 113 126
79 81 242 104 111 123
79 81 243 107 115 127
79 83 241 51 60 70
78 82 242 87 96 108
78 82 243 100 108 120
78 83 242 63 73 84
79 82 242 89 97 108
79 83 242 60 69 80
76 84 241 51 57 65
76 85 240 43 51 61
76 85 241 44 51 61
77 84 241 48 54 64
77 85 240 43 52 62
77 85 241 43 51 61
76 84 242 60 66 75
77 84 242 55 62 72
76 86 240 43 52 62
77 86 240 43 52 62
78 84 241 45 52 62
78 85 240 43 51 61
78 85 241 43 50 60
79 84 241 45 52 61
79 85 240 41 49 59
79 85 241 42 49 58
78 84 242 49 57 67
78 86 240 44 53 63
79 86 240 42 51 61
80 86 239 44 53 63
80 87 238 41 50 60
80 87 239 43 52 63
81 86 239 45 54 64
81 87 239 43 52 62
82 85 239 46 54 64
83 84 239 40 47 56
83 85 239 44 52 61
82 86 239 46 55 65
82 87 238 43 51 61
82 87 239 44 53 63
83 86 239 45 54 63
83 87 238 45 53 62
83 87 239 45 54 63
85 83 239 41 48 57
84 84 239 38 46 55
84 85 239 38 46 55
85 84 239 38 45 54
85 85 238 36 43 52
85 85 239 36 44 53
84 86 238 42 50 59
84 86 239 42 50 59
84 87 238 45 52 62
85 86 238 37 45 54
85 87 238 42 50 59
80 88 238 38 47 56
80 89 238 35 43 52
81 88 238 38 47 56
81 89 238 36 44 52
80 91 237 32 39 47
81 91 237 33 40 47
80 90 238 34 41 49
81 90 238 34 41 50
81 91 238 34 40 48
82 88 238 40 48 57
82 89 238 37 45 53
83 88 238 41 50 59
83 89 238 38 46 55
82 91 237 33 40 48
83 90 237 34 42 51
83 91 237 33 40 48
82 90 238 35 42 50
82 91 238 34 41 48
83 90 238 34 42 51
80 92 237 32 39 46
81 92 237 33 39 46
80 92 238 32 38 45
80 93 238 32 38 45
81 92 238 32 39 46
81 93 238 32 38 45
80 94 238 31 38 45
80 95 238 32 38 46
80 95 239 32 39 46
81 94 238 32 38 45
81 95 238 32 39 45
82 92 237 32 39 46
82 93 237 32 39 46
83 92 237 32 39 47
83 93 237 32 39 46
82 92 238 32 39 46
82 93 238 32 38 45
83 94 237 32 39 46
82 94 238 32 38 45
82 95 238 32 39 46
83 94 238 32 39 46
83 95 238 32 39 46
84 89 237 37 46 55
85 88 237 43 52 61
85 89 237 39 47 56
84 88 238 42 51 61
84 89 238 38 46 55
85 88 238 44 52 62
84 90 237 34 43 51
84 91 237 33 41 49
85 90 237 35 44 52
85 91 237 33 41 49
84 92 237 32 40 48
84 93 237 31 39 46
84 94 237 31 39 46
84 94 238 32 39 46
84 95 238 32 39 46
80 80 242 105 113 125
80 80 243 104 112 124
80 81 242 103 110 122
81 80 242 105 113 125
81 81 242 103 110 122
80 83 241 50 60 71
81 82 241 71 80 92
81 83 241 47 57 68
80 82 242 83 92 103
80 83 242 60 70 81
81 82 242 87 95 107
82 81 241 98 107 119
83 80 241 106 113 125
83 81 241 99 108 120
82 80 242 106 113 125
82 81 242 105 112 124
83 80 242 105 113 124
82 82 241 72 82 95
82 83 241 45 56 67
83 82 241 65 76 89
83 83 240 44 52 63
83 83 241 44 54 65
80 84 241 43 50 60
80 85 240 42 50 60
81 84 240 39 47 56
81 84 241 42 50 60
81 85 240 43 51 61
82 84 240 40 48 57
82 84 241 40 48 58
82 85 240 46 53 63
83 84 240 40 47 57
84 80 241 104 111 123
84 81 241 95 104 115
85 80 241 101 108 120
85 81 240 88 96 107
85 81 241 91 99 110
84 82 240 52 62 74
84 82 241 71 81 93
84 83 240 45 53 63
85 82 240 56 65 76
85 83 240 45 53 62
84 84 240 40 47 55
64 120 192 33 42 50
64 120 193 34 42 50
64 121 192 37 44 53
64 121 193 36 44 52
64 120 194 34 42 51
64 121 194 36 44 53
64 121 195 35 44 52
65 122 192 39 47 55
65 122 193 39 47 55
65 123 192 40 47 55
65 123 193 39 47 55
65 122 194 38 46 54
65 122 195 37 45 53
65 123 194 38 46 54
65 123 195 38 46 54
64 121 196 35 43 52
64 121 197 35 43 51
64 121 198 34 43 51
64 121 199 33 42 51
64 122 196 36 44 52
64 122 197 34 43 52
65 122 196 36 44 53
65 122 197 35 44 52
65 123 196 37 45 53
65 123 197 36 44 52
64 122 198 33 42 51
64 122 199 33 42 51
65 122 198 33 42 51
65 122 199 33 42 51
65 123 198 33 42 51
65 123 199 33 42 50
65 124 192 42 49 57
65 124 193 40 47 55
65 124 194 39 46 54
65 124 195 37 45 54
65 125 194 39 47 54
65 125 195 37 45 53
66 124 192 42 49 57
66 125 192 43 49 57
66 125 193 41 48 56
66 125 194 40 48 56
66 125 195 38 46 54
66 126 192 41 49 57
66 126 193 41 48 56
66 127 192 40 48 57
66 127 193 38 47 55
66 126 194 39 47 55
66 126 195 38 45 53
66 127 194 38 46 54
66 127 195 37 45 53
65 124 196 36 44 53
65 124 197 36 44 52
65 125 196 36 44 52
65 125 197 37 44 52
65 124 198 34 43 51
65 124 199 34 43 51
65 125 198 36 44 52
65 125 199 36 43 51
65 126 197 36 44 52
65 126 198 37 44 52
65 126 199 37 44 52
65 127 198 37 45 53
65 127 199 37 45 53
66 126 196 37 44 52
66 126 197 36 44 52
66 127 196 36 44 53
66 127 197 36 44 52
66 126 198 37 44 52
66 127 198 37 45 53
66 127 199 37 45 53
64 121 200 33 42 51
64 121 201 33 42 50
64 121 202 33 42 51
64 121 203 33 42 50
64 122 200 33 42 50
64 122 201 33 41 50
65 122 200 32 41 50
65 122 201 32 41 49
65 123 200 33 41 50
65 123 201 32 41 49
64 122 202 32 41 50
64 122 203 33 41 49
65 122 202 32 41 49
65 122 203 34 41 49
65 123 202 33 41 49
65 123 203 33 41 49
64 121 204 33 42 50
64 122 204 33 41 49
64 122 205 33 41 49
65 122 204 34 41 49
65 122 205 33 41 49
65 123 204 33 41 49
65 123 205 31 40 48
64 122 206 33 41 49
64 122 207 34 41 50
65 122 206 32 40 49
65 122 207 33 40 49
65 123 206 32 40 49
65 123 207 32 40 49
65 124 200 34 42 51
65 124 201 34 42 50
65 125 200 36 43 51
65 125 201 35 43 51
65 124 202 34 42 50
65 124 203 34 42 50
65 125 202 35 43 51
65 126 200 36 44 52
65 126 201 35 43 51
65 127 200 37 44 52
65 127 201 37 44 53
66 124 202 34 42 50
66 124 203 34 42 50
66 125 202 35 43 51
66 125 203 36 43 51
66 126 201 35 43 51
66 127 201 36 44 52
66 126 202 35 43 51
66 126 203 36 44 51
66 127 202 36 43 51
66 127 203 36 43 51
65 124 204 33 41 49
65 124 205 33 41 49
65 124 207 34 42 50
66 124 204 33 41 49
66 124 205 34 42 50
66 125 204 35 42 50
66 125 205 35 43 51
66 124 206 34 42 50
66 124 207 35 43 51
66 125 206 36 43 51
66 125 207 36 43 52
66 126 204 36 43 51
66 126 205 35 43 50
66 127 204 36 43 51
66 127 205 36 43 51
66 126 206 36 43 51
66 126 207 36 44 52
66 127 206 37 44 52
66 127 207 37 44 52
64 122 208 34 42 50
64 122 209 33 42 50
65 123 208 33 41 50
65 123 209 34 42 50
64 122 210 35 42 51
64 122 211 34 42 50
65 122 210 34 43 51
65 122 211 35 42 50
65 123 210 34 42 50
65 123 211 35 42 50
66 123 210 34 42 50
66 123 211 35 42 50
64 122 212 34 42 49
64 122 213 34 41 49
65 123 212 35 42 50
65 123 213 34 41 49
64 122 214 33 40 48
64 122 215 31 39 46
65 122 214 33 40 48
65 122 215 31 39 47
65 123 214 33 40 48
65 123 215 33 40 47
66 123 212 35 42 49
66 123 213 36 42 49
66 123 214 35 41 48
66 123 215 33 40 48
65 124 208 34 42 50
66 124 208 36 43 51
66 124 209 35 43 51
66 125 208 36 43 52
66 125 209 36 44 52
66 124 210 34 43 51
66 124 211 34 42 51
66 125 210 35 43 51
66 125 211 35 43 51
66 126 208 36 44 52
66 126 209 35 43 51
66 127 208 36 44 52
66 127 209 35 44 52
66 126 210 35 43 52
66 126 211 36 44 52
66 127 210 35 44 52
66 127 211 36 44 52
67 127 211 36 44 52
66 124 212 34 42 50
66 124 213 36 42 49
66 125 212 34 42 50
66 125 213 35 42 50
66 124 214 35 42 49
66 124 215 34 40 47
66 125 214 35 42 49
66 125 215 35 41 49
67 125 214 35 42 49
67 125 215 34 41 48
66 126 212 35 43 51
67 126 212 35 43 51
67 126 213 35 42 50
67 127 212 36 43 51
67 127 213 34 42 50
67 126 214 35 42 50
67 126 215 35 41 49
67 127 214 34 42 49
67 127 215 35 41 49
64 122 216 32 39 46
64 122 217 32 39 45
64 123 216 33 39 46
64 123 217 33 39 46
65 123 216 32 39 46
65 123 217 31 38 45
64 123 218 32 38 45
64 123 219 31 37 44
65 123 218 32 38 45
65 123 219 32 38 45
64 123 220 30 37 43
64 123 221 30 36 43
65 123 220 31 37 44
65 123 221 31 37 43
64 123 222 30 36 42
64 123 223 30 36 43
65 123 222 30 36 42
65 123 223 29 35 41
66 123 220 31 37 44
66 123 221 30 37 43
66 123 222 30 36 43
66 123 223 29 35 41
66 124 216 32 39 47
66 124 217 31 39 46
67 125 216 33 40 47
67 125 217 33 40 47
66 124 218 31 38 46
66 124 219 32 39 46
67 124 218 33 40 47
67 124 219 33 40 47
67 125 218 33 40 47
67 125 219 33 40 48
67 126 216 34 41 48
67 126 217 34 41 48
67 127 216 35 41 48
67 127 217 35 41 49
67 126 218 34 41 48
66 124 220 31 38 45
66 124 221 30 37 44
67 124 220 32 39 46
67 124 221 31 38 45
67 125 220 33 40 47
66 124 222 29 36 42
66 124 223 29 35 41
67 124 222 30 36 43
67 124 223 29 35 41
68 125 219 33 40 47
68 127 217 35 41 49
68 126 218 34 41 48
68 126 219 33 40 47
68 127 218 34 41 49
68 127 219 34 41 49
69 127 219 34 41 49
68 124 221 32 39 46
68 125 220 33 40 48
68 125 221 32 39 46
68 124 222 31 38 45
68 124 223 29 35 42
68 125 222 31 38 45
68 125 223 30 36 43
69 125 222 31 37 45
69 125 223 29 35 42
68 126 220 33 40 48
69 126 220 33 41 48
69 126 221 33 40 47
69 127 220 34 40 48
69 127 221 33 40 47
69 126 222 31 38 46
70 125 223 30 36 43
70 127 221 33 40 47
70 126 222 33 39 46
70 126 223 31 37 44
70 127 222 34 40 47
71 126 223 33 39 46
71 127 222 35 41 48
71 127 223 35 41 47
72 127 223 35 40 47
64 96 236 39 46 55
64 97 236 40 48 56
65 96 236 39 46 54
65 97 236 40 47 55
65 97 237 41 48 56
64 98 236 44 51 60
64 99 236 44 52 60
64 99 237 44 51 60
65 98 236 42 50 58
65 98 237 42 50 58
65 99 237 42 49 58
66 96 236 38 45 53
66 96 237 38 45 53
66 97 237 40 47 55
67 96 237 37 44 52
67 97 237 38 46 53
66 98 237 41 48 56
66 99 237 40 48 56
67 98 237 40 47 55
66 98 238 39 46 55
66 99 238 39 46 55
67 98 238 39 46 54
67 99 238 38 46 54
64 100 236 42 50 59
64 100 237 40 48 57
64 101 237 40 47 56
65 100 237 42 49 57
65 101 237 41 48 57
65 101 238 43 50 58
64 102 237 40 48 56
64 103 237 40 47 55
65 102 237 41 48 57
65 102 238 42 49 57
65 103 238 41 48 56
66 100 238 41 48 56
66 101 238 43 50 57
67 100 238 40 46 54
67 101 238 41 47 55
66 102 238 43 49 57
66 103 238 41 48 55
67 102 238 40 47 55
67 102 239 39 46 54
67 103 238 40 47 54
67 103 239 39 46 53
68 96 237 36 43 50
68 97 237 37 44 52
69 96 237 36 43 50
68 97 238 37 44 52
69 96 238 36 43 51
69 97 238 37 44 52
68 98 238 39 46 54
68 99 238 39 46 54
69 98 238 39 46 54
69 99 238 40 47 55
69 99 239 40 47 55
70 96 238 36 43 50
70 97 238 38 45 52
71 96 238 35 42 50
71 97 238 37 44 52
71 97 239 37 44 52
70 98 238 39 45 53
70 98 239 40 47 55
70 99 239 40 47 55
71 98 239 39 46 54
71 99 239 40 47 55
68 100 238 39 46 54
68 100 239 39 46 54
68 101 238 39 46 54
68 101 239 39 46 54
69 100 239 40 47 55
69 101 239 39 46 54
68 102 239 39 46 53
68 103 239 38 45 53
69 102 239 40 46 54
69 103 239 38 45 53
70 100 239 40 47 55
70 101 239 39 46 54
71 100 239 39 47 55
71 101 239 39 46 54
70 102 239 39 46 54
70 103 239 39 45 53
71 102 239 39 46 54
64 104 237 40 47 55
64 105 237 39 46 54
64 105 238 38 46 54
65 104 238 40 47 55
65 105 238 39 46 54
64 106 237 37 45 53
64 106 238 37 45 53
64 107 238 37 44 52
65 106 238 37 45 53
65 107 238 37 45 52
66 104 238 39 46 54
66 104 239 39 46 54
66 105 238 39 46 54
66 105 239 39 46 53
67 104 239 39 45 53
67 105 239 39 45 53
66 106 238 38 45 53
66 106 239 38 45 53
66 107 239 38 45 52
67 106 239 38 45 52
67 107 239 39 45 53
64 108 238 37 45 53
64 109 238 38 45 52
65 108 238 37 45 53
65 108 239 38 45 53
65 109 238 38 45 52
65 109 239 38 45 52
64 110 238 38 44 52
64 110 239 38 44 52
64 111 238 38 44 51
64 111 239 38 44 52
65 110 239 38 45 52
65 111 239 38 44 52
66 108 239 38 45 53
66 109 239 38 45 52
68 104 239 38 45 52
68 105 239 38 45 52
69 104 239 38 44 52
69 105 239 37 44 51
68 106 239 38 45 52
72 96 238 35 42 50
72 97 238 36 43 51
72 97 239 37 44 52
73 96 238 35 42 49
73 97 239 37 43 51
72 98 239 38 45 53
72 99 239 39 46 54
73 98 239 37 45 52
73 99 239 38 45 53
74 96 238 34 41 48
74 96 239 35 42 49
74 97 239 36 43 50
75 96 239 34 41 49
75 97 239 36 43 50
74 98 239 37 44 52
74 99 239 38 45 53
75 98 239 37 44 52
72 100 239 39 46 54
73 100 239 38 45 53
76 96 239 33 41 48
76 97 239 35 42 50
77 96 239 33 40 47
77 97 239 35 42 49
76 98 239 36 43 50
78 96 239 32 39 46
78 97 239 34 40 48
79 96 239 32 39 47
79 97 239 33 40 47
71 101 240 38 46 54
70 103 240 38 45 53
71 102 240 38 45 53
71 103 240 37 44 52
67 107 240 38 45 52
65 110 240 38 44 52
65 111 240 38 44 51
66 109 240 38 45 52
67 108 240 38 45 52
67 109 240 37 44 51
66 110 240 37 44 52
66 111 240 37 44 51
66 111 241 37 44 51
67 110 240 37 44 51
67 110 241 37 43 50
67 111 241 37 43 50
69 104 240 38 45 52
69 105 240 37 44 51
68 106 240 38 44 52
68 107 240 38 45 53
69 106 240 37 43 51
69 107 240 37 44 51
69 107 241 36 43 50
70 104 240 38 44 52
70 105 240 37 44 51
71 104 240 37 44 51
71 105 240 37 43 51
71 105 241 37 44 51
70 106 240 37 44 51
70 106 241 37 43 51
70 107 241 36 43 50
71 106 241 37 43 51
71 107 241 36 43 50
68 108 240 38 44 52
68 109 240 37 44 51
68 109 241 37 43 51
69 108 240 38 44 52
69 108 241 36 43 50
69 109 241 36 43 50
68 110 241 37 43 50
68 111 241 37 43 50
69 110 241 36 43 50
68 111 242 37 43 50
69 110 242 36 43 50
69 111 242 37 44 51
69 111 243 38 44 51
70 108 241 36 43 50
71 108 241 35 42 49
70 109 242 36 43 50
71 108 242 35 42 50
71 109 242 36 42 50
71 109 243 37 43 50
70 110 242 36 42 50
70 110 243 36 43 50
70 111 243 37 44 51
71 110 243 37 44 51
71 111 243 37 44 51
71 111 244 38 45 52
74 99 240 39 46 54
75 98 240 38 45 52
75 99 240 38 45 53
72 100 240 38 45 53
72 101 240 37 45 53
73 100 240 39 46 54
73 101 240 38 45 53
72 102 240 36 44 52
72 103 240 36 44 51
73 102 240 37 45 53
73 103 240 36 43 51
73 103 241 36 43 51
74 100 240 39 46 54
74 101 240 39 46 54
75 100 240 39 46 53
75 101 240 38 46 53
74 102 240 38 45 53
74 102 241 37 45 52
74 103 241 36 44 52
75 102 240 38 45 53
75 102 241 37 45 52
75 103 241 37 44 52
76 98 240 38 44 52
76 99 240 38 45 53
77 98 240 36 43 51
77 99 240 37 44 52
78 97 240 34 41 49
79 97 240 33 41 48
78 98 240 36 43 50
78 99 240 36 44 51
79 98 240 35 42 49
79 99 240 36 43 50
79 99 241 36 43 51
76 100 240 38 45 53
76 101 240 38 45 53
76 101 241 37 44 52
77 100 240 38 45 52
77 100 241 37 44 52
77 101 241 37 44 52
76 102 241 37 44 52
76 103 241 37 44 51
77 102 241 37 44 52
76 103 242 36 44 51
77 103 242 37 44 51
78 100 240 37 44 51
78 100 241 37 44 52
78 101 241 38 44 52
79 100 241 37 44 51
79 101 241 37 44 51
79 101 242 37 44 51
78 102 241 37 44 51
78 102 242 37 44 51
78 103 242 38 44 52
79 102 242 37 44 51
79 103 242 37 44 51
79 103 243 37 44 51
72 104 240 36 43 51
72 104 241 36 43 51
72 105 241 37 44 51
73 104 241 35 43 51
73 105 241 36 43 50
72 106 241 36 43 50
72 107 241 36 43 50
73 106 241 36 43 50
72 106 242 36 43 50
72 107 242 36 43 50
73 106 242 36 43 50
73 107 242 37 43 50
74 104 241 36 44 51
74 105 241 36 43 50
75 104 241 36 44 51
75 105 241 36 43 51
74 105 242 35 43 50
75 104 242 36 43 51
75 105 242 36 43 51
74 106 242 36 43 50
74 107 242 37 43 50
74 107 243 37 43 51
75 106 242 37 43 51
75 106 243 37 44 51
75 107 243 38 44 52
72 108 242 37 43 50
72 108 243 38 44 50
72 109 242 36 43 50
72 109 243 37 44 50
73 108 243 38 44 51
73 109 243 38 44 51
72 110 243 37 44 51
74 108 243 37 44 51
72 109 244 39 45 52
73 109 244 38 45 52
72 110 244 38 45 52
72 111 244 39 46 53
72 111 245 40 46 54
73 110 244 39 46 53
73 110 245 40 46 54
73 111 245 41 47 55
74 108 244 37 44 51
74 109 244 38 45 52
74 109 245 39 45 53
75 108 244 39 46 53
75 109 244 40 46 54
75 109 245 41 48 55
74 110 245 40 47 54
74 111 245 42 48 56
75 110 245 41 48 56
74 111 246 43 49 56
75 110 246 42 49 58
75 111 246 43 50 58
76 104 242 37 44 51
76 105 242 37 44 51
76 105 243 38 45 52
77 104 242 37 44 51
77 104 243 37 44 51
77 105 243 38 44 52
76 106 242 37 43 51
76 106 243 37 44 52
76 107 243 38 45 52
77 106 243 38 45 52
78 104 243 38 45 52
78 105 243 38 45 52
79 104 243 38 45 52
76 106 244 38 45 53
76 107 244 39 46 53
77 106 244 37 44 52
77 107 244 39 46 54
77 107 245 40 47 55
78 105 244 38 45 52
79 104 244 39 45 52
79 105 244 39 45 53
78 106 244 39 46 53
78 106 245 41 48 55
78 107 245 40 47 55
79 106 244 40 46 53
79 106 245 40 47 54
79 107 245 40 47 54
76 108 244 39 46 54
76 108 245 41 48 56
76 109 245 41 48 57
77 108 245 40 48 56
76 109 246 42 50 59
77 108 246 41 48 56
77 109 246 42 49 58
76 110 246 43 51 59
76 111 246 43 50 59
77 110 246 42 50 59
77 111 246 40 48 57
77 111 247 38 46 54
78 108 245 40 47 55
79 108 245 40 47 54
78 108 246 41 48 56
78 109 246 41 48 56
79 108 246 40 47 55
79 109 246 40 47 54
78 110 246 39 47 55
78 111 247 38 45 52
79 110 246 39 46 53
79 110 247 38 45 52
79 111 247 36 42 49
64 112 239 38 44 51
64 113 239 38 44 51
64 114 239 40 46 53
64 115 239 39 46 54
64 116 239 40 48 56
64 117 238 43 51 60
64 117 239 43 51 59
64 119 237 47 56 66
64 118 238 45 53 62
64 118 239 45 53 62
64 119 238 46 55 65
65 118 239 45 53 63
65 119 238 47 56 66
65 119 239 47 56 66
64 123 224 32 38 46
64 123 225 33 41 49
65 123 224 30 36 43
65 123 225 31 38 45
64 123 226 35 44 52
64 123 227 37 47 56
65 123 226 32 39 47
65 123 227 34 43 51
66 123 224 29 35 41
66 123 225 29 35 42
66 123 226 30 37 44
66 123 227 32 40 48
64 123 228 41 51 61
64 123 229 43 53 64
65 123 228 37 47 56
65 123 229 41 50 60
64 123 230 46 56 67
64 123 231 47 58 69
65 123 230 44 53 64
65 123 231 45 56 66
66 123 228 35 43 52
66 123 229 38 47 56
66 123 230 41 50 60
66 123 231 45 54 65
66 124 224 29 35 41
67 124 224 29 35 41
67 124 225 29 34 41
67 124 226 29 36 42
67 124 227 31 38 45
66 124 229 38 47 56
67 124 228 33 41 49
67 124 229 36 44 53
66 124 230 42 51 60
66 124 231 44 54 64
67 124 230 38 47 56
67 124 231 41 51 60
68 124 224 29 35 40
68 124 225 29 35 40
69 124 225 29 34 40
69 125 224 29 34 40
69 125 225 29 34 40
68 124 226 29 34 40
68 124 227 29 35 42
69 124 226 29 34 40
69 124 227 29 34 40
70 125 224 30 35 41
70 125 225 29 34 40
71 125 225 30 35 41
70 124 226 29 34 40
70 124 227 28 34 39
70 125 226 29 34 39
71 124 227 28 33 39
71 125 226 30 34 40
71 125 227 29 34 39
71 126 224 30 36 43
71 126 225 30 35 41
68 124 228 30 37 45
68 124 229 32 40 48
69 124 228 29 35 42
69 124 229 30 37 44
68 124 230 35 43 52
68 124 231 39 48 57
69 124 230 32 41 49
69 124 231 37 45 54
70 124 228 28 34 40
70 124 229 28 35 42
71 124 228 27 33 39
71 124 229 27 34 40
70 124 230 31 39 47
70 124 231 35 43 52
71 124 230 29 36 43
71 124 231 33 41 49
64 121 235 48 58 70
64 122 233 49 60 71
64 123 232 48 59 70
64 123 233 49 59 71
65 123 232 46 57 68
65 123 233 47 58 69
64 122 234 48 59 71
64 122 235 48 58 70
64 123 234 49 59 71
65 122 234 49 59 71
65 122 235 48 59 71
65 123 234 48 58 70
65 123 235 48 59 71
66 123 232 45 55 65
66 123 233 46 56 67
67 123 233 45 55 66
66 123 234 47 57 68
66 123 235 48 58 70
67 123 234 46 56 67
67 123 235 48 58 69
64 120 236 47 57 68
64 120 237 47 57 67
64 121 236 48 58 69
64 121 237 47 57 69
65 120 237 47 57 68
65 121 236 48 59 70
65 121 237 48 58 70
65 120 238 48 58 68
65 120 239 48 57 68
65 121 238 48 58 69
65 122 236 48 59 70
66 121 237 48 59 70
66 120 238 48 58 69
66 120 239 48 57 68
66 121 238 49 59 70
67 121 238 49 59 71
67 121 239 48 59 70
66 122 236 48 59 70
66 122 237 49 59 71
66 123 236 48 58 70
67 122 237 49 59 71
67 123 236 48 58 70
67 123 237 49 59 71
67 122 238 49 59 71
67 122 239 49 59 71
66 124 232 45 54 65
67 124 232 43 53 63
67 124 233 44 53 64
67 124 234 45 55 66
67 124 235 47 57 69
68 123 237 48 58 71
69 123 237 47 58 71
68 122 238 48 59 72
68 122 239 48 59 71
68 123 238 48 59 72
69 122 239 47 59 71
69 123 238 47 58 71
69 123 239 48 59 71
70 123 238 46 57 69
70 123 239 46 57 70
71 123 239 45 56 68
68 124 232 41 50 60
68 124 233 43 52 62
69 124 232 39 48 57
69 124 233 41 50 60
68 124 234 45 55 66
68 124 235 47 57 68
69 124 234 45 54 64
69 124 235 48 57 68
70 124 232 38 46 55
70 124 233 40 49 59
71 124 232 37 45 53
71 124 233 40 49 58
70 124 234 44 54 64
70 124 235 47 57 68
71 124 234 44 53 63
71 124 235 46 55 66
68 124 236 48 58 70
68 124 237 48 58 70
69 124 236 48 58 70
69 124 237 47 58 70
70 124 236 47 58 69
70 124 237 47 57 69
71 124 236 46 56 68
71 124 237 45 56 68
70 124 238 46 57 69
71 124 238 45 56 68
71 124 239 44 56 67
72 125 226 29 34 40
72 125 227 29 34 40
73 125 227 29 34 40
72 126 224 32 37 43
72 126 225 31 36 42
72 127 224 34 40 46
73 126 225 30 36 42
73 127 224 32 39 45
73 127 225 32 38 44
72 126 226 31 35 41
73 126 226 30 35 41
73 126 227 29 34 40
74 127 225 31 37 44
74 126 227 29 35 41
74 127 226 30 37 44
74 127 227 29 36 43
75 126 227 29 35 41
75 127 226 30 37 45
75 127 227 29 36 43
72 124 229 27 33 40
72 125 228 28 33 39
72 125 229 28 33 39
73 125 228 28 33 39
73 125 229 28 33 39
72 124 230 28 34 41
72 124 231 31 39 46
72 125 230 28 35 42
73 125 230 27 34 40
73 125 231 29 37 44
74 125 228 28 33 39
74 125 229 27 32 38
75 125 228 29 34 39
75 125 229 28 33 38
74 125 230 27 33 39
74 125 231 28 36 43
75 125 230 27 33 38
75 125 231 28 35 41
74 126 228 29 35 41
75 126 228 29 34 40
76 127 226 31 38 46
76 127 227 31 38 45
77 127 227 31 38 45
76 125 229 28 33 38
76 125 230 26 32 38
76 125 231 29 35 41
77 125 230 27 32 38
77 125 231 28 34 40
76 126 228 29 35 41
76 126 229 29 34 39
76 127 228 29 36 42
77 126 229 29 34 40
77 127 228 29 36 43
77 127 229 29 35 41
76 126 230 27 32 38
77 126 230 28 33 38
78 125 231 26 33 40
79 125 231 27 34 41
78 126 229 29 34 41
78 127 229 29 36 43
79 127 229 30 36 43
78 126 230 27 33 39
78 126 231 26 33 39
79 126 230 29 34 41
79 126 231 28 33 40
79 127 230 29 35 41
72 124 232 35 43 51
72 124 233 40 48 57
73 124 232 35 43 51
73 124 233 40 48 56
73 125 232 34 41 49
73 125 233 39 47 56
72 124 234 44 53 63
72 124 235 44 54 64
73 124 234 44 52 62
73 124 235 45 54 64
73 125 234 46 54 64
73 125 235 45 54 64
74 125 232 33 40 48
74 125 233 38 45 54
75 125 232 31 38 45
75 125 233 35 43 51
74 125 234 44 52 61
74 125 235 45 54 63
75 125 234 40 48 57
75 125 235 42 50 60
72 124 236 44 54 65
72 124 237 44 55 66
73 124 236 44 54 65
73 124 237 44 54 65
72 124 238 44 55 66
72 124 239 44 55 67
73 124 238 43 54 65
73 124 239 43 54 65
74 124 236 44 54 64
74 124 237 44 54 65
74 125 236 44 54 64
75 124 237 43 53 63
75 125 236 43 52 62
75 125 237 44 53 63
74 124 238 44 54 65
74 124 239 43 53 65
75 124 238 43 52 63
75 124 239 42 53 64
79 123 239 42 51 61
76 125 232 31 37 44
76 125 233 34 41 49
77 125 232 31 37 44
77 125 233 35 41 48
76 125 234 39 46 54
76 125 235 41 49 57
77 125 234 38 45 52
77 125 235 40 48 56
78 125 232 29 36 44
78 125 233 33 39 47
79 125 232 28 35 43
79 125 233 30 37 45
78 125 234 35 42 50
78 125 235 37 45 52
79 125 234 33 40 48
79 125 235 35 42 50
76 124 237 43 51 61
76 125 236 42 51 60
77 124 236 43 51 59
77 124 237 41 50 59
77 125 236 42 50 58
76 124 238 42 52 62
76 124 239 43 53 64
77 124 238 41 51 60
77 124 239 42 51 62
78 124 236 37 45 54
78 124 237 38 46 55
78 125 236 39 46 54
79 124 236 36 44 52
79 124 237 36 45 53
78 124 238 40 49 58
78 124 239 41 50 60
64 113 240 38 45 52
65 112 240 38 44 51
65 112 241 38 44 51
65 113 240 39 45 52
65 113 241 40 46 53
64 114 240 39 46 53
64 115 240 39 46 54
65 114 240 39 46 53
65 114 241 40 46 54
65 115 240 39 46 53
65 115 241 39 46 54
66 112 241 39 45 52
66 113 241 40 46 53
67 112 241 38 44 51
66 113 242 41 47 54
67 112 242 38 44 51
67 113 242 40 46 53
66 114 241 40 46 54
66 115 241 39 46 54
66 114 242 40 47 54
66 115 242 40 46 54
67 114 242 40 47 54
67 114 243 39 46 54
67 115 242 40 47 55
67 115 243 40 47 55
64 116 240 39 47 55
64 117 240 42 50 58
65 116 240 40 48 56
65 116 241 40 47 55
65 117 240 43 51 59
65 117 241 43 51 60
65 118 240 45 53 63
65 119 240 47 55 65
66 116 241 41 48 57
66 117 241 43 51 60
66 116 242 41 48 56
66 117 242 43 50 59
67 116 242 42 49 57
67 116 243 41 49 57
67 117 242 43 51 60
67 117 243 43 51 61
66 118 240 46 54 64
66 118 241 45 53 63
66 119 240 47 56 66
66 119 241 47 55 65
67 118 241 45 54 64
67 119 241 46 55 66
67 118 242 45 54 64
67 119 242 45 55 65
68 112 242 38 44 51
68 112 243 38 44 51
68 113 242 38 45 52
68 113 243 38 45 52
69 112 243 38 44 52
69 113 243 38 45 52
68 114 243 39 46 53
68 115 243 40 47 55
70 112 243 38 45 52
69 113 244 38 45 52
68 114 244 39 46 53
68 115 244 40 47 55
69 114 244 39 46 53
69 115 244 40 48 55
69 115 245 40 47 55
70 112 244 38 45 52
70 113 244 38 45 52
70 113 245 38 45 52
71 112 244 38 45 52
71 112 245 38 45 53
71 113 245 39 46 53
70 114 245 38 45 53
70 115 245 39 46 54
71 114 245 37 45 52
71 115 245 38 45 53
71 114 246 38 46 54
71 115 246 39 46 54
68 116 243 41 49 57
68 117 243 43 51 60
68 118 243 45 54 64
68 119 242 46 56 66
68 119 243 47 56 67
69 119 243 47 57 68
68 116 244 41 49 57
68 117 244 45 53 61
69 116 244 41 49 57
69 116 245 41 49 57
69 117 244 45 53 61
69 117 245 45 53 62
68 118 244 46 54 64
69 118 244 46 54 65
69 119 244 47 56 67
70 116 245 42 49 57
70 117 245 44 52 61
71 116 246 40 47 56
71 117 246 42 50 59
70 118 245 45 54 64
70 119 244 47 57 67
70 119 245 47 56 67
71 118 245 45 54 64
71 119 245 46 56 66
71 118 246 45 53 63
71 119 246 46 55 66
66 120 240 47 57 67
67 120 240 48 58 69
67 120 241 48 58 69
67 121 240 49 59 71
68 120 241 48 59 70
68 121 240 48 59 71
68 121 241 49 59 71
69 121 241 49 60 71
68 120 242 47 57 69
69 120 242 49 59 70
69 120 243 47 57 69
69 121 242 49 60 71
68 122 240 48 59 71
69 122 240 48 59 71
69 122 241 49 59 71
70 120 243 47 58 69
70 121 242 49 60 71
70 121 243 48 59 70
71 121 243 48 59 71
70 122 241 48 59 71
70 123 240 48 59 71
70 123 241 48 59 71
71 122 241 48 59 71
71 123 240 45 57 69
71 123 241 47 58 70
70 122 242 48 59 71
71 122 242 47 59 71
71 122 243 48 59 71
71 123 242 46 57 70
69 120 244 48 58 68
