ply
format ascii 1.0
comment PCL generated
element vertex 2037
property float x
property float y
property float z
property uchar red
property uchar green
property uchar blue
element camera 0
property float view_px
property float view_py
property float view_pz
property float x_axisx
property float x_axisy
property float x_axisz
property float y_axisx
property float y_axisy
property float y_axisz
property float z_axisx
property float z_axisy
property float z_axisz
property float focal
property float scalex
property float scaley
property float centerx
property float centery
property int viewportx
property int viewporty
property float k1
property float k2
end_header
120 592 397 190 141 130
120 593 396 190 142 131
120 593 397 189 141 130
121 593 396 188 141 130
121 593 397 187 140 129
120 592 398 189 141 129
120 592 399 189 142 130
120 593 398 188 140 129
121 592 399 190 142 130
121 593 398 188 141 129
121 593 399 188 141 129
121 594 396 186 139 128
121 594 397 185 139 127
122 593 398 185 138 126
122 593 399 184 137 125
122 594 396 184 137 125
122 594 397 184 137 125
122 595 396 184 137 126
123 594 397 183 136 125
123 595 396 182 134 123
123 595 397 182 133 122
122 594 398 184 138 125
123 594 398 183 136 124
123 594 399 182 135 122
120 596 392 190 145 134
120 596 393 191 145 134
120 597 392 190 145 133
121 596 393 191 144 133
121 597 392 189 143 131
121 597 393 190 144 133
121 596 394 190 143 132
122 597 392 191 144 132
122 597 393 190 143 132
123 597 392 190 143 131
123 597 393 190 142 130
122 596 394 188 141 130
122 596 395 186 139 128
122 597 394 189 142 131
123 596 394 187 139 128
123 596 395 184 136 125
123 597 394 188 140 129
122 598 392 190 142 131
123 598 392 190 142 129
124 595 396 181 131 120
124 595 397 180 131 120
125 595 397 181 130 119
124 594 398 181 133 121
124 594 399 182 133 121
124 595 398 181 132 121
125 594 399 183 133 121
125 595 398 184 134 123
125 595 399 185 135 123
126 595 398 189 137 127
126 595 399 189 138 126
124 597 393 190 141 129
125 597 393 191 141 129
124 596 394 185 137 126
124 596 395 183 133 122
124 597 394 187 137 126
125 596 395 184 134 124
125 597 394 187 137 126
125 597 395 185 135 124
124 598 392 191 141 128
125 598 392 193 142 129
125 598 393 192 142 129
126 597 394 189 137 125
126 597 395 189 137 126
127 597 394 192 139 127
127 597 395 192 139 128
126 598 392 193 141 128
126 598 393 191 140 127
127 598 392 192 140 127
127 598 393 192 139 127
127 598 394 192 139 126
124 596 396 180 130 120
125 596 396 183 133 123
125 596 397 183 132 122
125 596 398 185 134 124
126 596 396 188 137 126
126 596 397 188 137 127
126 597 396 190 138 128
127 596 396 191 138 128
127 596 397 190 138 128
127 597 396 191 138 127
126 596 398 189 136 127
127 596 398 190 137 127
127 596 399 190 138 127
120 601 387 195 148 136
121 601 387 194 145 133
120 603 384 194 145 133
120 603 385 193 145 133
121 603 384 197 148 136
121 603 385 195 146 133
120 602 386 194 145 134
120 602 387 195 148 136
121 602 386 194 145 133
121 602 387 194 146 134
121 603 386 194 145 133
122 601 387 195 146 134
123 601 387 197 147 135
122 603 385 196 146 133
123 603 385 196 146 133
122 602 386 197 148 136
122 602 387 196 147 135
122 603 386 196 147 134
123 602 386 198 148 136
123 602 387 198 148 135
123 603 386 197 147 134
120 600 388 193 146 134
120 600 389 193 146 134
120 601 388 195 147 136
121 600 388 192 143 131
121 600 389 192 144 132
121 601 388 193 144 131
122 600 388 192 142 130
122 600 389 191 142 129
122 601 388 194 145 132
123 600 388 193 143 131
123 600 389 191 141 129
123 601 388 195 145 133
120 604 384 193 143 131
121 604 384 197 148 136
122 604 384 197 147 134
123 604 384 198 148 135
124 601 387 196 146 133
125 601 387 191 141 128
124 603 385 197 147 133
125 603 385 196 145 132
124 602 386 199 148 135
124 602 387 197 147 135
124 603 386 198 147 134
125 602 386 195 144 132
125 602 387 193 142 129
125 603 386 196 145 133
126 601 387 188 138 125
127 601 387 185 136 124
126 603 384 193 142 129
126 603 385 194 143 131
127 603 384 192 141 128
127 603 385 191 140 128
126 602 386 192 142 130
126 602 387 190 141 129
126 603 386 193 142 130
127 602 386 191 142 130
127 602 387 190 142 131
127 603 386 190 140 128
124 600 388 192 140 128
124 600 389 190 139 126
124 601 388 194 143 130
125 600 388 190 139 127
125 600 389 190 139 127
125 601 388 190 139 126
126 600 388 189 139 127
126 600 389 188 138 125
126 601 388 188 139 126
127 600 389 185 136 123
127 601 388 186 137 125
126 600 390 188 136 123
127 600 390 186 136 123
124 604 384 199 148 135
125 604 384 197 146 132
126 604 384 194 143 130
127 604 384 191 140 126
118 592 400 188 141 128
118 592 401 188 140 127
119 592 400 189 141 129
119 592 401 189 141 129
118 592 402 188 141 128
118 592 403 188 143 129
119 592 402 190 142 130
119 592 403 190 144 131
118 592 404 188 143 129
119 592 404 190 145 132
119 592 405 188 143 130
119 592 406 185 141 129
119 592 407 185 141 129
118 592 409 184 141 129
119 592 408 184 141 129
119 592 409 185 142 130
118 592 410 186 143 131
118 592 411 186 143 131
119 592 410 185 143 131
119 592 411 186 143 132
118 592 412 186 144 132
118 592 413 184 141 129
119 592 412 186 143 131
119 592 413 184 141 128
118 592 414 184 140 128
118 592 415 183 138 125
119 592 414 183 138 126
119 592 415 182 136 123
120 592 400 189 141 130
120 592 401 190 142 130
121 592 400 189 142 130
121 592 401 190 143 131
121 593 400 188 141 129
121 593 401 189 142 130
120 592 402 191 144 131
120 592 403 191 145 132
121 592 402 190 144 131
121 592 403 190 145 132
121 593 402 189 143 130
121 593 403 189 144 130
122 593 400 185 138 124
122 593 401 185 139 126
123 593 400 183 137 124
123 593 401 183 137 124
122 593 402 186 140 127
122 593 403 186 141 127
123 593 402 183 137 125
123 593 403 183 138 125
123 594 400 183 136 124
120 592 404 191 145 133
120 592 405 188 143 131
121 592 404 189 144 131
121 592 405 186 142 129
120 592 406 185 142 130
120 592 407 185 142 130
121 592 406 185 142 129
121 592 407 185 142 130
122 593 404 185 140 127
122 593 405 183 139 126
123 593 404 182 137 124
123 593 405 180 134 122
122 592 406 184 141 129
122 592 407 183 141 128
122 593 406 182 139 126
122 593 407 180 137 124
123 593 406 178 133 120
123 593 407 178 132 119
124 593 402 182 136 123
124 593 403 182 135 123
124 594 400 183 135 123
124 594 401 183 135 122
125 594 400 183 133 121
125 594 401 184 135 122
125 595 400 185 135 122
125 595 401 185 135 122
124 594 402 182 135 122
124 594 403 182 135 122
125 594 402 183 136 122
125 594 403 183 135 122
126 594 401 187 138 125
126 595 400 189 138 126
126 595 401 188 139 126
127 595 400 190 139 126
127 595 401 190 140 127
126 594 402 187 139 126
126 594 403 187 139 126
126 595 402 189 141 128
127 595 402 190 141 128
127 595 403 189 140 127
124 593 404 181 135 122
124 593 405 178 131 119
124 593 406 177 130 118
124 593 407 178 131 118
124 594 404 180 134 121
125 594 404 181 134 121
125 594 405 179 131 118
125 594 406 180 134 121
125 594 407 181 135 122
126 594 404 185 137 124
126 594 405 184 137 124
127 594 404 187 139 126
127 594 405 187 140 126
127 595 404 188 140 127
127 595 405 188 140 127
126 594 406 184 138 125
126 594 407 185 139 126
127 594 406 186 139 126
127 594 407 186 140 127
127 595 406 187 139 127
127 595 407 187 140 126
127 596 400 190 138 126
120 592 408 184 140 129
120 592 409 184 143 130
121 592 408 182 139 127
121 592 409 183 141 129
120 592 410 185 142 130
120 592 411 184 142 130
121 592 410 184 142 130
121 592 411 183 141 128
122 592 408 181 138 125
122 592 409 181 138 126
122 593 408 179 135 122
122 593 409 179 136 124
123 593 408 178 133 120
123 593 409 178 134 121
122 592 410 182 141 128
122 593 410 181 138 125
122 593 411 180 138 125
123 593 410 179 134 121
123 593 411 181 137 124
120 592 412 182 140 127
120 592 413 182 139 125
121 592 412 182 140 126
121 592 413 181 138 125
120 592 414 182 137 124
120 592 415 182 137 124
121 592 414 182 137 124
121 592 415 183 138 125
121 593 414 183 138 125
121 593 415 184 139 126
122 593 412 181 138 125
122 593 413 182 138 125
123 593 412 182 138 125
123 593 413 184 138 126
122 593 414 184 139 126
122 593 415 186 141 129
123 593 414 186 141 128
123 593 415 188 143 130
124 593 408 178 132 119
124 593 409 179 132 120
125 593 409 181 134 121
124 593 410 180 134 121
124 593 411 183 137 123
125 593 410 183 136 123
125 594 408 181 135 122
125 594 409 183 135 123
125 594 410 185 137 124
125 594 411 185 137 125
126 594 408 185 139 126
126 594 409 186 138 126
127 594 408 187 141 127
127 594 409 187 139 126
127 595 408 186 140 127
126 594 410 186 138 126
126 594 411 187 138 126
127 594 410 188 139 127
127 594 411 189 140 128
124 593 412 185 139 126
124 593 413 186 140 127
124 593 414 188 143 130
124 593 415 189 144 131
125 594 412 186 138 125
125 594 413 186 139 126
125 594 414 187 140 127
125 594 415 187 140 127
126 594 412 187 138 126
126 594 413 187 138 126
127 594 412 188 140 128
127 594 413 188 139 127
126 594 414 187 137 125
126 594 415 186 137 125
127 594 414 188 138 127
127 594 415 188 138 125
111 585 429 124 104 89
111 585 430 118 101 87
111 585 431 112 98 86
111 586 429 130 107 92
111 586 430 126 105 90
111 586 431 120 102 88
111 587 430 141 116 100
111 587 431 135 111 96
111 588 430 154 123 108
111 588 431 152 121 106
111 585 432 108 96 85
111 585 433 104 93 85
111 585 434 104 93 86
111 585 435 102 93 88
111 586 432 115 99 86
111 586 433 110 95 85
111 587 432 130 107 92
111 587 433 124 102 88
110 586 435 105 94 86
110 587 434 121 100 87
110 587 435 117 97 86
111 586 434 106 93 84
111 586 435 103 92 85
111 587 434 113 96 84
109 587 438 114 97 87
109 587 439 111 96 86
111 585 436 101 93 89
111 585 437 96 89 86
111 585 438 92 85 82
111 585 439 95 89 87
110 586 436 102 92 86
110 586 437 97 88 82
110 587 436 115 97 86
110 587 437 112 95 86
111 586 436 100 91 85
111 586 437 99 90 84
110 586 438 96 87 80
110 586 439 100 91 85
110 587 438 100 89 82
110 587 439 102 92 84
111 586 438 93 85 80
111 586 439 96 89 85
111 588 432 151 118 105
111 588 433 146 113 101
111 589 432 160 122 111
111 589 433 162 123 114
110 588 434 140 110 98
110 588 435 141 109 98
110 589 435 152 115 105
111 588 434 144 112 100
111 589 434 159 121 112
111 589 435 157 119 110
111 590 434 170 129 123
111 590 435 171 129 123
109 588 437 144 112 101
109 589 437 159 122 113
109 588 438 146 114 103
109 588 439 146 114 103
109 589 438 164 127 119
109 589 439 165 127 119
109 590 439 174 134 129
110 588 436 138 108 96
110 588 437 139 109 98
110 589 436 157 119 109
110 589 437 162 125 116
110 590 437 173 134 126
111 590 436 172 131 123
111 590 437 178 136 129
111 591 437 181 137 130
110 590 438 177 137 132
110 590 439 177 135 131
110 591 439 180 135 131
111 590 438 179 135 130
111 591 438 182 138 132
111 591 439 183 138 133
107 587 442 136 112 102
107 587 443 135 112 102
105 587 446 157 123 115
105 587 447 153 121 112
106 587 444 143 116 107
106 587 445 144 116 107
107 586 445 106 93 85
107 587 444 123 104 95
107 587 445 116 99 90
106 586 447 127 105 97
106 587 446 137 111 103
106 587 447 139 112 104
107 586 446 105 92 85
107 586 447 115 98 91
107 588 441 158 124 114
107 589 441 167 129 119
106 588 443 164 129 120
106 589 443 170 132 123
107 588 442 158 124 114
107 588 443 155 124 114
107 589 442 169 132 122
107 589 443 171 134 124
107 590 442 180 139 129
107 590 443 182 140 131
105 588 446 167 131 121
105 588 447 169 131 122
105 589 446 175 136 126
105 589 447 180 139 129
106 588 444 161 127 118
106 588 445 164 129 119
106 589 444 174 135 126
106 589 445 176 137 127
106 589 446 180 139 129
106 590 444 183 141 132
106 590 445 186 144 134
107 590 444 191 146 137
107 590 445 195 149 140
107 591 445 201 154 145
106 590 446 192 147 137
106 590 447 194 149 139
107 590 446 201 155 146
107 590 447 203 157 148
107 591 446 204 157 148
108 587 441 124 105 95
109 586 441 105 95 88
109 587 440 117 100 90
109 587 441 110 97 88
108 586 443 106 95 87
108 587 442 112 99 90
108 587 443 111 98 89
109 586 442 103 94 88
109 586 443 101 93 87
109 587 442 106 95 88
110 586 440 102 93 87
110 586 441 102 94 88
110 587 440 104 94 87
111 586 440 98 91 88
111 586 441 99 93 90
110 586 442 102 94 89
110 586 443 104 95 90
111 586 442 99 93 90
111 586 443 102 94 90
108 586 444 103 93 86
108 586 445 97 89 83
109 586 444 98 91 87
109 586 445 97 89 84
108 586 446 101 90 85
108 586 447 110 95 90
109 586 446 107 94 89
109 586 447 114 98 92
110 586 444 100 92 88
110 586 445 104 93 88
111 586 444 106 95 90
111 586 445 114 98 93
111 587 444 116 101 94
111 587 445 127 107 99
110 586 446 117 100 94
110 586 447 121 102 96
110 587 447 132 109 102
111 587 446 146 118 110
111 587 447 150 121 113
108 588 440 154 120 109
108 588 441 151 119 108
108 589 440 167 127 118
108 589 441 166 128 118
109 588 440 141 112 101
109 589 440 167 128 119
108 590 441 179 137 130
109 590 440 175 133 127
109 590 441 181 138 133
109 591 440 179 135 130
109 591 441 183 140 135
108 590 442 186 142 135
108 590 443 190 144 137
108 591 442 189 145 138
108 591 443 193 147 139
109 591 442 191 146 140
109 591 443 197 151 143
110 591 440 181 137 132
110 591 441 185 141 135
111 591 440 186 141 135
111 591 441 189 144 136
110 591 442 194 150 142
110 591 443 200 155 145
111 591 442 196 150 141
111 591 443 202 156 146
108 591 444 197 152 143
108 591 445 204 159 149
109 591 444 202 156 148
109 591 445 209 165 153
108 590 447 206 162 152
108 591 446 209 164 153
108 591 447 208 164 154
109 590 447 209 165 154
109 591 446 212 168 156
109 591 447 211 167 156
111 588 446 161 128 118
111 588 447 164 130 121
111 589 446 176 138 128
111 589 447 178 140 130
110 591 444 204 159 149
110 591 445 210 166 153
111 590 444 200 156 145
111 590 445 198 155 143
111 591 444 206 160 149
111 591 445 208 164 151
110 590 446 205 162 150
110 590 447 203 161 150
110 591 446 210 166 153
111 590 446 195 153 142
111 590 447 190 150 139
112 581 416 146 125 108
112 581 417 143 123 106
112 581 418 142 122 106
112 581 419 144 124 108
113 581 419 137 119 105
112 582 416 153 129 112
112 582 417 152 127 110
112 583 416 159 132 115
112 583 417 158 131 114
112 582 418 150 127 110
112 582 419 149 126 110
112 583 418 157 130 114
112 583 419 155 129 112
112 581 420 141 122 108
113 581 420 134 118 105
113 581 421 131 115 103
113 581 422 127 112 101
113 581 423 125 111 101
112 582 420 145 124 108
112 582 421 140 120 105
112 583 420 150 126 109
112 583 421 146 123 106
112 582 422 135 117 103
112 582 423 130 114 101
112 583 422 142 120 103
112 583 423 137 117 102
114 580 423 117 107 101
114 581 423 120 108 101
113 581 424 122 109 100
113 581 425 121 108 99
112 582 424 128 111 99
112 582 425 128 111 99
112 583 424 133 115 101
112 583 425 132 114 101
113 582 424 125 110 98
113 582 425 125 110 99
112 583 426 132 115 102
112 583 427 128 111 98
113 582 426 124 110 100
113 582 427 124 109 99
114 580 424 117 108 101
114 580 425 116 107 102
114 581 424 120 108 100
114 581 425 118 108 101
115 580 425 115 107 102
114 581 426 116 105 99
114 581 427 117 106 99
115 580 426 114 105 100
115 580 427 113 105 100
115 581 426 115 105 100
115 581 427 113 104 99
114 582 427 118 106 97
112 583 428 126 109 96
112 583 429 125 110 99
113 582 428 120 106 96
113 582 429 122 108 98
113 583 428 124 109 97
113 583 429 122 108 99
113 583 430 112 99 91
113 583 431 103 93 86
114 581 428 115 104 97
114 581 429 115 104 97
115 581 428 113 104 99
115 581 429 114 104 99
115 581 430 113 103 98
114 582 428 118 105 96
114 582 429 118 106 98
114 582 430 113 102 95
114 583 430 109 98 89
114 583 431 101 92 86
115 582 430 109 99 93
115 582 431 101 92 87
116 580 428 112 105 101
116 581 428 113 105 100
116 581 429 113 105 101
117 581 429 113 105 101
116 581 430 112 103 99
116 581 431 108 100 95
117 581 430 112 104 100
117 581 431 107 99 96
116 582 431 102 95 91
118 581 430 110 103 99
118 581 431 108 101 98
119 581 431 108 101 98
112 584 416 165 136 120
112 584 417 163 134 118
112 585 416 164 135 120
112 585 417 164 134 118
112 584 418 161 132 116
112 584 419 159 130 114
112 585 418 163 133 117
112 585 419 161 130 114
112 586 416 162 130 117
112 586 417 164 132 117
112 587 416 158 125 113
112 587 417 163 130 115
113 587 416 157 123 111
113 587 417 161 126 113
112 586 418 163 131 116
112 586 419 162 130 114
112 587 418 162 130 115
113 587 418 162 128 114
113 587 419 162 128 114
112 584 420 156 128 112
112 584 421 153 127 111
112 585 420 159 129 114
112 585 421 157 127 112
112 584 422 150 125 109
112 584 423 145 121 105
112 585 422 155 125 110
112 585 423 153 125 110
112 586 420 160 128 114
112 586 421 157 124 111
113 587 420 160 125 112
113 587 421 155 118 108
112 586 422 155 122 110
112 586 423 156 124 111
113 587 422 152 115 106
113 587 423 152 116 106
113 588 416 157 121 109
113 588 417 161 124 110
113 589 416 160 121 109
113 589 417 164 124 111
113 588 418 163 126 113
113 588 419 163 127 114
113 589 418 166 127 114
113 589 419 165 125 112
114 589 416 162 122 110
114 589 417 165 125 112
114 589 418 168 128 116
114 589 419 167 126 113
114 590 416 169 128 116
114 590 417 171 129 117
115 590 416 174 131 120
115 590 417 177 133 122
115 591 416 179 134 124
115 591 417 181 136 125
114 590 418 171 130 118
114 590 419 170 127 115
115 590 418 177 133 122
115 590 419 175 130 119
115 591 418 180 135 124
115 591 419 177 130 120
113 588 420 159 121 109
113 588 421 155 115 106
113 589 420 160 119 108
113 589 421 158 117 108
113 588 422 151 111 103
113 588 423 150 110 102
113 589 422 156 115 108
113 589 423 157 116 109
114 589 420 163 121 109
114 590 420 167 122 112
114 590 421 165 121 112
114 591 421 169 123 114
115 591 420 174 126 117
115 591 421 175 126 118
114 590 422 164 120 112
114 590 423 165 120 113
114 591 422 169 122 114
114 591 423 171 123 115
115 591 422 176 128 120
115 591 423 178 131 122
116 591 416 181 136 125
116 591 417 182 135 124
117 591 416 183 137 126
117 591 417 183 135 124
116 591 418 181 133 122
116 591 419 178 128 119
117 591 418 182 132 122
116 591 420 177 126 118
116 591 421 179 130 121
116 591 422 182 134 124
112 584 424 142 119 103
112 584 425 141 118 101
112 585 424 153 125 110
112 585 425 152 124 109
112 584 426 138 115 99
112 584 427 133 112 97
112 585 426 149 122 106
112 585 427 142 117 101
112 586 424 158 128 115
112 586 425 158 129 114
112 587 424 158 125 113
112 587 425 160 128 116
113 587 424 156 120 109
113 587 425 159 123 112
112 586 426 156 127 113
112 586 427 152 124 109
112 587 426 160 129 116
112 587 427 156 125 111
112 584 428 129 110 96
112 584 429 123 106 94
112 585 428 134 111 96
112 585 429 126 105 90
112 584 430 112 97 86
112 584 431 106 93 84
112 585 430 116 99 86
112 585 431 108 95 85
113 584 430 108 95 86
113 584 431 104 92 84
112 586 428 143 116 102
112 586 429 135 111 96
112 587 428 152 123 107
112 587 429 148 121 105
112 586 430 133 110 95
112 587 430 152 124 108
113 588 424 155 117 107
113 588 425 160 122 112
113 589 424 160 119 112
113 589 425 166 125 116
112 588 426 161 126 113
112 588 427 160 125 111
113 588 426 162 125 113
113 588 427 165 127 114
113 589 426 170 129 120
113 589 427 173 132 122
113 590 424 167 124 118
113 590 425 173 130 123
113 590 427 180 137 129
114 590 424 170 124 118
114 590 425 175 129 124
114 591 424 176 127 121
114 591 425 179 132 126
115 591 424 181 134 126
115 591 425 185 137 131
114 590 426 178 134 127
114 590 427 183 138 131
114 591 426 184 137 131
115 591 426 189 143 138
115 591 427 192 146 141
112 588 428 162 128 113
112 588 429 162 128 113
112 589 429 172 134 121
113 589 428 175 134 124
113 589 429 176 136 124
112 588 430 160 127 111
112 588 431 159 125 110
112 589 430 171 132 119
112 589 431 168 129 117
113 590 428 181 138 129
113 590 429 182 139 129
113 590 430 181 138 128
113 590 431 180 137 129
114 590 428 187 142 135
114 590 429 188 143 136
115 591 428 194 147 142
115 591 429 195 149 143
114 590 430 188 144 136
114 590 431 187 143 136
114 591 430 193 148 142
114 591 431 192 147 141
115 591 430 195 149 143
115 591 431 193 147 141
116 591 425 191 144 138
116 591 426 193 146 140
116 591 427 194 146 141
116 591 428 193 146 141
116 591 429 194 146 140
117 591 428 192 142 136
117 591 429 192 142 136
116 591 430 193 145 138
116 591 431 192 143 136
117 591 430 192 141 134
117 591 431 192 141 134
118 591 430 195 142 135
118 591 431 196 143 135
119 591 430 198 144 136
119 591 431 198 144 137
120 591 430 199 144 137
120 591 431 198 145 138
121 591 430 200 145 137
121 591 431 198 144 137
122 591 430 198 144 136
122 591 431 197 143 135
123 591 431 195 143 134
113 583 432 100 93 89
114 583 432 99 92 88
114 583 433 99 93 91
115 582 432 96 90 87
115 582 433 98 93 91
115 583 432 97 91 88
115 583 433 99 94 93
114 583 434 100 95 93
114 583 435 101 97 96
115 583 434 101 97 96
115 583 435 102 98 97
117 581 432 102 95 92
116 582 432 97 90 87
116 582 433 98 93 91
117 582 432 98 92 89
117 582 433 96 91 89
116 583 434 99 95 94
116 583 435 101 97 95
117 582 434 98 93 91
117 583 434 99 94 93
117 583 435 100 95 93
118 581 432 104 98 95
118 581 433 103 97 95
119 581 432 107 100 98
119 581 433 105 99 97
118 582 433 99 93 90
119 582 433 104 98 95
118 582 434 97 91 89
118 583 435 98 92 90
119 582 434 101 95 92
119 582 435 98 92 89
119 583 435 97 90 87
116 583 436 103 98 96
117 583 436 102 96 93
118 583 436 100 93 89
119 583 436 100 92 87
112 584 432 103 93 85
112 584 433 102 93 87
112 585 432 105 94 85
112 585 433 103 93 87
113 584 432 102 93 87
113 584 433 100 93 90
112 584 434 100 93 89
112 584 435 102 95 92
112 585 434 102 93 88
112 585 435 102 94 90
113 584 434 100 94 91
113 584 435 101 96 93
114 584 434 100 95 93
114 584 435 101 97 96
112 584 436 100 95 92
112 584 437 97 92 90
112 585 436 101 95 92
112 585 437 96 90 88
113 584 436 101 96 94
113 584 437 97 93 93
112 585 438 91 86 84
112 585 439 94 89 87
113 584 438 95 90 89
113 585 438 94 88 87
113 585 439 97 92 91
114 584 436 100 97 96
114 584 437 100 96 96
115 584 436 101 97 96
115 584 437 103 98 96
114 584 438 98 94 92
114 585 439 100 95 92
115 584 438 103 97 95
115 585 438 104 97 94
115 585 439 108 99 94
115 586 439 112 102 94
112 589 432 166 126 116
112 589 433 167 127 118
112 590 432 177 135 127
112 590 433 177 135 128
113 590 432 183 138 132
113 590 433 185 141 134
113 591 433 190 146 139
112 590 434 180 137 131
112 590 435 179 136 131
112 591 435 184 139 134
113 591 434 189 145 139
113 591 435 189 144 138
114 590 432 188 143 136
114 591 432 192 147 140
114 591 433 195 150 143
115 591 432 194 147 140
115 591 433 196 150 142
114 591 434 196 151 143
114 591 435 196 151 142
115 591 434 198 152 142
115 591 435 198 151 142
112 591 436 183 139 133
112 591 437 185 142 134
113 591 436 190 146 139
113 591 437 192 148 139
112 591 438 188 142 135
112 591 439 189 142 135
113 590 439 196 148 138
113 591 438 192 146 137
113 591 439 195 146 137
115 588 439 191 154 146
115 589 438 194 149 139
115 589 439 194 150 142
114 590 437 194 147 137
114 591 436 197 152 143
114 591 437 196 150 140
115 590 436 196 148 137
115 590 437 195 147 137
115 591 436 198 151 142
115 591 437 196 149 139
114 590 438 195 147 137
114 590 439 195 146 136
115 590 438 195 147 137
115 590 439 194 146 136
116 584 436 104 98 97
116 584 437 105 98 95
117 584 436 103 96 92
117 584 437 105 96 90
117 585 437 107 95 87
116 585 438 108 99 92
116 585 439 113 101 93
117 585 438 110 98 89
116 586 439 129 110 97
116 587 439 155 127 115
117 586 438 133 112 102
117 586 439 142 118 107
117 587 438 173 140 133
117 587 439 170 138 129
118 584 436 101 92 86
118 584 437 104 92 83
118 585 437 112 95 85
119 584 436 102 92 85
119 584 437 106 92 80
119 585 437 119 99 90
119 586 437 149 127 124
119 587 437 181 140 139
118 586 438 141 119 114
118 587 438 177 139 136
119 586 438 148 124 122
119 587 438 159 129 128
116 591 432 193 145 137
116 591 433 196 150 140
117 591 432 193 143 135
117 591 433 195 147 137
116 590 435 196 150 139
116 591 434 200 154 143
116 591 435 198 153 142
117 590 434 194 146 136
117 590 435 191 144 135
117 591 434 198 150 140
118 591 432 196 145 137
118 591 433 195 146 136
119 591 432 197 145 137
119 591 433 194 144 136
118 590 434 190 141 134
118 590 435 186 137 131
118 591 434 193 144 136
119 590 434 189 139 132
119 590 435 186 138 131
119 591 434 192 142 134
116 589 437 191 147 136
117 589 437 188 144 136
116 588 439 186 148 141
116 589 438 192 149 140
117 588 438 186 145 139
117 589 438 190 147 139
116 590 436 194 147 137
116 590 437 194 148 137
117 590 436 189 143 133
116 590 438 193 148 137
118 588 437 186 141 138
118 589 436 184 138 131
118 589 437 184 139 134
119 588 437 187 143 139
119 589 436 185 139 134
119 589 437 187 141 136
118 588 438 185 144 140
118 590 436 185 137 130
112 585 440 96 91 90
113 585 440 97 92 91
112 586 440 96 92 90
112 586 441 99 93 91
113 586 440 98 93 91
113 586 441 103 95 92
113 587 441 115 104 97
112 586 442 100 94 91
112 586 443 106 97 92
112 587 442 113 101 93
112 587 443 120 104 96
113 587 442 133 114 104
113 587 443 143 119 107
114 585 440 101 95 92
114 586 440 108 99 94
114 586 441 119 107 99
114 587 441 147 126 113
115 586 440 125 110 99
115 587 440 156 130 116
114 587 442 151 128 115
112 587 444 134 111 103
112 587 445 148 119 110
113 588 442 164 133 122
113 588 443 162 128 118
113 589 442 181 137 127
113 589 443 174 130 121
112 591 440 190 143 135
112 591 441 194 145 136
113 590 440 193 146 136
113 590 441 192 141 133
113 591 440 193 146 136
112 590 442 189 140 130
112 590 443 191 143 133
112 591 442 196 148 138
113 590 442 188 139 129
113 590 443 184 137 127
114 588 441 178 143 133
114 589 440 192 147 138
114 589 441 188 145 134
115 588 440 185 151 142
115 589 440 193 150 140
114 588 442 171 136 126
114 589 442 179 139 128
114 590 440 193 145 136
114 590 441 193 145 136
112 588 444 158 125 116
112 588 445 159 126 116
112 589 444 174 133 123
112 589 445 173 134 124
113 588 444 164 128 118
113 589 444 171 131 122
112 588 446 164 129 119
112 589 446 174 136 126
112 590 444 188 144 133
112 590 445 183 141 131
120 581 432 105 99 97
120 581 433 106 100 98
120 581 434 105 99 97
121 581 434 101 96 94
120 582 434 103 98 95
120 582 435 101 95 93
120 583 435 98 92 89
121 582 434 103 97 95
121 582 435 102 96 94
122 582 435 102 97 94
120 583 436 99 92 88
121 582 436 103 97 94
121 583 436 103 94 90
121 583 437 105 95 88
122 582 436 104 97 94
122 582 437 106 98 93
122 583 437 109 99 91
122 583 438 115 103 94
120 584 437 107 93 82
120 585 437 134 114 106
121 584 437 117 99 85
121 585 437 138 117 106
121 584 438 139 120 106
121 585 438 166 143 135
120 587 437 170 136 134
120 586 438 157 133 130
120 587 438 163 134 131
121 586 438 173 147 143
121 587 438 162 131 127
122 584 438 137 118 105
122 585 438 158 136 124
122 585 439 164 142 133
122 586 439 167 140 135
122 587 439 149 121 113
123 586 439 157 133 127
120 591 432 196 144 137
120 591 433 192 141 135
121 590 433 190 140 134
121 591 432 195 142 135
121 591 433 192 140 134
120 590 434 189 139 133
120 590 435 187 139 134
121 590 434 188 138 132
121 590 435 185 138 131
122 591 432 195 142 134
122 591 433 191 140 133
123 591 432 193 142 134
123 591 433 191 141 133
122 590 434 189 139 132
122 590 435 187 140 132
122 591 434 189 139 132
123 590 435 188 142 133
123 591 434 189 141 133
123 591 435 188 141 132
120 588 437 181 141 138
120 589 436 186 139 135
120 589 437 186 141 137
121 588 437 182 137 134
121 589 436 184 136 131
121 589 437 180 133 129
121 588 438 166 127 123
121 590 436 184 136 129
122 589 437 180 135 126
122 588 438 149 118 110
122 588 439 144 116 106
122 589 438 165 125 117
122 589 439 153 119 109
123 589 439 153 119 108
122 590 436 184 138 130
122 590 437 180 136 126
123 590 436 186 140 131
123 590 437 181 138 127
123 590 438 172 131 120
123 590 439 167 128 115
124 591 432 192 142 133
124 591 433 190 141 133
124 591 434 188 140 130
124 591 435 186 139 128
124 591 436 186 140 128
124 591 437 185 140 128
125 591 437 187 142 129
124 590 438 178 136 124
124 591 438 181 139 125
124 591 439 179 137 123
125 591 438 186 143 129
125 591 439 186 142 128
122 587 440 133 108 98
123 587 440 131 106 96
122 588 440 139 114 102
123 588 440 138 113 101
123 588 441 139 115 102
123 589 440 147 117 104
123 589 441 144 116 100
123 588 442 140 115 102
123 589 442 144 117 101
123 590 440 158 123 109
123 590 441 153 120 105
123 590 442 151 119 103
124 590 440 167 129 115
124 590 441 162 125 110
124 591 440 178 136 122
124 591 441 173 130 118
125 591 440 185 140 126
125 591 441 183 137 124
124 590 442 156 122 107
124 591 442 169 128 115
124 591 443 170 130 115
117 592 417 183 135 125
117 592 418 183 133 123
117 592 419 182 131 122
118 592 416 183 137 125
118 592 417 184 136 125
119 592 416 183 136 123
119 592 417 185 137 125
118 592 418 185 135 125
118 592 419 187 137 128
119 592 418 188 139 127
119 592 419 190 140 130
116 592 420 179 128 120
116 592 421 183 134 125
117 592 420 185 135 126
117 592 421 188 139 131
116 592 422 185 138 128
116 592 423 186 140 131
117 592 422 189 142 134
117 592 423 190 142 135
118 592 420 191 141 132
118 592 421 191 142 134
119 592 420 190 140 130
119 592 421 190 140 130
119 593 420 189 139 129
119 593 421 189 139 128
118 592 422 190 141 133
118 592 423 188 138 131
119 593 422 189 139 129
119 593 423 188 137 130
116 592 424 188 141 134
116 592 425 191 143 137
117 592 424 189 141 135
117 592 425 188 140 133
116 592 426 192 144 139
117 592 426 188 138 133
117 592 427 189 139 134
118 592 424 186 135 129
118 592 425 185 134 128
119 592 425 185 135 128
119 593 424 187 135 129
119 593 425 187 135 129
118 592 426 186 135 129
118 592 427 188 136 130
119 592 426 187 136 129
119 592 427 189 136 130
117 592 428 191 140 135
117 592 429 193 141 135
118 592 428 191 138 132
118 592 429 193 141 135
119 592 428 192 138 132
119 592 429 196 142 135
118 592 430 195 141 135
119 592 430 197 143 135
120 592 416 184 138 125
120 592 417 187 140 128
121 592 416 186 140 128
121 593 416 188 142 130
121 593 417 190 143 131
120 592 418 189 140 129
120 592 419 189 140 128
120 593 418 189 141 130
120 593 419 189 140 128
121 593 418 190 142 131
121 593 419 190 141 129
122 593 416 189 144 131
122 593 417 191 145 133
123 593 416 189 143 131
123 593 417 190 144 132
122 593 418 191 143 132
122 593 419 191 142 131
123 593 418 191 143 132
123 593 419 190 142 131
120 593 420 189 139 128
120 593 421 189 139 129
121 593 420 189 140 129
121 593 421 190 141 130
120 593 422 190 140 131
120 593 423 190 140 131
121 593 422 192 142 132
121 593 423 193 143 134
122 593 420 191 142 131
122 593 421 192 143 132
123 593 420 191 142 131
123 593 421 194 145 134
122 593 422 194 146 134
122 593 423 197 148 137
123 593 422 195 147 135
123 594 420 191 143 131
123 594 421 193 145 134
123 594 422 196 147 135
123 594 423 198 150 138
124 593 416 189 143 131
124 593 417 189 143 132
124 593 418 189 143 131
124 593 419 189 141 130
124 594 417 189 143 131
125 594 416 186 139 126
125 594 417 185 138 125
124 594 418 188 141 130
124 594 419 187 140 129
125 594 418 185 137 125
125 594 419 185 136 126
126 594 416 185 136 123
126 594 417 184 134 122
127 594 416 187 137 125
127 594 417 186 136 124
126 594 418 183 133 122
126 594 419 184 133 123
127 594 418 186 135 124
127 594 419 184 134 124
127 595 419 185 134 124
124 594 420 189 141 130
124 594 421 192 144 133
125 594 420 186 137 127
125 594 421 189 139 128
124 594 422 194 146 135
124 594 423 197 149 136
125 594 422 191 142 131
125 594 423 193 145 133
126 594 420 184 134 124
126 594 421 186 135 126
127 594 420 185 134 125
127 594 421 186 135 126
127 595 420 185 134 125
127 595 421 186 135 126
126 594 422 187 137 128
126 594 423 189 139 128
127 594 422 187 136 128
127 594 423 187 137 128
127 595 422 187 136 127
127 595 423 187 136 127
120 593 424 189 138 131
120 593 425 190 138 131
121 593 424 195 144 135
121 593 425 196 144 136
120 592 427 192 138 131
120 593 426 191 138 131
121 592 427 197 142 134
121 593 426 197 143 135
121 593 427 197 142 135
122 593 424 200 149 139
122 593 425 201 149 139
123 593 424 201 151 140
123 593 425 202 150 140
122 593 426 202 149 139
122 593 427 201 146 138
123 593 426 202 150 140
123 593 427 200 148 138
123 594 424 202 152 140
123 594 425 202 151 140
120 592 428 195 139 133
120 592 429 198 142 135
121 592 428 198 142 135
121 592 429 199 144 136
120 592 430 198 143 135
121 592 430 199 145 137
122 592 428 200 144 136
122 592 429 199 144 136
123 592 428 198 144 135
123 592 429 197 142 134
123 593 428 198 144 135
122 592 430 198 143 135
123 592 430 196 142 134
123 592 431 195 142 133
124 593 426 201 149 138
124 593 427 198 145 135
125 593 427 194 141 131
124 594 424 200 150 138
124 594 425 201 150 139
125 594 424 195 146 134
125 594 425 195 145 134
124 594 426 199 148 137
125 594 426 194 144 133
125 594 427 192 141 130
126 594 424 189 139 128
126 594 425 187 136 127
127 595 424 185 134 126
127 595 425 182 131 123
126 594 426 184 134 124
126 594 427 184 133 123
127 594 426 179 127 120
127 594 427 179 128 119
127 595 426 179 127 120
127 595 427 178 126 119
124 592 429 194 140 131
124 593 428 195 142 133
124 593 429 193 139 130
125 593 428 192 138 129
125 593 429 189 136 126
124 592 430 191 138 129
124 592 431 191 140 130
125 593 430 188 136 126
125 593 431 188 138 126
125 594 428 189 137 127
125 594 429 187 135 125
126 593 430 190 140 128
126 593 431 190 140 128
126 594 428 184 133 123
126 594 429 186 134 124
127 594 428 181 130 121
127 594 429 184 133 124
127 595 428 180 129 121
126 594 430 189 139 128
126 594 431 192 142 130
127 594 430 189 139 129
127 594 431 194 144 133
124 592 432 190 141 130
124 592 433 188 140 129
125 592 432 188 138 127
125 592 433 188 139 126
125 593 432 189 139 127
125 593 433 190 141 128
124 592 434 187 138 127
124 592 435 186 138 126
125 592 434 190 141 129
125 592 435 191 143 130
126 593 432 192 142 130
126 593 433 194 144 132
126 593 434 197 148 136
126 593 435 198 149 137
127 593 434 200 150 138
127 593 435 201 149 138
127 594 432 197 147 135
127 594 433 199 148 136
127 594 434 201 149 138
125 592 436 192 144 132
125 592 437 193 146 133
125 592 438 192 146 132
125 592 439 192 145 132
126 592 436 196 148 134
126 592 437 196 148 135
126 593 436 197 149 136
126 593 437 198 149 136
127 593 436 200 148 137
127 593 437 200 149 137
126 592 438 196 148 135
126 592 439 196 147 135
126 593 438 198 149 136
126 593 439 198 149 137
127 593 438 200 149 138
127 593 439 200 150 139
125 592 440 190 143 130
125 592 441 185 138 125
125 592 442 182 136 122
125 592 443 182 138 124
126 592 440 195 146 135
126 592 441 190 143 131
126 593 440 197 148 137
126 593 441 192 145 133
127 593 440 199 150 138
126 593 442 188 141 129
102 587 451 168 129 120
103 586 451 160 124 116
103 587 450 165 128 119
103 587 451 166 128 119
101 586 454 167 128 120
101 586 455 168 129 120
101 587 454 169 130 121
101 587 455 170 130 121
103 585 453 159 124 115
102 585 455 164 126 118
103 585 454 161 125 116
103 585 455 162 125 117
102 586 452 164 126 118
102 586 453 164 127 118
102 587 452 167 129 120
102 587 453 169 130 121
103 586 452 160 124 115
103 586 453 160 124 116
102 586 454 164 126 118
102 586 455 166 127 119
102 588 451 170 131 122
103 588 450 171 132 123
103 588 451 172 133 124
103 589 451 178 136 127
101 588 454 172 132 123
101 588 455 172 131 123
101 589 455 175 134 125
102 588 452 173 132 123
102 588 453 172 132 123
102 589 453 176 135 126
103 589 452 177 135 126
103 589 453 178 136 127
102 588 454 175 134 125
102 588 455 175 133 124
102 589 454 176 135 126
102 589 455 176 134 125
103 590 452 180 137 128
103 590 453 179 137 128
103 590 454 179 136 127
103 590 455 178 135 126
101 586 456 168 129 120
101 586 457 169 129 120
101 587 456 171 130 121
101 587 457 171 131 122
101 586 458 170 130 121
101 586 459 171 130 122
101 587 458 172 131 122
101 587 459 173 131 122
102 585 456 165 127 118
102 585 457 167 128 119
103 585 456 164 126 118
103 585 457 166 128 119
102 585 458 168 129 120
103 585 458 168 129 120
102 586 456 166 128 119
102 586 457 168 129 120
102 586 458 169 129 121
102 586 459 171 130 121
103 586 458 170 130 121
103 586 459 170 130 121
103 587 459 171 130 122
101 587 460 173 132 122
102 587 460 172 131 122
103 587 460 172 131 122
101 588 456 173 132 123
101 588 457 173 132 123
101 589 456 175 133 124
101 589 457 175 133 124
101 588 458 173 132 123
101 588 459 173 132 123
101 589 458 174 133 124
101 589 459 174 132 123
102 589 456 176 134 125
103 589 459 174 133 124
102 590 456 177 134 125
102 590 457 176 134 125
103 590 456 177 134 125
103 590 457 176 134 125
102 590 458 175 133 124
102 590 459 175 133 124
103 590 458 176 133 124
103 590 459 175 133 124
101 588 460 173 132 123
101 588 461 173 132 123
101 589 460 174 132 123
102 588 460 173 132 122
102 588 461 173 132 123
102 589 460 174 132 123
102 589 461 173 132 123
103 588 460 173 132 123
103 589 460 174 132 123
102 590 460 174 132 123
104 586 449 156 122 114
104 587 448 163 127 118
104 587 449 162 126 117
105 586 448 142 114 106
105 586 449 147 116 109
105 587 448 154 121 113
104 586 450 157 123 114
104 586 451 156 122 113
104 587 450 164 128 119
105 586 450 150 118 111
105 586 451 153 120 112
106 586 448 133 108 101
106 586 449 140 112 105
107 586 448 127 105 98
107 586 449 136 110 104
106 586 450 146 116 109
106 586 451 151 119 111
107 586 450 142 114 107
107 586 451 149 118 111
107 587 451 153 121 113
104 585 452 156 122 114
104 585 453 158 123 115
105 585 452 155 121 113
105 585 453 157 122 114
104 585 454 159 124 115
104 585 455 161 125 116
105 585 454 159 124 115
105 585 455 161 125 116
104 586 452 157 123 115
104 586 453 158 123 115
105 586 452 155 121 113
105 586 453 157 122 114
104 586 455 162 125 117
105 586 454 159 124 116
105 586 455 162 126 117
106 586 452 154 121 114
106 586 453 158 123 115
107 586 452 155 122 114
107 587 452 162 126 119
107 587 453 164 127 119
106 586 454 161 125 117
106 586 455 164 127 119
106 587 454 165 128 119
106 587 455 167 129 120
107 587 454 166 129 120
107 587 455 168 130 121
104 588 448 170 132 122
104 588 449 171 132 123
104 589 449 180 138 128
105 588 448 170 132 122
105 589 448 182 139 129
105 589 449 184 141 130
104 589 450 179 137 128
105 590 448 192 146 136
105 590 449 189 144 134
104 590 450 184 141 132
104 590 451 182 139 130
105 590 450 187 143 134
105 590 451 184 141 132
106 590 448 196 150 140
106 590 449 194 149 139
107 590 448 200 154 145
107 590 449 196 152 142
106 590 450 190 146 136
106 590 451 186 142 133
107 590 450 191 148 138
107 590 451 185 143 134
104 590 452 180 138 129
104 590 453 180 138 128
105 590 452 182 139 130
105 590 453 181 138 129
104 590 454 180 137 128
104 590 455 178 136 127
105 590 454 180 137 128
105 590 455 178 136 127
107 588 453 170 132 124
107 589 452 178 137 128
107 589 453 175 135 127
106 588 455 171 131 123
106 589 455 175 134 125
107 588 454 171 132 123
107 588 455 171 132 123
107 589 454 175 135 126
107 589 455 174 134 125
106 590 452 182 139 130
106 590 453 180 138 129
107 590 452 181 139 130
107 590 453 178 137 128
106 590 454 179 137 128
106 590 455 177 135 126
108 586 448 123 103 97
108 586 449 135 110 104
108 587 449 143 115 108
109 586 448 128 106 100
109 587 448 136 112 105
109 587 449 152 122 115
108 586 450 143 115 108
108 587 450 151 120 113
108 587 451 158 124 116
109 587 450 155 124 116
110 587 448 150 121 113
108 587 452 163 127 119
109 588 449 167 132 124
109 589 449 182 143 134
108 588 451 168 132 123
108 589 451 179 139 130
109 588 450 168 132 124
109 588 451 173 136 127
109 589 450 181 142 133
108 590 448 204 159 150
108 590 449 196 152 143
109 590 448 200 158 148
109 590 449 192 150 141
108 590 450 190 147 138
108 590 451 186 144 135
109 590 450 188 147 138
110 588 448 162 129 121
110 588 449 167 133 124
110 589 448 182 143 134
110 589 449 177 140 131
111 588 448 165 132 123
111 589 448 176 139 130
110 590 448 192 152 142
108 588 452 170 132 124
108 589 452 176 137 128
104 585 457 166 128 119
104 585 458 167 128 119
104 586 456 164 126 118
104 586 457 166 128 119
105 586 456 166 128 119
105 586 457 167 128 120
105 587 457 169 129 121
104 586 458 168 129 120
104 586 459 171 130 121
104 587 459 172 131 122
105 586 458 169 129 121
105 587 458 170 130 121
105 587 459 172 131 122
106 587 456 169 130 121
106 587 457 170 130 121
106 587 458 170 130 121
104 587 460 172 131 122
105 589 456 175 134 125
105 589 457 175 133 125
104 588 459 173 132 123
104 589 458 175 133 124
104 589 459 174 133 124
105 588 458 172 131 122
105 588 459 172 131 122
105 589 458 175 133 124
104 590 456 177 135 126
104 590 457 176 134 125
105 590 456 177 135 126
105 590 457 176 134 125
104 590 458 175 134 125
106 588 456 171 131 123
106 588 457 171 131 123
106 589 456 174 133 124
106 588 458 171 131 122
104 588 460 173 132 123
71 670 278 104 110 121
71 670 279 101 108 118
71 671 278 109 114 125
71 671 279 107 113 123
71 670 280 96 102 112
71 671 280 98 104 114
71 671 281 93 99 108
71 671 282 90 95 104
71 671 283 87 92 101
75 661 286 100 106 116
75 661 287 89 95 104
74 663 284 88 93 101
75 662 285 104 111 121
75 663 284 93 99 108
75 663 285 88 93 102
75 662 286 94 100 110
75 662 287 79 85 94
75 663 286 79 84 93
75 663 287 72 78 86
76 660 287 86 93 103
76 661 286 101 108 119
76 661 287 85 91 101
72 669 279 94 100 109
73 665 283 86 90 98
72 667 281 93 99 107
72 667 282 92 98 107
72 667 283 91 98 108
73 666 282 89 94 103
73 666 283 85 90 99
73 667 282 91 96 105
73 667 283 87 94 104
74 664 283 87 92 100
74 665 283 84 87 95
73 666 284 77 83 91
73 666 285 75 81 90
73 667 284 81 88 97
73 667 285 77 84 93
73 666 286 72 78 86
73 666 287 69 75 84
73 667 286 74 80 89
73 667 287 71 77 86
74 664 284 83 87 95
74 664 285 76 81 90
74 665 284 79 84 91
74 665 285 73 79 87
75 664 285 77 83 91
74 664 286 70 76 84
74 665 286 69 75 83
74 665 287 69 74 82
75 664 286 73 78 87
75 664 287 70 75 84
75 665 287 70 75 83
74 666 285 74 80 89
74 666 286 70 75 83
74 666 287 68 73 81
72 668 280 94 100 110
72 668 281 99 104 113
72 669 280 95 100 110
72 669 281 101 106 115
72 668 282 102 107 116
72 668 283 102 108 118
72 669 282 106 111 120
72 669 283 105 111 121
72 670 280 94 100 111
72 670 281 95 100 109
72 670 282 92 98 107
72 670 283 94 99 109
72 671 282 88 94 103
72 671 283 88 93 102
72 668 284 93 99 109
72 668 285 84 90 100
72 669 284 94 100 110
72 669 285 87 93 102
73 668 284 89 95 105
73 668 285 81 88 97
72 668 286 76 83 92
72 668 287 73 79 88
72 669 286 80 86 94
72 669 287 73 79 87
73 668 286 74 80 89
73 668 287 72 78 87
72 670 284 91 97 106
72 670 285 86 91 99
72 671 284 87 92 100
72 671 285 78 83 91
72 670 286 77 82 91
72 670 287 73 78 86
72 671 286 72 78 86
72 671 287 73 78 86
78 655 291 91 96 104
79 652 293 94 99 108
79 653 292 92 97 106
79 653 293 93 99 108
79 652 294 94 99 107
79 652 295 93 99 107
79 653 294 93 99 107
79 653 295 92 97 106
78 655 292 91 95 104
78 655 293 92 97 105
79 654 292 92 97 106
79 654 293 91 97 106
79 655 292 91 96 104
79 655 293 91 96 105
79 654 294 91 97 105
79 654 295 91 97 106
79 655 294 92 97 106
79 655 295 92 97 106
79 653 296 93 99 108
79 653 297 95 101 110
79 653 298 96 102 112
79 654 296 93 98 107
79 654 297 96 101 110
79 655 296 93 98 107
79 655 297 96 101 110
79 654 298 98 104 113
79 655 298 98 104 114
79 655 299 99 105 115
71 670 291 102 108 119
71 671 290 86 93 104
71 671 291 95 101 111
71 670 292 104 111 122
71 670 293 96 103 114
71 671 292 99 105 115
71 671 293 90 97 106
71 671 294 82 87 95
75 662 288 76 82 91
75 663 288 77 83 91
75 663 289 85 90 97
77 657 289 81 86 93
77 657 290 79 84 91
76 659 288 83 88 97
76 659 289 87 92 100
77 658 288 81 86 94
77 658 289 82 87 94
77 659 288 84 89 98
77 659 289 85 90 98
77 658 290 81 86 94
77 658 291 83 88 96
77 659 290 85 89 98
77 659 291 85 90 99
78 656 290 80 85 92
78 656 291 86 90 99
78 657 290 78 83 91
78 657 291 82 86 94
78 658 291 82 87 95
77 658 292 83 88 96
77 659 292 84 89 98
77 659 293 84 89 97
78 656 292 91 96 104
78 656 293 93 97 106
78 657 292 88 93 101
78 657 293 91 96 104
78 656 294 92 97 105
78 657 294 92 96 105
79 656 294 92 97 106
79 656 295 92 97 106
79 657 295 94 99 107
78 658 292 85 90 98
78 658 293 89 93 101
78 659 293 83 88 96
78 658 294 92 97 105
78 658 295 94 99 107
78 659 294 88 93 101
78 659 295 94 99 107
79 658 295 95 100 109
76 660 288 84 90 99
76 660 289 90 95 103
76 661 288 84 90 99
76 661 289 91 95 103
76 660 290 91 96 104
76 661 290 92 96 104
76 661 291 94 98 107
77 660 290 88 93 102
77 660 291 91 96 105
77 661 291 94 98 107
76 662 288 80 85 94
76 662 289 87 91 99
76 663 289 86 91 98
76 662 290 89 93 100
76 662 291 94 99 108
76 663 290 87 91 99
76 663 291 92 97 106
77 660 292 89 94 103
77 660 293 87 92 100
77 661 292 94 99 108
77 661 293 91 96 105
77 661 294 89 95 104
77 661 295 93 97 106
76 662 292 105 110 120
76 663 292 108 112 122
76 663 293 111 115 124
77 662 292 98 103 113
77 662 293 106 111 121
77 663 293 117 120 130
77 662 294 102 107 116
77 662 295 94 98 107
77 663 294 107 110 119
77 663 295 95 98 106
78 660 293 85 90 99
78 660 294 85 91 100
78 660 295 92 97 105
78 661 294 87 92 102
78 661 295 91 95 104
78 662 295 91 95 103
79 656 296 94 99 108
79 656 297 96 102 111
79 657 296 96 101 111
79 657 297 99 104 114
79 656 298 99 104 114
79 656 299 100 106 116
79 657 298 101 106 116
79 657 299 102 107 117
78 659 296 99 103 112
79 658 296 98 103 112
79 658 297 100 105 115
79 659 296 100 104 113
79 659 297 101 106 115
79 658 298 102 107 117
79 658 299 102 108 118
79 659 298 102 107 117
79 659 299 103 108 118
77 663 296 91 95 103
78 660 296 98 102 111
78 661 296 95 99 107
78 661 297 97 101 109
79 660 296 99 103 112
79 660 297 100 105 113
79 661 297 99 104 112
79 660 298 101 106 115
79 660 299 101 106 115
79 661 298 99 103 112
79 661 299 100 104 113
78 662 296 91 95 103
78 662 297 92 96 104
78 663 296 90 94 103
78 663 297 89 93 101
79 662 297 96 100 109
78 663 298 87 92 100
79 662 298 95 99 107
79 662 299 96 100 108
79 663 298 90 94 102
79 663 299 92 96 104
79 661 300 98 103 112
79 662 300 97 101 110
79 663 300 95 99 108
79 663 301 95 100 109
73 666 288 70 76 85
73 667 288 73 79 87
73 667 289 84 89 97
73 667 290 91 96 105
73 667 291 92 98 108
74 665 288 75 80 87
75 664 288 77 81 89
75 664 289 85 89 97
75 665 288 75 80 88
75 665 289 86 90 98
75 664 290 88 92 100
75 665 290 87 92 100
75 665 291 84 90 99
74 666 288 74 80 88
74 666 289 88 93 101
74 666 290 97 102 111
74 666 291 96 102 112
74 667 291 95 102 112
75 666 290 89 95 104
75 666 291 89 95 104
75 665 292 85 90 99
75 665 293 82 87 95
74 666 292 96 102 112
74 667 292 94 100 110
74 667 293 85 91 101
75 666 292 92 97 106
75 666 293 83 88 96
75 667 293 84 90 99
75 666 294 80 85 92
75 667 294 84 90 98
75 667 295 83 89 99
72 668 289 82 88 96
72 669 288 73 79 88
72 669 289 80 87 96
73 668 288 74 80 88
73 668 289 80 85 93
72 668 291 96 102 112
72 669 290 96 103 112
72 669 291 101 108 119
73 668 290 89 95 104
73 668 291 95 102 112
72 670 288 74 80 89
72 670 289 77 85 95
72 671 288 77 83 91
72 671 289 76 83 93
72 670 290 93 101 111
72 670 291 102 109 120
72 671 290 86 93 103
72 669 292 101 109 120
72 669 293 98 106 117
73 668 292 102 109 119
73 668 293 99 105 115
73 669 292 102 110 121
73 669 293 101 108 118
73 669 294 102 107 116
73 669 295 99 104 113
72 670 292 104 112 123
72 670 293 94 102 112
72 670 294 90 96 105
72 670 295 81 86 93
72 671 294 81 85 94
72 671 295 72 75 81
73 670 295 84 89 96
73 671 295 76 79 86
74 668 293 90 97 107
74 668 294 91 97 107
74 668 295 89 96 106
74 669 294 99 104 113
74 669 295 95 101 111
75 668 295 86 93 103
75 669 295 90 96 106
76 664 290 88 92 100
76 664 291 88 93 101
76 665 291 82 88 96
76 664 292 94 99 107
76 664 293 95 99 107
76 665 292 82 87 96
76 665 293 79 84 92
76 664 294 89 93 102
76 665 294 76 81 88
76 665 295 73 78 86
77 664 294 92 96 104
77 664 295 84 88 95
77 665 295 75 79 87
76 666 294 76 81 88
76 666 295 76 82 90
76 667 295 83 89 98
73 670 296 86 91 99
73 671 296 75 79 85
74 669 296 90 96 105
75 668 296 91 97 106
75 669 296 93 99 108
75 669 297 101 106 115
74 670 296 86 91 99
74 670 297 87 91 99
74 671 296 82 86 93
74 671 297 86 89 97
75 670 297 92 97 105
74 671 298 90 94 101
75 670 298 97 101 110
75 671 298 90 94 102
75 671 299 92 97 105
77 664 296 83 87 95
77 664 297 77 83 91
77 665 296 74 79 87
77 665 297 72 77 85
76 666 296 78 85 93
76 667 296 86 92 101
76 667 297 93 98 107
77 666 296 74 80 88
77 666 297 80 85 93
77 667 297 94 99 108
77 666 298 84 90 98
77 666 299 96 101 109
77 667 298 102 107 116
77 667 299 111 114 123
78 664 297 82 87 96
78 665 297 74 80 88
78 664 298 83 88 96
