ply
format ascii 1.0
comment PCL generated
element vertex 2023
property float x
property float y
property float z
property uchar red
property uchar green
property uchar blue
element camera 0
property float view_px
property float view_py
property float view_pz
property float x_axisx
property float x_axisy
property float x_axisz
property float y_axisx
property float y_axisy
property float y_axisz
property float z_axisx
property float z_axisy
property float z_axisz
property float focal
property float scalex
property float scaley
property float centerx
property float centery
property int viewportx
property int viewporty
property float k1
property float k2
end_header
216 931 293 155 128 115
216 930 294 160 133 118
216 930 295 161 134 119
216 931 294 162 134 120
216 931 295 166 138 123
217 932 288 78 75 77
217 932 289 91 83 81
217 933 288 77 75 77
217 933 289 89 81 80
217 932 290 113 99 93
217 932 291 134 114 105
217 933 290 108 95 91
217 933 291 129 109 101
217 934 289 88 80 79
217 934 290 102 90 88
217 934 291 129 110 102
218 934 288 75 73 75
218 934 289 81 75 75
218 934 290 100 89 87
218 934 291 123 105 98
217 932 292 147 123 112
217 932 293 156 129 116
217 933 292 146 122 111
217 933 293 157 129 117
216 932 294 163 135 121
216 932 295 168 139 125
217 932 294 164 135 121
217 932 295 169 140 125
217 933 294 166 137 123
217 933 295 172 142 128
217 934 292 148 125 114
217 934 293 158 131 119
217 934 294 170 141 127
217 934 295 176 146 132
217 935 295 179 149 135
218 935 294 172 142 130
218 935 295 179 149 136
216 929 296 159 131 116
216 929 297 160 132 118
216 929 298 161 133 118
216 930 296 161 133 118
216 930 297 163 135 120
216 931 296 167 138 123
216 931 297 168 139 125
216 930 298 166 137 122
216 930 299 169 140 124
216 931 298 170 140 126
216 931 299 171 141 126
216 929 303 184 150 135
216 930 300 172 142 127
216 930 301 177 146 131
216 931 300 174 143 128
216 931 301 179 147 132
216 930 302 182 150 135
216 930 303 185 153 138
216 931 302 184 151 137
216 931 303 187 154 139
216 932 296 169 140 125
216 932 297 171 142 127
217 932 296 172 142 127
217 933 296 175 145 131
217 933 297 176 146 133
216 932 298 173 142 128
216 932 299 175 144 129
217 933 298 178 147 135
217 933 299 180 148 135
217 934 296 179 149 135
217 934 297 181 150 138
217 935 296 182 151 138
217 935 297 183 152 141
217 934 298 184 152 141
217 934 299 185 153 141
217 935 298 185 152 141
217 935 299 186 153 141
218 935 296 183 152 139
218 935 297 184 152 140
218 935 298 185 152 141
218 935 299 186 153 141
216 932 300 177 145 131
216 932 301 181 148 134
217 933 300 182 149 136
217 933 301 183 151 137
216 932 302 184 151 137
216 932 303 187 154 139
217 932 302 184 151 137
217 932 303 187 153 139
217 933 302 184 152 137
217 933 303 186 153 139
217 934 300 185 153 140
217 934 301 185 153 140
217 935 300 186 154 141
217 935 301 186 154 141
217 934 302 186 153 139
217 934 303 185 152 138
217 935 302 186 153 140
218 935 300 186 154 142
218 935 301 186 154 141
218 935 302 185 153 140
218 935 303 184 151 137
218 936 301 187 155 142
218 936 302 186 154 140
218 936 303 183 152 138
215 928 304 183 150 135
215 928 305 186 152 137
215 929 304 185 151 136
215 929 305 188 153 139
215 928 306 188 154 139
215 928 307 189 154 140
215 929 306 189 154 140
215 929 307 190 154 140
215 928 308 191 155 141
215 928 309 195 157 143
215 929 308 192 155 141
215 929 309 194 156 143
215 928 310 199 159 146
215 928 311 202 162 148
216 929 304 186 152 137
216 929 305 189 154 139
216 929 306 190 155 141
216 929 307 191 155 141
216 930 304 188 154 139
216 930 305 190 155 141
216 931 304 189 155 140
216 931 305 191 156 142
216 930 306 192 157 143
216 930 307 193 157 142
216 931 306 192 156 142
216 931 307 193 156 142
217 931 307 193 156 142
216 929 308 194 156 142
216 929 309 196 157 144
216 928 310 200 160 146
216 928 311 202 162 148
216 929 310 199 159 145
216 929 311 201 159 146
216 930 308 194 157 143
216 930 309 195 157 143
216 931 308 193 156 142
217 931 308 192 155 141
217 931 309 193 154 140
216 930 310 198 158 145
216 930 311 201 158 145
217 930 310 197 157 144
217 930 311 199 157 143
217 931 310 193 154 140
217 931 311 194 154 140
216 932 304 189 155 140
216 932 305 190 155 141
217 932 304 188 154 140
217 932 305 189 155 140
217 933 304 187 153 139
217 933 305 187 152 138
217 932 306 190 155 141
217 932 307 191 155 140
217 933 306 186 151 137
217 933 307 186 151 136
217 934 304 184 151 137
217 934 305 184 150 136
218 933 307 183 149 135
218 934 305 182 148 134
218 935 304 182 149 135
218 935 305 180 147 133
218 934 306 180 147 133
218 934 307 179 146 132
218 935 306 177 144 131
218 935 307 175 143 130
217 932 308 189 152 138
217 932 309 187 149 135
217 933 308 186 150 135
217 932 310 188 150 136
218 933 308 183 148 134
218 933 309 181 146 132
218 932 310 185 148 133
218 932 311 186 147 132
218 933 310 180 144 130
218 933 311 176 139 125
218 934 308 178 145 131
218 934 309 175 142 129
218 935 308 173 141 128
219 934 309 171 139 126
219 935 308 170 139 127
219 935 309 167 135 123
218 934 310 174 140 126
219 934 310 168 135 122
219 934 311 165 130 117
219 935 310 159 126 114
219 935 311 152 120 107
216 928 312 206 164 150
216 928 313 210 166 151
216 929 312 205 162 148
216 929 313 210 165 150
217 929 313 206 160 146
216 928 314 213 168 153
216 928 315 215 168 152
217 928 315 215 168 152
217 929 314 209 163 148
217 929 315 212 164 149
217 930 312 200 156 141
217 930 313 199 153 139
217 931 312 195 154 140
217 930 314 201 154 141
218 929 315 206 157 143
218 930 313 196 150 136
218 931 312 192 152 138
218 931 313 191 148 134
218 930 314 197 150 137
218 930 315 196 148 134
218 931 314 188 143 129
218 931 315 185 139 125
219 931 315 181 134 120
217 928 316 218 169 154
217 928 317 220 171 155
217 929 316 215 165 151
217 928 318 222 172 156
218 928 317 221 171 156
218 929 316 210 158 145
218 929 317 212 161 148
219 929 317 202 149 137
218 928 318 222 172 156
218 928 319 224 173 157
218 929 318 217 166 152
219 928 319 224 173 158
219 929 318 205 153 140
219 929 319 214 161 148
218 930 316 197 146 134
219 930 316 191 140 128
219 930 317 190 138 126
219 931 316 179 132 118
219 931 317 176 130 116
219 930 318 192 138 127
218 932 312 184 145 131
218 932 313 182 142 129
218 933 312 175 136 123
219 933 312 167 128 115
219 933 313 166 127 114
218 932 314 182 140 125
219 932 314 177 137 123
219 932 315 172 130 115
219 933 314 164 125 111
219 933 315 163 123 109
219 934 312 157 121 109
219 934 313 150 115 102
219 935 312 145 113 100
219 935 313 141 109 96
219 934 314 150 114 100
219 935 314 141 109 95
219 932 316 167 124 109
220 929 319 201 147 136
220 931 317 173 128 114
220 930 318 184 133 120
220 930 319 187 135 123
220 931 318 167 123 110
221 930 319 177 127 116
221 931 318 161 119 105
221 931 319 162 119 106
222 931 319 156 116 104
220 933 315 155 118 104
220 934 314 145 111 97
220 934 315 146 111 98
220 935 314 137 107 93
220 935 315 135 106 91
220 932 316 161 120 104
220 932 317 160 119 103
220 933 316 155 117 103
220 933 317 152 115 100
221 933 317 147 112 98
220 932 318 158 118 102
221 932 318 153 115 100
221 933 318 146 112 97
220 934 316 143 110 95
221 934 316 142 109 95
221 934 317 139 108 95
221 935 316 131 103 89
221 935 317 129 102 90
222 932 319 146 111 98
222 933 318 143 111 96
222 933 319 140 109 95
223 933 319 135 106 93
222 935 317 127 101 89
222 934 318 135 106 92
222 935 318 125 100 88
223 934 319 129 103 89
223 935 318 121 97 85
223 935 319 121 97 86
218 936 304 181 150 136
218 936 305 177 147 133
218 936 306 173 143 130
218 936 307 173 142 130
219 936 306 170 141 128
219 936 307 170 140 127
219 936 308 167 137 124
219 936 309 160 128 116
219 937 308 161 133 120
219 937 309 153 124 112
219 936 310 151 119 106
219 936 311 145 113 100
219 937 310 146 117 104
219 937 311 140 111 98
220 937 311 139 112 98
219 936 312 137 107 94
219 936 313 135 106 93
219 937 312 137 108 95
220 936 313 131 103 90
220 937 312 133 107 93
220 937 313 127 102 88
220 936 314 129 102 89
220 936 315 126 100 87
220 937 314 122 98 84
220 937 315 117 94 82
221 936 315 121 96 84
221 937 315 114 92 80
220 938 314 124 103 89
220 938 315 120 100 87
221 938 315 115 97 85
221 936 316 120 95 83
221 937 316 109 88 77
221 938 316 113 95 83
221 938 317 108 91 81
222 936 317 113 89 80
222 937 317 101 80 72
222 936 318 113 90 82
222 937 318 97 77 70
223 936 318 111 88 81
223 936 319 104 81 75
223 937 318 95 75 71
223 937 319 91 75 71
222 938 317 104 88 78
222 938 318 98 84 75
223 938 319 93 80 72
224 934 319 128 102 90
224 935 319 122 98 87
215 911 320 137 111 88
219 896 320 136 111 91
219 897 320 137 112 91
219 898 320 137 112 91
219 899 320 138 113 92
219 900 320 138 113 93
219 901 320 136 110 91
218 902 320 142 115 95
218 903 320 141 114 95
219 902 320 133 107 89
219 903 320 130 104 87
220 896 320 136 111 91
220 896 321 135 109 91
220 897 320 136 110 91
220 897 321 133 107 89
221 896 321 135 109 91
221 897 321 134 107 90
221 896 322 137 110 94
221 897 322 135 108 92
220 898 320 134 109 89
220 898 321 131 105 87
220 899 320 134 108 89
220 899 321 130 104 86
221 898 321 131 104 88
221 899 321 129 103 87
221 898 322 133 106 91
222 896 322 142 114 99
222 896 323 146 119 103
222 897 322 140 112 98
222 897 323 148 120 105
222 898 322 140 113 99
222 898 323 147 119 104
222 899 322 137 111 96
223 898 323 149 120 106
223 899 323 146 117 103
222 896 324 149 121 105
223 896 324 151 122 107
223 896 325 153 123 108
223 897 324 151 123 108
223 897 325 152 123 108
223 896 326 153 124 107
223 898 324 150 121 106
223 898 325 151 121 107
223 899 324 146 117 103
220 900 320 131 106 88
220 900 321 127 101 85
220 901 320 128 102 85
220 901 321 123 99 83
221 900 321 127 101 87
221 901 321 123 100 85
220 902 320 123 99 82
220 902 321 120 97 81
220 903 321 118 96 80
221 902 321 119 98 83
221 903 321 116 96 82
222 901 321 126 102 88
222 900 322 135 110 96
222 901 322 132 107 93
223 900 323 141 113 99
223 901 323 134 107 95
222 902 321 122 100 85
222 903 321 118 98 85
222 902 322 126 102 89
222 903 322 118 96 85
223 902 323 125 100 90
223 903 323 114 88 82
223 900 324 142 113 99
217 905 320 145 117 99
217 906 320 144 116 97
217 907 320 140 113 94
218 904 320 141 113 95
218 905 320 137 109 92
219 904 320 128 102 84
219 904 321 121 96 80
219 905 320 126 99 83
219 905 321 119 93 79
218 906 320 136 109 91
218 906 321 129 103 86
218 907 320 136 110 91
218 907 321 130 105 87
219 906 321 117 93 78
219 907 321 116 93 77
216 908 320 136 109 88
216 909 320 133 106 84
217 908 320 136 110 89
217 908 321 135 109 90
217 909 320 132 106 85
217 909 321 132 107 87
216 910 320 132 106 83
216 911 320 133 108 85
217 910 320 130 104 83
217 910 321 129 104 83
217 911 321 129 105 83
218 908 321 129 104 86
218 909 321 126 103 85
219 908 321 119 96 79
219 908 322 111 89 73
219 909 322 116 94 77
218 910 321 125 103 83
218 911 321 126 103 83
218 910 322 123 101 82
218 911 322 124 101 82
219 910 322 117 95 78
219 911 322 116 95 78
219 911 323 114 94 76
220 904 321 116 94 79
220 905 321 113 93 78
221 904 321 115 95 82
221 905 321 114 95 82
221 904 322 113 93 82
221 905 322 112 93 81
220 906 321 111 91 77
220 907 321 111 91 76
220 906 322 112 94 80
220 907 322 112 95 80
221 906 322 111 95 82
221 907 322 115 99 86
221 907 323 117 101 87
222 904 322 111 89 80
222 905 322 108 90 78
222 905 323 107 88 77
223 904 323 106 82 74
223 905 323 105 86 75
222 906 323 110 94 82
222 907 323 117 101 88
223 906 323 111 96 83
223 905 324 106 89 77
222 907 324 121 104 90
223 906 324 112 96 84
223 907 324 119 102 89
223 907 325 122 105 90
220 908 322 112 93 78
220 908 323 114 96 81
220 909 322 111 91 75
220 909 323 113 94 79
221 908 323 119 102 88
221 909 323 117 99 84
220 910 322 109 89 72
220 910 323 110 91 75
220 911 323 107 88 72
221 910 323 113 95 80
221 909 324 120 102 87
220 911 324 105 86 70
221 910 324 117 99 84
221 911 324 109 90 75
222 908 324 122 105 90
222 909 324 123 105 90
223 908 324 124 106 91
223 908 325 125 106 90
223 909 325 125 106 90
223 909 326 126 106 90
222 910 324 121 102 87
222 910 325 122 102 88
222 911 324 116 96 82
222 911 325 115 95 80
223 910 325 124 104 88
223 911 325 121 101 86
223 910 326 126 105 88
223 911 326 125 103 87
215 912 320 138 112 88
215 913 320 140 113 89
214 915 320 150 120 96
215 914 320 142 115 90
215 915 320 148 119 95
214 916 320 155 124 101
214 917 320 160 127 105
215 916 320 155 125 101
215 917 320 161 127 105
214 918 320 165 130 109
215 918 320 167 131 110
215 919 320 175 136 116
215 920 320 183 143 123
215 921 320 187 146 127
216 912 320 136 111 88
216 912 321 135 110 88
216 913 320 139 113 89
216 913 321 139 113 89
217 912 321 133 109 87
217 913 321 137 113 90
217 913 322 136 112 91
216 914 320 142 115 91
216 914 321 142 115 91
216 915 321 147 119 95
217 914 321 141 115 91
217 915 321 148 120 96
217 914 322 141 115 93
217 915 322 148 120 97
218 912 322 127 104 84
218 913 322 133 111 90
218 913 323 135 112 92
219 912 322 121 100 82
219 912 323 120 100 81
219 913 323 128 107 88
218 914 322 140 116 94
218 914 323 140 116 95
218 915 322 146 120 97
218 915 323 146 120 98
219 914 323 136 113 93
219 915 323 144 119 97
219 914 324 136 113 93
219 915 324 141 117 96
216 916 321 155 125 101
216 917 321 162 129 107
217 916 321 154 124 101
217 917 321 162 129 107
217 916 322 155 125 102
217 917 322 162 129 108
216 918 321 168 132 111
216 919 320 176 137 117
216 919 321 176 137 118
217 918 321 169 132 112
217 919 321 176 138 118
217 918 322 169 133 113
218 916 322 155 125 102
218 916 323 153 124 102
218 917 322 162 129 108
219 916 323 152 124 102
219 917 323 161 129 109
218 919 321 179 140 121
218 918 322 169 133 114
218 918 323 168 134 115
218 919 322 176 139 121
219 918 323 168 135 116
219 919 323 177 141 124
219 916 324 151 123 101
219 917 324 160 129 109
220 912 323 113 93 76
220 912 324 110 90 74
220 913 324 118 99 81
221 912 324 107 88 71
221 912 325 108 88 71
221 913 324 113 94 76
221 913 325 111 90 73
220 914 324 128 107 88
220 915 324 137 114 93
220 915 325 137 114 93
221 914 325 120 99 81
221 915 325 130 108 89
221 914 326 119 98 79
221 915 326 126 104 85
222 912 325 112 91 76
222 913 325 109 88 71
222 912 326 111 90 74
222 913 326 111 90 72
223 912 326 120 97 82
223 913 326 114 91 74
223 913 327 117 93 76
222 914 326 114 93 74
222 915 326 121 99 80
223 914 326 114 91 73
223 914 327 115 91 73
223 915 327 119 95 76
220 919 323 176 141 124
220 916 324 148 122 100
220 916 325 146 119 98
220 917 324 157 127 108
220 917 325 151 122 102
221 916 325 140 115 94
221 917 325 150 122 102
221 916 326 135 111 91
221 917 326 145 118 97
220 918 324 165 132 114
220 919 324 173 138 121
221 918 325 159 127 109
221 919 324 176 141 124
221 919 325 170 135 118
221 918 326 156 125 106
221 919 326 166 132 114
222 916 326 130 107 87
222 916 327 131 108 88
222 917 326 143 116 95
222 917 327 139 113 93
223 916 327 126 102 83
223 917 327 134 108 89
222 918 326 152 122 102
222 918 327 147 118 98
222 919 326 162 128 110
222 919 327 159 126 108
223 918 327 143 114 95
223 919 327 152 121 102
216 920 320 184 142 123
216 921 320 190 147 128
217 920 321 184 143 124
217 921 320 192 147 128
217 921 321 190 146 128
216 922 320 197 152 133
216 923 320 205 158 140
217 922 320 197 151 133
217 922 321 197 150 132
217 923 320 206 157 140
217 923 321 203 155 138
218 920 321 185 143 125
218 921 321 190 146 129
218 920 322 184 144 127
218 921 322 190 147 130
219 920 322 186 146 130
219 920 323 186 147 131
219 921 322 192 149 134
219 921 323 190 149 134
218 922 321 196 150 133
218 923 321 204 155 139
219 923 321 205 156 142
219 922 322 197 152 136
219 923 322 204 156 143
216 924 320 210 162 145
217 924 320 212 162 147
217 925 320 217 167 152
217 926 320 220 170 155
218 924 321 212 162 146
218 925 320 219 169 155
218 925 321 218 167 153
219 924 321 211 161 147
219 925 321 219 169 156
219 924 322 211 162 149
219 925 322 217 167 155
218 926 320 224 175 161
218 926 321 223 174 159
218 927 320 228 178 163
219 926 321 226 178 165
219 927 320 229 179 164
219 927 321 230 180 168
219 926 322 223 174 162
220 920 323 186 148 133
220 921 323 192 151 137
220 922 323 198 154 141
220 923 323 204 157 144
221 923 323 204 157 145
220 920 324 184 146 132
221 920 324 182 144 129
221 920 325 179 142 125
221 921 324 190 149 135
221 921 325 186 145 131
221 922 324 196 152 139
221 922 325 194 150 136
221 923 324 202 155 143
222 921 325 187 146 131
222 920 326 174 137 120
222 921 326 181 142 126
223 920 327 166 131 113
223 921 326 180 141 124
223 921 327 175 137 119
222 922 325 192 148 135
222 923 325 199 153 141
222 922 326 189 146 131
222 923 326 198 153 139
223 922 326 186 145 129
223 922 327 183 143 126
223 923 326 195 152 137
223 923 327 192 150 135
220 924 322 210 161 149
220 924 323 210 161 149
220 925 322 217 168 157
220 925 323 214 165 153
221 924 323 210 161 149
221 925 323 215 168 156
220 927 321 229 179 169
220 926 322 225 177 166
220 927 322 227 178 168
221 926 322 225 177 166
221 926 323 222 174 163
221 927 322 225 176 165
221 927 323 224 175 165
222 926 323 222 174 163
222 927 323 220 170 160
221 924 324 208 159 147
221 925 324 212 164 152
222 924 324 207 159 147
222 924 325 206 159 146
222 925 324 213 166 154
222 925 325 212 165 153
223 925 325 210 165 153
223 924 326 204 160 146
223 925 326 211 167 154
222 926 324 218 171 159
222 927 324 217 168 157
223 926 324 217 169 158
223 926 325 216 170 158
223 927 324 213 163 152
223 927 325 214 166 155
223 920 328 163 129 110
219 928 320 225 174 160
220 928 320 222 170 158
220 928 321 225 175 164
220 929 320 211 159 148
221 928 321 220 169 158
221 929 320 202 148 139
221 929 321 210 157 147
221 928 322 221 170 160
221 930 320 183 131 121
222 929 321 198 145 136
222 928 322 215 163 154
222 928 323 211 159 150
222 929 322 199 146 138
223 928 323 205 153 143
223 929 322 189 136 128
223 929 323 196 144 136
222 930 320 170 121 112
222 930 321 178 127 118
222 931 320 155 114 104
223 930 321 165 118 109
223 931 320 146 109 99
223 931 321 149 110 100
223 930 322 172 121 113
223 928 324 203 152 142
222 932 320 145 110 98
223 932 320 139 106 94
223 933 320 135 105 91
223 937 320 88 74 70
223 938 320 90 78 71
224 897 325 151 121 106
224 896 326 153 123 107
224 896 327 152 121 106
224 897 326 151 119 105
225 896 327 151 119 105
225 897 326 148 114 102
225 897 327 149 114 102
224 898 325 148 118 104
224 899 324 145 115 102
224 899 325 143 112 100
224 898 326 147 114 102
224 899 326 143 110 100
225 898 326 145 110 101
225 898 327 146 108 101
225 899 326 142 106 99
226 898 327 145 106 102
226 899 327 142 104 100
224 902 323 124 96 90
224 903 323 112 83 79
224 900 324 140 110 98
224 900 325 139 107 97
224 901 324 133 104 96
224 901 325 132 99 94
225 900 325 135 102 95
225 901 325 125 91 87
225 900 326 134 99 93
225 901 326 121 86 84
224 902 324 121 90 86
224 903 324 106 76 74
225 902 325 113 79 77
225 903 325 101 69 69
225 902 326 114 80 80
226 900 326 136 101 96
226 900 327 140 107 102
226 901 326 128 96 93
226 901 327 136 106 102
227 901 327 139 109 106
226 902 326 117 86 85
226 903 326 107 77 76
226 903 327 109 80 78
227 902 327 126 99 96
227 903 327 117 89 87
225 896 328 151 118 105
225 896 329 151 115 105
225 897 328 150 115 104
226 896 329 151 114 105
226 897 328 148 109 102
226 897 329 150 110 105
226 896 330 153 113 107
226 896 331 154 113 108
226 897 330 153 111 108
227 896 331 156 112 110
227 897 330 154 111 110
227 897 331 157 112 113
226 898 328 146 106 102
226 898 329 148 106 104
226 899 328 144 105 103
227 898 329 147 104 104
227 899 328 145 108 105
227 899 329 145 108 107
227 898 330 148 104 105
227 898 331 150 105 107
227 899 330 143 108 105
226 896 332 156 113 110
227 896 332 159 115 115
227 896 333 163 118 120
227 897 332 161 115 117
227 897 333 165 119 122
227 896 334 168 122 126
227 900 328 150 121 116
227 900 329 155 129 125
227 901 328 150 125 121
227 902 328 138 112 109
227 903 328 126 99 97
228 898 331 149 105 107
228 899 330 145 116 111
228 899 331 145 112 110
228 897 332 159 113 115
228 897 333 162 116 119
228 896 334 173 126 130
228 896 335 176 127 132
228 897 334 166 118 121
228 897 335 173 123 126
229 897 334 154 105 107
229 897 335 156 105 108
228 898 332 150 107 108
228 898 333 147 106 105
228 899 332 151 121 116
229 899 333 158 133 127
229 898 334 141 103 99
229 898 335 136 98 96
229 899 334 157 134 127
229 899 335 149 127 122
230 899 335 147 126 122
228 900 329 163 143 138
228 901 328 151 128 123
228 901 329 167 148 142
228 900 330 161 140 134
228 900 331 165 146 140
228 901 330 179 162 155
228 901 331 181 165 157
229 900 331 172 154 147
229 901 331 180 163 154
228 902 328 146 123 118
228 902 329 159 137 132
228 903 328 139 113 109
228 903 329 141 116 111
228 902 330 167 147 139
228 902 331 174 156 146
228 903 330 148 123 118
229 902 331 169 149 139
229 903 331 154 130 122
228 900 332 166 146 140
229 900 332 173 154 147
229 900 333 177 157 150
229 901 332 180 162 152
229 901 333 186 168 159
229 900 334 181 163 155
229 901 334 193 175 165
229 902 332 175 153 145
229 902 333 186 166 157
229 903 332 161 137 131
229 903 333 172 151 143
229 902 334 194 176 167
229 903 334 180 159 151
230 900 334 186 168 160
230 900 335 178 160 154
230 901 334 196 179 169
230 901 335 197 180 172
230 902 334 195 177 167
230 902 335 197 180 170
230 903 334 180 159 151
230 903 335 180 158 150
224 904 323 102 77 71
224 904 324 99 74 69
224 905 324 103 84 74
224 905 325 103 85 75
225 904 325 97 71 67
225 905 325 100 79 71
225 904 326 98 72 67
225 905 326 102 81 72
225 905 327 103 82 72
224 906 324 110 94 82
224 906 325 113 96 83
224 907 325 121 103 89
224 906 326 114 97 84
224 907 326 121 104 89
225 906 326 111 93 80
225 906 327 110 92 79
225 907 327 121 103 88
226 904 326 101 74 70
226 904 327 106 78 75
226 905 326 99 76 69
226 905 327 103 79 70
227 904 327 110 82 79
226 906 327 111 91 79
224 908 326 126 106 89
224 908 327 128 107 90
224 909 326 127 106 89
224 909 327 129 107 91
225 908 327 128 107 91
225 909 327 131 108 92
224 910 326 127 105 89
224 910 327 128 105 88
224 911 327 128 104 87
225 910 327 129 106 89
225 907 328 125 104 90
226 905 328 104 79 71
227 904 328 112 84 81
227 904 329 111 83 81
227 905 328 103 77 71
227 905 329 104 79 71
227 905 330 105 81 72
226 906 328 111 89 78
226 906 329 112 90 77
226 907 328 121 102 87
226 907 329 124 102 88
227 906 329 108 85 73
226 907 330 126 104 89
227 906 330 111 89 76
227 906 331 111 89 76
227 907 330 124 102 87
227 907 331 125 104 89
227 906 332 112 90 75
227 907 332 124 102 87
227 907 333 128 106 90
225 908 328 131 109 93
225 908 329 136 113 96
225 909 328 133 110 93
225 909 329 136 112 95
225 910 328 131 107 90
225 910 329 135 110 92
225 911 328 130 105 88
225 911 329 133 108 90
226 908 329 134 111 95
226 909 329 139 115 98
226 908 330 138 115 99
226 908 331 144 120 104
226 909 330 143 118 101
226 909 331 146 121 104
227 908 331 141 117 101
227 909 331 150 125 108
226 910 329 138 113 95
226 911 329 136 109 92
226 910 330 142 115 98
226 910 331 147 120 103
226 911 330 140 112 95
226 911 331 144 116 98
227 910 331 151 124 107
227 911 331 147 119 102
227 908 332 143 119 103
227 908 333 142 118 103
227 909 332 151 125 109
227 909 333 152 126 111
227 910 332 152 126 109
227 910 333 154 127 111
227 911 332 151 125 108
227 911 333 154 127 111
228 904 329 124 95 94
228 904 330 126 97 95
228 904 331 123 95 91
228 905 330 109 82 78
228 905 331 108 83 74
229 904 331 138 109 104
228 906 331 109 86 73
228 904 332 122 95 90
228 905 332 111 86 78
228 905 333 114 88 80
229 904 332 140 114 108
229 904 333 149 124 117
229 905 332 127 100 95
229 905 333 128 100 94
229 904 334 153 126 120
229 905 334 125 96 89
228 906 332 109 85 73
228 906 333 111 87 75
228 907 333 122 99 85
228 906 334 114 90 78
228 907 334 124 100 87
229 906 334 115 90 80
229 906 335 117 91 82
229 907 334 125 100 87
229 907 335 124 99 87
230 904 334 146 115 111
230 904 335 154 125 121
230 905 335 129 96 95
230 906 335 118 90 84
228 908 333 146 122 107
228 909 333 154 129 113
228 908 334 142 117 103
228 909 334 153 127 112
229 908 334 137 112 98
229 908 335 140 114 100
229 909 335 153 126 112
228 910 333 155 129 112
228 911 333 154 127 111
228 910 334 156 130 114
228 911 334 156 130 114
229 910 334 156 130 114
229 910 335 155 128 113
229 911 334 157 131 115
229 911 335 155 129 114
230 911 335 154 127 112
228 896 336 181 132 136
229 896 336 185 135 138
229 896 337 186 134 137
229 897 336 168 116 119
229 898 336 141 94 96
230 896 337 183 129 133
230 897 336 149 97 99
230 897 337 148 95 98
230 896 338 181 124 130
230 897 338 156 98 104
231 896 338 164 105 113
231 896 339 167 106 114
231 897 338 135 79 85
230 898 336 131 94 93
230 898 337 123 91 90
230 899 336 146 127 124
230 899 337 147 131 130
231 898 337 115 89 89
231 899 337 143 129 129
231 898 338 108 77 80
231 899 338 131 117 118
230 900 336 179 165 159
230 901 336 196 180 173
231 900 337 183 171 169
231 901 336 200 185 178
231 901 337 199 185 181
230 902 336 197 178 170
230 903 336 180 157 151
231 902 336 198 180 173
231 902 337 200 182 176
231 903 336 182 158 155
231 903 337 181 155 153
230 904 336 153 121 121
230 905 336 125 93 91
231 904 336 153 120 120
231 904 337 153 119 119
231 905 336 129 96 94
231 905 337 126 92 90
230 906 336 117 91 81
230 907 336 122 96 84
231 906 337 116 89 81
231 907 337 123 97 87
229 908 336 148 122 108
230 908 336 139 112 99
230 909 336 152 125 111
231 908 337 139 111 99
231 909 337 151 123 109
230 910 336 152 124 109
230 911 336 151 123 109
231 910 336 149 121 107
231 910 337 150 122 108
231 911 336 148 121 106
231 911 337 147 120 106
232 896 339 141 80 89
232 897 338 114 67 73
232 897 339 113 66 73
233 897 339 101 61 67
232 898 338 100 78 81
232 898 339 96 76 80
232 899 338 132 125 127
232 899 339 142 139 144
233 898 339 92 78 83
233 899 339 124 121 127
232 896 340 138 73 86
233 896 340 117 61 72
233 897 340 94 57 64
233 898 340 85 66 71
234 896 340 103 54 63
234 896 341 98 54 64
234 897 340 85 57 63
235 896 341 93 56 64
235 897 341 82 57 61
234 898 340 88 77 83
234 899 340 139 138 144
235 898 340 83 75 82
235 898 341 78 67 75
235 899 340 148 146 152
235 899 341 100 96 106
232 901 337 207 193 188
232 900 338 178 172 174
232 901 338 207 196 194
233 900 338 196 190 193
233 900 339 195 191 196
233 901 339 220 210 211
232 902 338 202 185 180
232 903 338 181 157 151
233 902 338 212 198 195
233 902 339 217 202 199
233 903 338 191 168 164
233 903 339 201 180 176
234 900 339 212 207 211
234 901 339 224 216 217
234 902 339 223 209 207
234 903 339 204 185 180
234 900 340 202 198 204
234 901 340 228 219 220
235 900 340 212 206 211
235 901 340 229 221 222
234 902 340 229 216 214
235 902 340 230 218 216
235 903 340 207 188 183
236 896 341 89 57 63
236 897 341 82 62 65
237 897 341 82 68 73
236 896 342 87 59 63
237 896 342 85 60 63
237 897 342 83 66 71
236 898 341 89 80 86
236 899 341 145 142 147
237 898 341 116 111 118
237 899 341 177 173 177
237 898 342 93 85 94
238 896 342 85 60 65
238 897 342 86 72 80
239 896 342 83 59 64
239 897 342 89 77 83
238 899 341 204 199 202
238 898 342 124 120 126
238 899 342 188 183 188
239 898 342 144 140 145
239 899 342 203 198 202
236 900 340 217 210 214
236 900 341 202 196 199
236 901 340 226 217 219
236 901 341 222 212 213
237 900 341 211 204 206
237 901 341 220 210 210
236 902 340 229 216 215
236 902 341 222 208 206
236 903 340 205 186 181
236 903 341 196 171 168
237 902 341 213 197 195
237 903 341 181 150 151
238 900 341 217 209 211
238 901 341 222 211 211
238 900 342 222 215 218
238 901 342 227 216 215
239 900 342 225 218 220
239 901 342 230 219 218
238 902 341 212 195 193
238 903 341 187 159 160
238 902 342 211 193 191
238 903 342 169 133 136
239 902 342 209 190 187
239 903 342 170 136 138
232 905 337 127 92 91
232 904 338 151 114 114
232 905 338 125 90 88
233 904 338 157 123 123
233 904 339 173 144 142
233 905 338 125 90 87
232 906 337 117 89 82
232 907 337 121 94 87
232 906 338 118 89 82
232 907 338 126 98 91
233 906 338 118 89 82
233 906 339 120 91 85
233 907 338 127 99 92
233 907 339 128 99 93
234 904 339 161 130 127
234 905 339 128 91 90
234 906 339 122 92 87
234 907 339 130 101 95
234 905 340 122 87 84
235 904 340 166 136 132
235 905 340 128 92 90
234 906 340 123 94 89
234 907 340 133 103 97
235 906 340 127 97 92
235 907 340 137 106 100
232 908 337 143 115 103
232 909 337 151 123 109
232 908 338 139 110 100
232 909 338 152 123 110
233 908 338 143 113 103
233 908 339 140 109 101
233 909 338 152 123 111
232 910 337 150 122 109
232 911 337 147 120 106
232 910 338 151 123 109
232 911 338 147 120 106
233 910 338 151 123 110
233 911 338 147 121 107
233 911 339 144 119 105
234 908 339 142 111 103
234 909 339 153 123 112
234 910 339 153 124 111
234 911 339 147 120 107
234 908 340 144 113 105
235 908 340 150 119 109
235 909 340 156 124 113
235 910 340 154 123 112
235 911 340 147 121 108
235 911 341 142 119 104
236 904 340 161 127 125
236 904 341 159 122 122
236 905 340 131 94 92
236 905 341 128 95 91
237 904 341 149 108 111
237 905 341 129 96 93
237 905 342 130 96 92
236 906 341 133 104 98
236 907 341 144 112 106
237 906 341 136 107 100
237 907 341 149 116 109
237 906 342 139 109 101
237 907 342 151 119 110
238 904 342 142 100 104
238 905 342 129 95 92
239 904 342 139 99 101
239 905 342 129 95 92
238 906 342 138 107 100
238 907 342 153 120 111
239 906 342 137 103 98
239 906 343 141 107 101
239 907 343 155 120 111
236 908 341 154 121 112
236 909 341 155 124 112
237 908 341 157 123 114
237 909 341 155 123 111
237 908 342 158 123 114
237 909 342 155 122 111
236 910 340 151 122 110
236 910 341 150 122 109
236 911 341 143 119 104
237 910 341 150 122 108
237 911 341 141 118 102
237 910 342 147 120 106
237 911 342 138 116 99
238 908 342 159 124 114
238 909 342 154 121 110
239 908 342 160 124 114
239 908 343 160 124 114
239 909 342 153 121 110
239 909 343 152 121 109
238 910 342 145 119 104
238 911 342 135 112 97
239 910 342 142 116 102
239 910 343 143 117 104
239 911 342 135 111 97
239 911 343 134 110 97
224 912 327 126 102 86
224 913 327 123 98 81
224 914 327 118 93 75
224 915 327 118 93 74
224 916 327 120 95 76
224 912 328 129 104 87
224 913 328 126 101 84
225 912 328 131 105 88
225 912 329 133 105 88
225 913 328 131 104 86
225 913 329 133 105 88
224 914 328 124 97 79
224 915 328 120 93 75
225 914 328 129 101 84
225 915 328 125 96 79
225 915 329 126 97 80
226 912 329 135 107 89
226 913 329 135 106 88
226 912 330 137 109 90
226 913 330 138 108 90
227 912 330 140 111 92
227 912 331 143 114 96
227 913 330 139 109 90
227 913 331 142 111 93
226 914 329 135 106 89
226 915 329 132 101 85
226 914 330 139 109 91
227 914 330 140 109 92
227 914 331 142 110 93
227 915 330 140 108 92
227 915 331 141 108 92
227 912 332 149 120 103
224 916 328 121 94 75
224 917 328 125 99 80
225 916 328 121 92 75
225 916 329 123 94 77
225 917 329 121 93 75
224 918 328 132 104 86
224 919 328 145 115 96
225 918 328 129 102 83
225 918 329 124 96 78
225 919 329 136 108 88
226 916 329 128 97 81
226 917 329 123 94 77
226 917 330 125 94 78
227 916 330 135 104 88
227 916 331 136 104 89
227 917 330 129 98 83
227 917 331 130 98 84
226 918 329 123 94 76
226 919 329 128 99 80
226 918 330 124 94 77
226 919 330 129 100 80
227 918 330 126 95 78
227 918 331 127 95 80
227 919 330 126 97 78
227 919 331 126 95 78
228 913 331 146 115 98
228 914 331 145 112 95
228 915 331 144 111 94
228 912 332 150 121 104
228 912 333 154 125 109
228 913 332 149 118 102
228 913 333 154 122 107
229 913 333 153 122 107
229 912 334 157 130 114
229 912 335 155 129 114
229 913 334 155 124 110
228 914 332 149 116 100
228 915 332 148 114 98
229 914 333 152 118 104
229 915 332 146 112 97
229 915 333 148 113 99
229 914 334 152 119 105
229 915 334 146 111 99
230 912 335 153 126 111
230 913 335 152 123 108
230 914 334 150 118 105
230 914 335 148 118 105
230 915 334 144 111 99
230 915 335 136 102 92
228 916 331 140 108 93
228 917 331 132 99 86
228 918 331 127 94 80
228 919 331 126 95 79
228 916 332 139 105 91
228 917 332 130 96 84
229 916 332 142 107 93
229 916 333 138 103 91
229 917 333 129 96 85
229 916 334 133 98 88
229 917 334 124 92 81
229 917 335 121 90 76
228 918 332 127 94 81
228 919 332 127 96 81
228 919 333 128 96 83
229 918 333 127 95 82
229 919 333 129 97 84
229 918 334 125 94 81
229 918 335 126 97 82
229 919 334 131 100 87
229 919 335 138 108 92
230 916 334 131 97 87
230 916 335 122 88 79
230 917 335 120 90 76
230 918 335 127 100 83
230 919 335 137 108 91
224 922 327 188 148 132
224 923 327 196 155 140
224 924 327 204 162 148
224 925 326 211 168 155
224 925 327 210 168 155
225 924 327 204 164 149
225 925 327 208 168 153
224 926 325 214 168 156
224 927 325 209 161 149
224 926 326 213 169 157
225 926 326 209 165 152
225 926 327 209 167 153
225 927 326 204 157 145
226 926 327 206 163 149
226 927 326 200 153 141
226 927 327 199 153 142
227 927 327 195 150 138
224 920 328 158 126 107
224 921 328 169 134 115
225 920 329 150 120 100
225 921 328 169 133 115
225 921 329 161 127 108
224 922 328 183 144 127
224 923 328 192 152 136
225 922 328 178 141 124
225 922 329 175 139 121
225 923 328 191 153 137
225 923 329 189 151 134
226 921 329 157 125 105
226 920 330 141 111 91
226 921 330 152 120 101
227 920 330 134 105 85
227 920 331 132 103 83
227 921 330 146 115 96
227 921 331 141 109 90
226 922 329 170 135 117
226 923 329 184 147 130
226 922 330 167 132 114
227 922 330 162 128 110
227 922 331 152 119 100
227 923 330 176 140 122
225 924 328 201 161 146
225 925 328 206 167 152
226 924 328 199 161 145
226 924 329 195 156 141
226 925 328 205 165 151
226 925 329 201 162 147
227 924 329 191 153 137
227 925 329 198 159 144
227 924 330 187 149 133
226 926 328 205 163 149
227 926 328 201 158 145
227 926 329 200 159 145
227 927 328 197 153 140
228 920 331 131 100 84
228 921 331 139 107 89
228 922 331 151 116 98
228 923 330 170 134 116
228 923 331 163 126 108
229 923 331 162 124 107
228 920 332 132 101 86
228 920 333 133 101 88
228 921 332 138 106 89
229 920 333 137 105 91
229 921 333 142 109 94
229 920 334 142 109 95
229 920 335 148 116 100
229 921 334 149 114 100
228 922 332 145 111 93
229 922 332 148 113 96
229 922 333 148 113 97
229 923 332 155 118 100
229 923 333 153 117 100
230 920 335 151 117 102
230 921 334 153 118 104
230 921 335 158 122 108
230 922 333 152 117 102
230 923 333 156 118 103
230 922 334 155 120 105
230 922 335 164 126 112
230 923 334 160 121 106
230 923 335 164 125 111
231 923 334 163 123 108
231 923 335 168 129 114
228 925 329 195 156 140
228 924 330 182 144 128
228 924 331 173 135 119
228 925 330 189 150 134
229 924 331 171 132 116
229 925 330 185 146 130
229 925 331 178 139 122
228 926 328 197 154 141
228 926 329 196 155 141
228 927 328 193 148 136
229 926 329 194 153 138
229 927 328 188 144 131
229 927 329 190 147 133
229 926 330 190 150 134
230 925 331 176 138 120
230 927 329 187 143 129
230 926 330 188 147 131
230 926 331 183 144 126
230 927 330 188 146 131
231 926 331 183 142 126
231 927 330 184 141 127
231 927 331 183 141 125
229 924 332 162 123 106
230 924 332 162 123 106
230 924 333 159 120 103
230 925 332 168 130 112
230 925 333 162 123 105
231 924 333 162 122 106
231 925 333 164 125 107
231 924 334 164 124 109
231 924 335 170 129 114
231 925 334 165 125 108
230 926 332 175 137 118
231 926 332 177 137 119
231 926 333 170 131 112
231 927 332 181 140 124
232 924 335 172 131 115
232 925 334 167 128 110
232 925 335 171 130 114
232 926 333 173 134 115
232 927 332 179 137 121
232 927 333 177 136 119
233 927 333 177 135 118
232 926 334 171 132 114
232 926 335 173 133 115
233 926 334 174 134 116
233 926 335 175 135 117
233 927 334 176 135 118
233 927 335 176 135 117
230 912 336 150 123 108
230 913 336 148 120 106
231 912 336 148 121 107
231 912 337 146 119 105
231 913 336 147 119 106
231 913 337 143 117 103
230 914 336 142 113 101
230 915 336 128 95 86
231 914 336 141 112 99
231 914 337 136 108 96
231 915 336 131 100 90
231 915 337 121 91 82
230 916 336 119 89 78
230 917 336 120 93 76
230 917 337 119 94 76
231 916 337 115 89 77
231 917 337 115 92 75
231 916 338 111 87 76
231 917 338 112 89 73
230 918 336 129 102 84
230 918 337 126 102 82
230 919 336 141 111 93
230 919 337 142 112 93
231 918 337 125 101 81
230 919 338 148 116 98
231 918 338 122 99 81
231 918 339 118 95 79
231 919 338 142 114 95
231 919 339 141 114 95
231 919 340 138 112 93
231 919 341 142 116 97
230 920 336 155 120 104
230 920 337 157 122 106
230 921 336 166 129 114
230 921 337 170 131 116
230 920 338 163 127 111
231 920 338 165 129 112
231 920 339 163 128 112
231 921 338 175 136 121
231 921 339 178 138 123
230 922 336 172 133 119
230 922 337 173 134 119
231 922 337 178 137 123
231 923 336 178 137 123
231 923 337 182 140 128
231 922 338 183 141 128
231 922 339 186 144 132
231 923 338 187 144 132
231 920 340 162 128 110
231 920 341 161 128 110
231 921 340 177 139 124
231 921 341 173 137 120
231 922 340 185 144 131
231 924 336 176 133 119
232 912 337 142 117 103
232 913 337 138 112 99
232 912 338 141 116 102
232 913 338 137 112 99
233 912 338 142 118 104
233 912 339 139 115 103
233 913 338 135 110 98
233 913 339 134 109 98
232 914 337 131 103 92
232 915 337 121 92 82
232 914 338 125 100 88
232 915 338 116 89 79
232 915 339 111 87 76
233 914 338 126 101 89
233 914 339 122 97 86
233 915 339 114 90 80
234 912 339 139 115 102
234 913 339 134 110 98
234 914 339 126 101 90
233 915 340 111 87 79
234 913 340 133 109 97
235 912 340 138 115 101
235 912 341 137 115 99
235 913 340 135 111 98
235 913 341 128 104 91
234 914 340 121 96 86
234 914 341 119 95 84
234 915 340 114 89 81
234 915 341 108 84 77
235 914 341 119 95 84
234 915 342 99 75 69
235 914 342 117 93 81
235 915 342 107 83 73
235 915 343 100 77 69
232 916 338 111 87 77
232 916 339 105 82 73
232 917 338 109 86 72
232 917 339 103 80 68
232 918 339 107 85 71
232 917 340 92 68 58
233 916 340 99 74 69
233 916 341 89 62 62
233 917 340 89 65 59
233 917 341 78 55 52
233 917 342 74 58 52
232 918 340 105 83 69
232 918 341 98 77 62
232 919 340 121 100 83
232 919 341 128 105 87
233 918 341 85 66 53
232 919 342 128 106 88
232 919 343 136 112 93
233 918 342 91 73 59
233 918 343 99 82 68
233 919 343 119 100 83
234 916 341 93 66 64
234 916 342 87 63 59
234 916 343 82 64 59
234 917 342 79 60 57
234 917 343 83 67 58
235 916 343 92 70 63
236 912 341 136 113 98
236 913 341 131 107 92
237 912 341 136 113 97
236 913 342 123 98 84
237 912 342 134 110 95
237 913 342 124 99 86
237 913 343 116 91 78
236 914 342 115 92 79
236 915 343 105 84 72
237 914 343 113 90 76
238 912 342 131 107 93
238 912 343 128 104 92
238 913 342 126 100 88
238 913 343 122 95 83
239 912 342 131 106 94
239 912 343 130 106 93
239 913 343 120 95 83
238 914 343 112 90 75
239 914 343 111 89 73
233 918 344 106 90 75
233 919 344 136 113 94
233 919 345 139 115 96
234 917 344 91 76 64
235 916 344 94 75 63
235 916 345 103 83 69
235 917 344 92 74 64
235 917 345 111 93 78
235 917 346 131 109 90
234 918 344 108 92 77
234 918 345 127 107 90
234 919 345 145 119 99
235 918 345 127 107 88
234 919 346 151 124 104
235 918 346 140 116 96
235 918 347 147 120 100
235 919 346 151 123 104
235 919 347 160 130 111
236 915 344 104 83 70
237 914 344 111 91 75
237 915 344 110 91 75
237 915 345 115 96 80
237 915 346 120 101 84
238 914 344 111 92 75
238 915 344 114 96 79
238 915 345 117 99 82
239 914 344 112 92 77
239 914 345 112 93 78
239 915 345 115 97 81
238 915 346 123 104 87
239 915 346 120 102 86
236 916 344 102 81 67
236 916 345 112 93 77
236 916 346 124 104 87
236 917 346 130 108 89
236 917 347 140 116 95
237 916 346 125 105 87
237 916 347 132 111 92
237 917 347 140 117 96
236 918 347 150 123 102
236 919 347 163 131 113
237 918 347 151 124 103
237 919 347 161 130 111
238 916 346 128 108 90
238 916 347 132 112 93
238 917 347 143 120 99
239 916 347 129 110 93
239 917 347 143 120 100
236 919 348 174 141 122
237 918 348 155 127 106
237 919 348 171 138 120
239 917 348 147 123 102
238 918 348 156 128 107
238 919 348 173 138 119
239 918 348 157 128 107
239 919 348 173 137 118
232 923 337 185 143 131
232 922 339 191 148 136
232 923 338 190 147 134
232 923 339 195 153 141
232 920 341 156 126 107
232 921 341 178 140 124
232 920 342 158 127 109
232 920 343 156 126 108
232 921 342 173 138 121
232 921 343 171 137 119
233 921 343 175 141 123
232 922 340 192 150 138
232 922 341 193 152 139
232 923 340 199 157 146
232 923 341 200 158 146
233 923 340 200 156 145
233 923 341 200 157 145
232 922 342 192 152 138
232 922 343 186 149 133
233 922 342 197 158 143
233 922 343 192 154 139
233 923 342 200 158 145
233 923 343 200 157 145
232 924 336 178 135 121
232 924 337 184 140 127
232 925 336 176 133 119
232 925 337 180 136 123
233 925 336 177 134 120
233 925 337 180 136 123
232 924 338 188 144 132
232 924 339 194 151 139
233 924 339 191 146 134
233 925 338 183 139 126
233 925 339 185 140 128
233 926 336 176 135 118
233 926 337 177 135 120
233 927 336 176 135 117
233 927 337 176 135 117
233 926 338 180 136 122
233 926 339 182 138 124
234 927 336 177 135 117
234 927 337 176 134 116
234 926 338 178 135 119
234 926 339 179 136 121
234 927 338 176 134 116
234 927 339 176 134 115
233 924 340 194 149 138
233 924 341 196 151 140
233 925 340 187 142 130
233 925 341 191 144 133
233 924 342 198 153 142
234 925 340 185 140 127
234 925 341 189 143 131
234 924 342 197 150 139
234 924 343 198 152 141
234 925 342 191 145 133
234 925 343 193 147 134
235 925 343 194 147 133
234 926 340 181 138 122
234 926 341 185 140 125
234 927 340 178 135 117
235 926 341 183 138 122
235 927 340 178 136 116
235 927 341 182 138 119
234 926 342 187 142 128
235 926 342 186 141 126
235 926 343 191 145 130
235 927 342 184 140 122
236 926 343 191 145 129
236 927 342 187 143 125
236 927 343 195 149 134
237 927 343 203 156 143
233 920 344 155 126 107
233 920 345 157 127 107
233 921 344 169 136 118
233 921 345 170 137 118
233 922 344 188 151 135
233 923 344 200 159 146
234 920 345 158 128 107
234 921 345 172 139 120
234 920 346 164 132 113
234 921 346 177 142 126
235 920 347 175 142 125
235 921 346 182 147 131
235 921 347 186 150 134
234 922 344 197 157 144
234 922 345 191 154 139
234 923 344 200 158 145
234 923 345 202 160 148
235 923 345 206 163 151
234 922 346 187 151 137
235 922 346 197 158 145
235 922 347 193 155 141
235 923 346 208 165 153
234 924 344 201 156 144
235 924 344 204 157 145
235 924 345 209 164 152
235 925 344 201 155 141
236 920 347 180 145 127
236 921 347 191 152 136
236 922 346 206 164 151
236 922 347 202 160 145
236 923 346 213 169 156
236 923 347 212 166 153
237 922 347 205 160 145
237 923 347 214 168 154
238 922 347 206 158 143
238 923 347 213 166 151
239 922 347 207 158 143
239 923 347 213 165 150
236 920 348 183 147 129
236 921 348 192 152 135
237 920 348 186 149 130
237 921 348 196 154 137
237 922 348 202 157 141
238 920 348 187 146 128
238 921 348 196 151 134
239 920 348 189 144 127
239 921 348 196 149 132
238 922 348 202 155 139
239 922 348 203 154 138
236 924 345 215 169 157
236 925 344 206 159 147
236 925 345 216 170 158
237 925 345 222 177 164
236 924 346 217 172 159
237 924 346 220 176 162
237 925 346 224 180 166
236 926 344 204 157 145
236 927 344 200 152 139
237 926 344 214 167 155
237 926 345 220 174 161
237 927 344 209 162 149
238 925 345 226 181 169
238 924 346 224 179 165
238 924 347 222 176 162
238 925 346 227 182 168
239 924 347 221 174 159
239 925 346 225 179 164
238 926 345 224 178 166
238 927 344 217 170 158
239 926 345 226 179 166
239 927 344 223 176 163
239 927 345 225 178 164
240 896 342 85 60 65
240 897 342 94 82 87
241 896 342 88 63 66
241 897 342 94 81 87
240 898 342 160 157 161
240 899 342 211 206 210
241 898 342 155 150 154
241 899 342 206 199 202
242 896 342 91 66 67
242 897 342 102 90 93
243 896 342 94 73 72
243 897 342 112 99 102
242 898 342 167 160 162
242 899 342 211 202 201
243 898 342 178 171 172
243 899 342 213 203 202
240 900 342 228 220 223
240 901 342 231 219 218
241 900 342 226 216 217
241 901 342 225 210 210
240 902 342 204 184 182
240 903 342 169 136 137
241 902 342 189 167 164
241 903 342 161 129 129
241 903 343 146 110 111
242 900 342 223 210 208
242 901 342 213 195 193
243 900 342 223 209 205
243 901 342 209 189 186
242 902 342 178 149 149
242 903 342 156 123 123
242 903 343 142 105 106
243 902 342 171 139 141
243 903 343 139 102 105
244 896 342 96 72 75
244 897 342 113 100 104
245 896 342 103 79 82
245 897 342 123 107 109
244 898 342 173 166 166
244 899 342 211 200 199
245 898 342 173 162 159
245 899 342 208 195 191
246 896 341 127 105 104
246 897 341 158 142 139
247 896 341 146 126 124
247 897 341 175 159 155
246 896 342 109 83 85
246 897 342 141 125 123
246 898 341 180 165 160
247 898 341 194 178 172
247 899 341 202 184 176
246 898 342 182 168 163
246 899 342 202 186 179
247 899 342 202 185 177
244 900 342 224 210 206
244 901 342 207 187 183
245 900 342 216 202 196
245 901 342 202 182 175
244 902 342 162 129 129
244 903 343 134 99 99
245 902 342 160 130 126
245 903 343 133 100 98
246 900 342 202 183 175
246 901 342 185 161 153
247 900 342 194 173 165
247 901 342 172 145 137
246 902 342 152 122 117
246 903 343 131 100 94
247 902 342 141 111 104
247 903 342 130 100 90
247 903 343 131 102 92
240 904 342 138 101 101
240 904 343 130 94 93
240 905 342 127 91 90
240 905 343 130 96 92
241 904 343 130 95 93
241 905 343 130 96 92
240 906 343 141 107 98
240 907 343 155 120 109
241 906 343 143 109 100
241 907 343 156 122 111
242 904 343 129 93 91
242 905 343 132 100 94
243 904 343 127 94 91
243 905 343 136 105 97
242 906 343 147 114 104
242 907 343 158 126 114
243 906 343 153 122 110
243 907 343 160 129 116
240 908 343 160 126 114
240 909 343 154 124 110
241 908 343 160 127 114
241 909 343 153 126 111
240 910 343 144 119 104
240 911 343 134 111 97
241 910 343 144 120 105
241 911 343 135 112 98
242 908 343 160 128 114
242 909 343 153 126 111
243 908 343 157 129 113
243 909 343 151 126 110
242 910 343 145 121 106
243 910 343 145 122 107
243 911 343 137 115 101
244 904 343 128 98 93
244 905 343 142 113 103
245 904 343 130 101 94
245 905 343 148 119 108
244 906 343 157 127 114
244 907 343 160 130 116
245 906 343 160 129 116
245 907 343 160 129 116
246 904 343 136 109 98
246 905 343 154 125 112
247 904 343 143 116 102
247 905 343 158 127 113
246 906 343 160 130 116
246 907 343 159 129 114
247 906 343 160 129 113
247 907 343 158 128 111
244 908 343 156 129 113
244 909 343 152 128 112
245 908 343 156 129 114
245 909 343 153 128 112
244 910 343 146 124 108
244 911 343 137 115 100
246 908 343 155 128 112
246 909 343 152 126 109
247 908 343 153 126 108
247 909 343 151 123 105
246 910 343 148 121 105
246 911 343 138 111 97
247 910 343 149 120 104
247 911 343 140 111 97
242 910 344 143 120 105
242 911 344 136 113 99
243 911 344 135 113 99
244 910 344 143 120 106
244 911 344 135 113 98
245 910 344 147 122 107
245 911 344 136 111 98
246 908 344 153 126 109
246 909 344 151 126 109
247 909 344 151 123 105
246 910 344 147 121 105
246 911 344 135 108 95
248 896 341 145 124 121
248 897 341 177 159 153
249 896 340 140 115 114
249 897 340 161 142 138
248 898 341 195 177 168
248 899 341 199 181 170
249 898 340 177 159 151
249 898 341 186 167 158
249 899 341 195 175 164
250 896 340 140 113 112
250 897 340 160 142 137
251 896 340 143 116 117
251 897 340 160 144 140
250 898 340 175 156 147
250 898 341 183 163 152
250 899 340 173 152 140
250 899 341 181 159 146
251 898 340 167 148 140
251 899 340 163 143 130
248 900 341 196 177 167
249 900 341 191 170 159
248 900 342 191 171 162
248 901 342 163 136 127
249 900 342 185 164 154
249 901 342 153 124 115
248 902 342 135 105 96
248 903 342 133 106 92
248 903 343 136 108 95
249 902 342 132 101 90
249 903 342 138 112 96
250 900 341 173 150 137
250 901 341 148 121 107
251 900 341 155 131 118
251 901 341 138 111 97
250 901 342 136 103 93
251 902 341 132 106 91
250 902 342 131 103 90
250 903 342 142 117 99
251 902 342 137 113 97
251 903 342 146 121 103
252 896 339 153 129 127
252 897 339 162 145 141
253 896 339 148 121 119
253 897 339 155 135 131
253 898 339 161 143 136
254 896 339 147 122 117
254 897 339 149 128 122
255 896 339 139 110 102
255 897 339 142 119 111
254 898 339 159 141 133
255 898 339 152 133 124
255 899 339 153 135 123
252 897 340 166 150 144
252 898 340 162 144 136
252 899 340 152 131 120
253 898 340 157 139 132
253 899 340 148 129 121
254 899 340 154 136 127
255 899 340 146 126 113
