ply
format ascii 1.0
comment PCL generated
element vertex 2306
property float x
property float y
property float z
property uchar red
property uchar green
property uchar blue
element camera 0
property float view_px
property float view_py
property float view_pz
property float x_axisx
property float x_axisy
property float x_axisz
property float y_axisx
property float y_axisy
property float y_axisz
property float z_axisx
property float z_axisy
property float z_axisz
property float focal
property float scalex
property float scaley
property float centerx
property float centery
property int viewportx
property int viewporty
property float k1
property float k2
end_header
89 286 179 48 57 67
90 284 177 45 55 66
90 285 177 47 57 68
91 284 176 43 53 64
91 284 177 45 55 66
91 285 176 45 56 66
91 285 177 47 57 67
90 284 178 46 56 66
90 285 178 49 58 68
90 285 179 48 57 67
91 286 176 46 56 67
91 286 177 47 58 69
91 287 177 48 58 69
90 286 178 48 58 68
90 286 179 48 58 68
90 287 178 47 58 69
90 287 179 48 58 68
91 286 178 47 58 69
91 287 178 48 59 70
91 287 179 48 58 69
88 284 180 46 55 65
88 284 181 47 56 66
88 285 180 48 57 67
88 285 181 47 57 67
89 284 180 47 56 66
89 285 180 48 57 67
88 285 182 46 56 67
88 285 183 46 56 67
88 286 181 47 57 68
89 286 180 47 57 68
89 286 181 48 58 68
89 287 180 47 57 68
89 287 181 46 57 68
88 286 182 46 56 67
88 286 183 44 55 66
88 287 182 46 57 68
88 287 183 44 56 67
89 287 182 46 57 69
89 287 183 46 57 69
90 287 180 47 58 69
90 287 181 45 57 68
92 284 176 43 52 62
92 285 176 45 54 64
92 286 176 46 56 66
92 287 176 47 58 69
92 287 177 48 59 70
93 287 176 46 56 67
88 286 184 45 56 67
88 287 184 47 58 70
88 287 185 46 58 70
89 287 184 47 59 71
88 287 186 49 60 72
93 288 175 45 56 67
95 288 173 43 52 62
94 288 174 43 53 64
94 288 175 45 56 67
94 289 175 48 58 69
95 288 174 43 53 64
95 289 174 45 55 66
95 289 175 47 58 69
94 290 175 49 60 72
95 290 174 46 57 69
95 290 175 50 61 72
95 291 175 53 63 74
87 288 187 51 61 73
87 288 188 51 61 72
87 288 189 51 60 71
86 288 190 47 57 68
86 288 191 46 56 67
86 289 191 46 56 67
87 288 190 50 59 70
87 289 190 49 58 68
87 289 191 46 56 66
91 288 178 47 59 71
91 288 179 47 58 70
91 289 179 49 60 72
89 288 182 47 59 71
89 288 183 46 58 70
90 288 180 46 58 69
90 288 181 46 58 70
90 289 181 47 59 72
91 288 180 46 58 69
91 289 180 49 60 72
91 289 181 50 61 73
90 288 182 46 58 71
90 288 183 46 58 70
90 289 182 48 60 72
90 289 183 48 60 72
91 290 180 51 62 74
91 290 181 50 61 73
90 290 183 50 61 74
91 290 182 49 61 73
91 290 183 50 60 72
91 291 182 50 60 72
91 291 183 49 59 71
92 288 176 49 60 71
92 288 177 48 60 72
92 289 177 49 61 73
93 288 176 48 59 70
93 289 176 49 60 72
93 289 177 49 61 73
92 288 178 47 59 71
92 289 178 49 61 73
92 289 179 51 62 73
93 290 176 51 62 74
93 290 177 51 62 74
92 290 178 50 61 73
92 290 179 52 62 74
93 290 178 50 61 73
93 291 178 50 61 73
93 291 179 50 60 72
94 289 176 48 59 71
94 290 176 51 62 74
94 291 176 53 63 75
94 291 177 51 62 74
95 291 176 52 63 75
94 291 178 49 60 71
92 290 180 51 62 74
92 291 180 50 61 73
92 291 181 49 60 71
93 291 180 48 59 71
92 291 182 48 58 69
92 291 183 45 56 67
95 292 176 50 61 73
95 292 177 49 60 71
95 293 177 45 56 68
94 292 178 47 58 70
94 292 179 46 56 68
94 293 179 43 54 65
95 292 178 48 58 70
95 293 178 43 54 66
95 293 179 41 52 63
95 294 178 40 51 62
95 294 179 39 49 59
93 292 180 45 56 67
93 292 181 42 53 65
93 293 181 40 51 62
92 292 182 43 54 65
92 292 183 42 52 63
93 292 182 39 51 62
93 293 182 39 49 59
93 293 183 40 49 58
93 294 183 40 47 54
94 292 180 44 55 66
94 293 180 42 52 62
94 293 181 40 50 59
94 294 180 40 49 59
94 294 181 39 47 56
95 294 180 39 48 57
95 294 181 38 46 55
95 295 180 37 45 53
95 295 181 35 44 52
94 294 182 38 45 53
94 294 183 36 44 52
94 295 182 35 43 51
94 295 183 35 42 49
95 295 182 34 42 50
88 288 185 49 60 72
89 288 184 46 58 71
89 288 185 48 60 72
89 289 184 47 59 71
89 289 185 47 59 71
88 288 186 49 60 72
88 288 187 51 62 73
88 289 187 53 63 74
89 289 186 49 60 72
89 289 187 51 61 72
89 290 186 48 59 70
89 290 187 48 58 69
90 289 184 49 60 73
90 290 184 48 60 72
90 290 185 47 58 70
90 291 185 45 56 67
91 290 184 50 61 73
91 291 184 46 56 67
91 291 185 43 53 63
90 290 186 46 57 69
90 290 187 46 56 67
90 291 186 43 54 65
90 291 187 44 53 64
91 291 186 42 52 62
91 291 187 41 51 60
88 288 188 52 62 73
88 289 188 51 60 71
88 289 189 49 59 70
88 289 190 48 57 68
88 290 189 46 56 67
89 290 188 47 57 67
89 290 189 46 56 66
89 291 188 45 55 65
89 291 189 44 53 63
88 290 190 46 56 67
88 290 191 44 54 64
88 291 191 42 52 62
89 290 190 43 54 64
89 290 191 42 52 63
89 291 190 42 52 62
89 291 191 40 50 60
90 291 188 44 52 62
90 291 189 43 52 62
90 291 190 41 50 59
90 291 191 41 49 59
91 292 185 42 52 62
91 292 186 40 49 58
91 292 187 40 48 57
90 292 189 39 47 56
91 292 188 39 48 56
91 292 189 38 45 54
91 293 188 39 47 55
91 293 189 38 45 52
90 292 190 39 47 55
90 292 191 38 46 55
90 293 191 36 44 52
91 292 190 38 45 54
91 293 190 38 45 53
91 293 191 36 44 52
91 294 189 38 44 51
90 294 191 36 44 52
91 294 190 36 43 50
91 294 191 36 43 51
91 295 191 36 44 52
92 292 184 43 52 63
92 292 185 41 50 59
92 293 184 40 49 58
92 293 185 39 47 55
93 293 184 39 47 55
92 292 186 40 49 58
92 293 186 38 45 54
92 293 187 40 47 54
93 294 184 37 44 52
93 294 185 36 43 51
93 295 185 35 42 49
92 294 187 37 44 51
93 294 186 35 42 49
93 294 187 35 41 49
93 295 186 35 42 50
93 295 187 35 42 48
94 294 184 35 42 50
94 295 184 35 42 50
94 295 185 36 43 50
92 293 188 37 45 52
92 294 188 36 43 49
92 294 189 37 43 50
92 295 188 36 42 49
92 295 189 37 43 50
93 295 188 37 43 49
92 294 190 36 42 49
92 295 190 37 44 51
95 296 180 36 43 51
95 296 181 35 43 51
95 297 181 37 44 51
94 296 183 36 43 50
95 296 182 35 42 50
95 296 183 36 44 51
95 297 182 36 43 50
95 297 183 38 45 52
95 298 181 39 46 53
95 299 181 41 48 55
94 298 183 38 46 54
94 299 183 41 48 56
95 298 182 38 46 53
95 298 183 38 45 53
95 299 182 41 48 56
95 299 183 41 48 56
95 300 181 41 49 56
94 300 183 42 49 57
94 301 183 44 51 59
95 300 182 42 50 57
95 300 183 42 50 58
95 301 182 45 52 60
95 301 183 45 52 60
95 302 183 47 53 61
90 297 191 36 45 53
91 296 190 38 44 51
91 296 191 38 46 53
91 297 190 39 46 53
91 297 191 38 46 53
91 298 189 39 46 53
91 299 189 40 48 56
90 298 191 38 46 55
90 299 190 40 48 57
90 299 191 38 47 55
91 298 190 39 46 54
91 298 191 39 46 54
91 299 190 39 47 55
91 301 187 45 53 62
91 302 187 43 52 61
91 303 187 40 50 60
89 300 191 40 49 59
89 301 191 38 49 59
89 302 191 39 50 61
89 303 190 40 50 59
89 303 191 38 49 60
90 301 189 42 52 61
91 300 188 42 50 59
91 300 189 40 49 58
91 301 188 43 52 61
91 301 189 42 51 61
90 300 190 39 48 57
90 300 191 40 49 58
90 301 190 41 50 60
90 301 191 39 49 60
91 300 190 40 49 57
90 302 189 41 51 61
90 303 189 40 50 60
91 302 188 42 52 61
91 302 189 42 51 61
91 303 188 40 50 60
90 302 190 41 51 61
90 303 190 40 50 60
93 296 186 36 43 49
93 296 187 37 43 49
93 297 186 38 45 52
93 297 187 38 44 51
93 298 185 41 47 54
93 299 185 42 49 56
92 298 187 41 47 54
92 299 187 42 49 56
93 298 186 40 47 53
93 298 187 41 47 54
93 299 186 43 49 56
93 299 187 43 50 57
94 296 184 36 43 50
94 296 185 37 43 49
94 297 184 38 44 51
94 297 185 39 44 50
94 298 184 40 46 53
94 298 185 41 46 53
94 299 184 42 49 56
94 299 185 42 48 55
92 296 188 38 44 51
92 296 189 38 44 50
92 297 188 39 45 52
92 297 189 40 46 54
93 296 188 38 44 51
93 297 188 38 45 52
92 296 190 38 44 51
92 297 190 40 47 54
92 298 188 39 46 53
92 298 189 39 46 53
92 299 188 41 48 56
93 300 185 43 50 58
93 301 185 45 52 60
92 300 187 44 51 59
92 301 186 45 52 61
92 301 187 45 52 60
93 300 186 44 51 58
93 301 186 45 52 60
93 302 185 46 53 62
93 303 185 45 52 61
92 302 186 45 52 61
92 302 187 44 52 61
92 303 187 42 50 60
93 302 186 46 53 61
93 303 186 44 51 60
94 300 184 42 49 57
94 301 184 45 52 60
94 302 184 46 53 62
94 302 185 46 53 62
94 303 184 45 52 61
94 303 185 44 52 60
95 302 184 47 53 61
95 303 184 47 53 61
92 300 188 42 49 57
87 309 191 36 43 51
87 310 191 36 44 51
87 311 191 36 44 51
87 312 191 37 44 52
87 313 191 39 46 54
87 314 190 37 44 52
87 314 191 40 47 55
87 315 190 38 45 52
87 315 191 41 48 55
86 316 191 43 49 57
87 316 190 40 46 53
87 316 191 42 48 55
87 317 190 41 47 54
87 317 191 42 48 55
87 318 190 43 49 56
87 318 191 43 50 57
87 319 190 44 51 58
87 319 191 44 52 61
91 304 187 39 49 58
88 304 191 40 48 57
88 305 191 39 47 56
89 304 190 41 49 58
89 304 191 41 49 58
89 305 190 41 49 57
89 305 191 41 48 57
89 306 189 40 47 55
89 307 189 39 47 55
88 306 191 39 47 55
88 307 191 38 46 54
89 306 190 40 48 56
89 306 191 40 48 56
89 307 190 40 47 54
90 304 189 39 49 58
90 305 189 40 49 58
91 304 188 40 49 58
91 305 188 40 49 58
90 304 190 41 49 58
90 305 190 41 49 58
90 306 189 40 48 57
90 307 189 38 46 55
91 306 188 39 48 57
91 307 188 38 46 55
89 308 189 38 45 53
89 309 189 37 44 52
88 308 191 37 44 52
88 309 191 36 43 51
89 308 190 38 45 52
89 309 190 37 44 51
89 310 189 36 43 50
89 311 189 36 43 50
88 310 190 36 43 50
88 310 191 36 43 50
88 311 190 36 43 50
88 311 191 36 43 50
89 310 190 36 43 50
89 311 190 36 43 50
90 308 189 37 45 53
90 309 189 36 44 51
91 308 188 37 45 53
91 309 188 37 44 51
90 310 188 35 42 50
90 310 189 35 43 50
90 311 188 35 42 50
90 311 189 35 42 50
91 310 188 36 43 50
91 311 188 36 43 50
92 304 187 39 48 58
92 305 187 38 47 57
93 304 186 40 48 57
93 304 187 39 48 57
93 305 186 37 46 55
93 305 187 38 47 56
93 306 187 39 47 56
94 304 185 41 49 58
95 304 184 41 48 57
95 304 185 39 47 56
94 304 186 38 46 55
94 305 186 38 46 55
94 305 187 39 47 56
95 305 186 38 46 55
95 305 187 38 46 54
94 306 187 40 47 56
94 307 187 39 47 55
95 306 187 39 46 54
95 307 187 39 46 54
92 305 188 39 48 57
92 306 188 39 47 56
92 307 188 38 46 55
93 306 188 38 46 55
93 307 188 37 45 54
94 307 188 37 45 54
92 311 187 36 43 50
93 310 187 36 44 51
93 311 187 36 43 51
94 308 187 38 45 53
94 309 187 36 43 51
95 308 187 37 44 52
95 309 187 36 43 51
94 310 187 37 44 51
94 311 187 35 42 50
95 310 187 37 43 50
95 311 187 36 42 49
92 308 188 37 45 53
92 309 188 36 44 52
93 308 188 35 44 53
93 309 188 35 44 52
92 310 188 36 43 51
92 311 188 36 43 51
93 310 188 36 43 51
94 308 188 37 45 53
94 309 188 36 44 52
90 313 187 36 43 50
91 312 187 35 42 49
91 313 187 37 43 50
90 314 187 36 42 49
90 315 187 36 43 50
91 314 187 37 43 49
91 315 186 36 42 49
91 315 187 36 42 49
88 313 189 35 43 50
89 312 188 34 42 50
89 312 189 34 42 50
89 313 188 35 43 50
89 313 189 35 43 50
88 312 190 35 43 50
88 312 191 36 43 51
88 313 190 36 43 51
88 314 189 37 44 51
88 315 189 38 44 51
89 314 188 35 42 50
89 314 189 35 43 50
89 315 188 35 43 50
88 314 190 37 44 51
88 315 190 38 45 52
90 312 188 35 42 49
90 313 188 36 43 50
91 312 188 36 42 49
89 316 187 37 44 51
89 317 187 39 45 51
90 316 187 37 43 50
90 317 187 37 43 50
91 316 186 37 43 49
91 317 186 37 43 50
90 318 187 39 45 51
90 319 187 41 46 53
91 318 186 38 44 51
91 319 186 39 44 50
88 316 189 39 45 52
88 317 189 40 46 53
89 316 188 37 43 50
89 317 188 39 45 51
88 316 190 40 46 53
88 317 190 41 47 53
88 318 189 40 47 54
88 319 189 41 48 56
89 318 188 39 45 52
89 319 188 40 47 54
89 319 189 40 48 56
88 318 190 42 48 55
88 319 190 43 51 59
92 312 187 35 42 50
92 313 186 38 44 51
92 313 187 36 43 50
93 312 186 34 42 49
93 312 187 34 42 49
93 313 186 36 43 50
92 314 186 37 43 50
92 315 186 36 42 49
93 314 186 35 42 49
93 315 186 35 42 49
94 312 186 35 42 49
94 312 187 34 41 49
94 313 186 35 42 49
95 312 186 35 42 48
95 312 187 35 41 48
95 313 186 35 42 48
95 314 185 35 41 48
95 315 185 36 42 49
94 314 186 34 41 48
94 315 186 35 42 49
95 314 186 35 41 48
95 315 186 36 42 49
92 317 185 37 43 50
93 316 185 36 42 49
93 317 185 36 43 50
92 316 186 37 43 50
92 317 186 37 43 50
93 316 186 36 43 50
92 318 185 37 44 50
92 319 185 39 45 51
93 318 185 37 43 50
93 319 185 38 44 51
92 318 186 38 44 50
92 319 186 39 45 50
94 316 185 36 42 49
94 317 185 36 42 49
95 316 185 36 42 49
95 317 185 36 42 49
94 316 186 36 42 49
95 316 186 36 42 48
95 317 186 36 42 49
94 318 185 37 43 50
94 319 185 38 44 51
95 319 185 38 44 51
95 318 186 38 44 50
95 319 186 39 44 51
96 265 173 40 48 55
97 265 173 40 47 55
96 266 173 41 47 54
96 267 173 40 46 53
97 266 173 39 46 53
97 267 173 39 45 52
98 265 173 40 47 54
99 265 173 41 47 54
98 266 173 41 46 53
98 267 173 39 45 52
99 266 173 40 46 53
99 267 173 38 44 51
99 267 174 37 44 51
96 268 173 39 46 53
96 269 173 38 45 51
97 268 173 38 44 51
97 269 173 39 45 52
96 270 172 40 46 52
96 270 173 39 45 51
96 271 172 39 45 51
97 270 173 39 45 51
97 271 172 39 45 51
97 271 173 39 45 51
98 268 173 38 44 51
98 269 173 39 45 52
99 269 173 38 44 51
99 268 174 38 44 51
99 269 174 38 44 51
98 270 173 39 45 52
98 271 172 39 45 51
98 271 173 38 44 51
99 270 173 37 44 51
99 271 173 36 43 51
100 265 173 41 47 54
100 266 173 39 45 52
100 267 173 39 45 52
101 266 173 39 45 52
101 267 173 41 46 53
102 266 173 40 46 52
102 267 173 41 46 52
103 266 173 40 46 53
103 267 173 40 46 52
100 268 173 38 45 52
100 269 173 37 44 52
101 268 173 40 46 52
101 269 173 38 45 53
100 268 174 37 44 51
100 269 174 36 44 51
100 270 173 37 44 52
100 271 173 36 44 52
101 270 173 37 45 52
101 271 173 35 43 51
102 268 173 41 46 52
102 269 173 39 45 52
103 268 173 40 45 52
103 269 173 38 44 51
102 270 173 38 44 51
102 271 173 37 44 52
103 270 173 36 43 51
103 271 172 36 43 50
103 271 173 36 43 50
104 266 173 39 46 53
104 267 173 38 44 51
105 266 173 39 46 53
105 267 173 39 45 52
106 267 173 39 45 52
107 267 173 39 45 51
106 270 171 37 43 49
106 271 171 37 43 50
107 270 171 39 45 51
107 271 170 40 46 52
107 271 171 39 44 51
104 268 173 37 44 51
104 269 172 35 42 50
104 269 173 36 43 51
105 268 173 38 44 51
105 269 172 36 43 49
105 269 173 38 44 51
104 270 172 36 43 50
104 270 173 35 42 50
104 271 172 35 43 51
105 270 172 36 43 50
105 271 172 37 43 50
106 268 172 39 45 51
106 268 173 39 44 51
106 269 172 38 44 50
107 268 172 39 45 51
107 268 173 38 44 51
107 269 172 38 44 51
106 270 172 37 43 49
107 270 172 39 44 50
108 267 173 38 44 51
109 267 173 37 44 51
110 267 173 38 45 51
111 267 173 38 45 52
108 269 171 38 44 51
109 269 171 37 44 51
108 270 171 40 46 52
108 271 170 40 46 52
108 271 171 40 46 53
109 270 171 39 45 52
109 271 170 39 45 52
110 269 171 39 45 51
111 269 171 40 45 52
110 270 171 39 45 52
110 271 170 39 45 51
111 270 171 40 46 52
111 271 170 40 45 51
111 271 171 40 45 52
108 268 172 39 45 52
108 268 173 39 45 51
108 269 172 38 44 51
109 268 172 38 45 52
109 269 172 38 45 51
110 268 172 38 45 52
110 269 172 37 44 51
111 268 172 39 45 52
111 269 172 39 45 52
96 272 171 38 44 51
96 273 171 38 44 51
97 273 171 40 45 51
96 274 171 38 44 51
96 275 171 38 44 51
97 274 171 40 45 51
97 275 171 38 44 51
98 274 171 38 44 51
98 275 171 37 44 51
99 274 171 36 43 51
99 275 171 37 44 51
96 272 172 38 44 51
96 273 172 39 44 50
97 272 172 39 45 51
97 273 172 40 45 51
98 272 172 37 44 51
98 273 172 38 45 51
99 272 172 36 43 51
99 273 172 37 44 51
98 274 172 38 44 51
99 274 172 37 44 51
96 276 171 37 44 51
97 276 171 37 44 51
97 277 171 37 44 51
97 278 171 38 44 51
97 279 171 37 44 51
98 276 171 37 44 51
98 277 171 37 43 51
99 276 171 37 44 52
99 277 171 36 43 50
98 278 171 37 44 51
98 279 171 38 45 52
99 278 171 37 44 51
99 279 171 39 45 53
96 276 172 37 44 51
96 277 172 38 45 52
97 277 172 37 44 51
96 278 172 38 45 52
96 279 172 38 45 52
97 278 172 38 45 52
97 279 172 37 44 51
101 273 171 35 43 51
100 274 171 36 43 51
100 275 171 36 43 51
101 274 171 37 44 52
101 275 171 37 44 51
102 273 171 36 44 51
103 273 171 35 42 50
102 274 171 36 43 51
102 275 171 37 43 51
103 274 171 36 43 51
103 275 170 37 44 52
103 275 171 37 44 51
100 272 172 35 43 52
100 273 172 36 43 51
101 272 172 35 43 52
101 273 172 35 43 51
102 272 172 37 44 52
102 273 172 35 43 51
103 272 172 36 44 51
103 273 172 35 43 51
100 276 171 37 44 51
100 277 171 38 44 51
101 276 171 37 44 51
101 277 170 38 44 50
101 277 171 39 45 51
100 278 171 39 45 51
100 279 171 39 45 51
101 278 170 39 44 51
101 278 171 39 44 51
101 279 170 39 45 51
101 279 171 39 45 51
102 276 170 38 44 50
102 276 171 37 44 51
102 277 170 39 45 51
103 276 170 37 44 51
103 277 170 39 45 51
102 278 170 40 45 51
102 279 170 39 44 50
103 278 170 39 45 51
103 279 170 37 43 50
96 280 171 38 45 52
96 281 171 38 45 53
97 280 171 37 44 52
97 281 171 38 45 52
96 282 171 40 46 53
96 283 171 41 48 55
97 282 171 39 45 52
97 283 171 41 47 54
98 280 171 38 45 53
98 281 171 39 46 53
99 280 171 38 45 52
99 281 171 39 46 53
98 282 171 38 45 52
98 283 171 41 47 54
99 282 171 39 46 53
99 283 170 39 46 53
99 283 171 40 46 53
96 280 172 38 45 53
96 281 172 40 46 54
96 282 172 40 47 54
96 283 172 42 49 56
96 284 171 42 49 56
96 285 171 42 49 56
97 284 171 42 48 55
97 285 171 42 48 55
96 286 171 42 49 56
97 286 171 43 48 55
97 287 171 43 49 55
98 284 171 41 47 54
98 285 170 41 47 53
98 285 171 41 47 53
99 284 170 40 47 54
99 284 171 40 46 53
99 285 170 41 47 54
98 286 170 41 47 53
98 286 171 41 47 53
98 287 170 41 47 54
98 287 171 42 48 54
99 286 170 41 47 54
99 287 170 42 48 55
96 284 172 43 49 56
96 285 172 42 49 56
96 286 172 43 50 57
96 287 172 43 49 57
96 287 173 42 50 58
97 287 172 43 49 56
100 280 171 38 45 52
100 281 170 38 45 52
100 281 171 38 45 52
101 280 170 39 45 51
101 281 170 38 45 51
100 282 170 39 46 52
100 282 171 39 45 52
100 283 170 39 46 53
101 282 170 40 46 53
101 283 170 39 46 52
102 280 170 38 44 51
102 281 170 38 45 51
103 280 170 38 44 50
103 281 170 38 44 51
102 282 170 38 45 51
102 283 170 39 45 52
103 282 170 38 44 51
103 283 170 39 45 51
100 284 170 40 47 54
100 285 170 40 47 54
101 284 170 39 46 53
101 285 170 38 46 54
101 287 169 38 46 54
100 286 170 40 47 54
100 287 170 41 48 55
101 286 170 37 46 54
101 287 170 40 47 55
103 285 169 40 46 52
102 284 170 39 46 52
102 285 170 38 45 53
103 284 170 41 46 52
103 285 170 39 46 52
102 286 169 38 46 53
102 287 169 38 46 54
103 286 169 39 46 52
103 287 169 38 45 52
102 286 170 37 45 53
104 272 171 36 44 51
104 273 171 35 42 50
105 272 171 37 44 51
105 273 170 37 44 51
105 273 171 36 43 50
104 274 170 36 43 51
104 274 171 36 43 51
104 275 170 36 44 51
104 275 171 37 45 52
105 274 170 37 44 51
105 275 170 36 43 51
107 273 169 39 44 51
106 272 171 38 44 50
106 273 170 38 43 50
106 273 171 38 44 50
107 272 170 38 44 50
107 272 171 38 44 50
107 273 170 39 44 51
107 274 169 39 45 51
107 275 169 37 43 50
106 274 170 39 45 51
106 275 170 37 44 51
107 274 170 40 45 51
107 275 170 37 43 49
104 272 172 36 44 51
104 273 172 35 42 50
105 272 172 37 43 51
104 276 170 36 44 51
104 277 170 37 44 51
105 276 170 35 43 51
105 277 170 36 44 51
104 278 170 37 44 51
104 279 170 37 43 51
105 278 170 36 43 51
105 279 170 36 43 51
107 276 169 37 43 50
106 276 170 36 43 50
106 277 170 37 44 51
107 276 170 37 44 50
107 277 170 38 44 51
106 278 170 37 44 51
106 279 170 37 44 51
107 278 170 38 44 51
107 279 170 38 44 51
108 273 169 39 44 51
109 272 169 38 44 51
109 273 169 38 44 50
108 272 170 40 45 52
109 272 170 39 45 51
108 274 169 39 44 51
108 275 169 37 43 50
109 274 169 39 45 52
109 275 169 38 44 51
110 272 169 38 44 51
110 273 169 38 44 51
111 273 169 39 45 51
110 272 170 37 44 51
111 272 170 39 45 51
110 274 169 38 45 52
110 275 168 38 45 52
110 275 169 38 45 52
111 274 169 38 44 51
111 275 169 38 44 51
108 276 169 38 44 51
109 276 169 38 44 51
109 277 169 39 44 51
108 277 170 38 44 51
109 277 170 39 45 51
108 278 170 38 44 50
108 279 170 38 44 50
109 278 170 39 45 51
109 279 170 39 44 50
110 276 169 38 45 51
110 277 169 39 45 51
111 276 169 39 45 51
110 277 170 40 45 51
111 276 170 39 45 51
111 277 170 40 45 51
110 278 170 40 45 51
110 279 170 40 45 51
111 278 170 39 44 50
111 279 170 39 44 50
104 280 170 37 43 50
104 281 170 37 44 51
105 280 170 37 44 51
105 281 170 38 44 51
104 282 170 36 43 50
104 283 170 37 44 51
105 282 170 37 44 50
105 283 170 39 45 52
106 280 170 38 44 51
106 281 170 38 44 50
107 280 170 38 44 51
107 281 170 37 44 50
107 281 171 37 43 50
106 282 170 38 44 50
106 283 170 39 44 51
107 282 170 38 44 50
107 283 170 38 44 50
104 285 169 39 46 52
105 284 169 39 45 52
105 285 169 39 45 52
104 284 170 40 45 52
104 285 170 39 45 52
105 284 170 41 46 53
104 286 169 39 45 52
104 287 169 38 45 52
105 286 169 38 45 52
105 287 169 38 45 52
106 284 169 39 45 51
106 285 169 39 45 51
107 285 169 39 45 52
106 284 170 40 45 52
107 284 170 39 45 51
106 286 169 39 45 51
106 287 169 39 45 52
107 286 169 41 46 53
107 287 169 41 47 53
108 280 170 38 44 51
108 280 171 39 45 51
108 281 171 38 44 50
109 280 170 38 44 50
109 281 170 38 44 50
109 281 171 38 44 50
108 282 170 38 44 51
108 283 170 38 44 50
109 282 170 39 44 51
109 282 171 39 45 51
109 283 170 38 44 51
110 280 170 38 43 50
110 281 170 38 44 50
111 280 170 39 44 50
111 281 170 39 45 51
110 282 171 39 45 51
110 283 170 39 44 51
111 282 170 39 45 51
111 282 171 40 45 51
111 283 170 38 44 51
111 283 171 39 45 51
108 285 169 40 46 52
108 284 170 39 45 52
108 285 170 40 46 52
109 284 170 39 45 52
109 285 170 40 46 52
108 286 169 40 46 52
108 287 169 41 47 53
109 286 169 39 45 52
109 287 169 39 45 51
110 284 170 38 44 51
110 285 170 39 45 51
111 284 170 38 44 50
111 285 170 37 44 50
110 286 169 39 45 52
110 287 169 39 45 51
111 287 169 39 45 52
110 286 170 40 45 52
111 286 170 39 45 51
111 287 170 39 45 52
112 270 171 38 44 51
112 271 171 39 45 52
113 271 171 37 44 51
112 268 172 39 45 52
112 268 173 38 45 52
112 269 172 38 45 51
113 268 173 37 44 52
113 269 172 36 44 51
113 269 173 36 44 51
112 270 172 38 44 51
113 270 172 38 44 52
113 271 172 37 44 51
114 268 173 37 44 52
114 269 173 37 44 51
114 268 174 38 45 52
114 269 174 38 45 52
115 268 174 39 45 51
115 269 174 39 45 52
114 270 173 37 44 51
114 271 172 37 44 51
114 271 173 37 44 51
115 271 173 38 44 51
115 270 174 38 44 51
115 271 174 38 44 51
116 267 175 39 45 53
116 268 174 39 45 52
116 268 175 40 46 53
116 269 174 40 46 52
117 268 175 39 45 52
117 269 175 40 46 53
116 270 174 39 44 51
116 271 174 38 44 51
117 270 174 38 44 51
117 270 175 39 45 52
117 271 174 38 44 52
118 268 175 37 44 52
118 269 175 39 45 53
118 270 175 38 45 53
118 271 174 37 45 52
118 271 175 38 45 53
112 273 169 39 45 52
112 272 170 40 45 51
112 272 171 39 45 51
112 273 170 39 44 51
113 272 171 38 44 50
113 273 170 39 44 50
113 273 171 38 44 51
112 274 169 40 45 52
112 275 169 38 45 51
112 274 170 39 44 51
112 275 170 38 44 51
113 274 170 39 44 50
113 274 171 37 43 49
113 275 170 38 44 50
113 275 171 38 43 50
114 275 171 38 44 50
113 272 172 37 43 50
113 273 172 37 43 49
114 272 173 38 44 51
114 273 172 37 43 50
114 273 173 38 44 51
115 272 173 39 45 51
115 273 173 38 44 50
115 272 174 39 45 51
114 274 172 37 43 49
114 275 172 38 44 50
115 274 172 37 43 49
115 274 173 37 43 50
115 275 172 38 44 50
112 276 170 40 45 51
112 277 170 40 45 51
113 276 171 39 45 51
113 277 171 39 44 51
112 278 170 39 44 50
112 279 170 39 44 50
113 278 170 38 43 50
113 278 171 38 43 50
113 279 170 38 44 50
114 276 171 38 44 50
114 277 171 39 44 51
115 277 171 39 44 51
114 278 171 38 44 50
114 279 170 39 45 51
114 279 171 38 44 50
115 278 171 38 44 50
115 279 171 38 44 50
114 276 172 38 44 51
115 276 172 38 44 51
115 277 172 38 44 50
116 273 173 38 44 50
117 273 173 39 44 51
116 272 174 39 45 51
116 273 174 39 45 52
117 272 174 39 45 52
117 273 174 39 45 52
116 274 173 38 44 51
116 275 172 37 43 50
116 275 173 37 43 50
117 274 173 38 45 52
117 275 173 38 44 51
118 272 174 38 45 52
118 273 174 39 45 52
118 274 173 39 45 52
118 274 174 38 45 52
116 278 171 38 44 50
116 279 171 37 43 50
117 279 171 38 44 50
116 276 172 38 44 51
116 277 172 38 44 50
117 276 172 37 44 51
117 276 173 37 44 50
117 277 172 38 44 51
116 278 172 37 43 50
117 278 172 39 45 51
117 279 172 39 44 51
112 280 170 39 44 51
112 281 170 39 45 51
113 280 170 39 44 50
113 281 170 38 44 50
112 282 170 38 44 50
112 283 170 39 45 51
112 283 171 39 44 51
113 282 170 37 43 50
113 282 171 37 43 50
113 283 171 38 44 51
114 280 170 39 45 51
114 280 171 39 45 51
114 281 170 39 45 51
114 281 171 39 45 51
115 280 171 39 45 51
115 281 171 39 45 51
114 282 171 38 44 51
114 283 171 39 45 51
115 282 171 39 44 50
115 283 171 39 45 51
112 284 170 39 45 51
112 284 171 39 45 51
112 285 170 39 45 51
113 284 171 40 46 52
113 285 170 39 45 52
113 285 171 39 45 52
112 287 169 39 45 52
112 286 170 40 45 52
112 287 170 40 46 52
113 286 170 39 46 52
113 287 170 39 45 52
114 284 171 39 45 52
114 285 171 39 45 51
115 284 171 38 44 50
115 285 171 39 45 51
114 286 170 39 45 52
114 286 171 39 45 51
114 287 170 38 45 52
114 287 171 37 44 51
115 286 171 39 44 50
115 287 170 39 45 52
115 287 171 38 44 51
116 280 171 37 43 49
116 281 171 38 44 50
117 280 171 38 44 50
117 281 171 38 44 50
116 282 171 39 44 50
116 283 171 40 45 51
117 282 171 39 44 50
117 283 171 39 44 50
117 280 172 38 44 50
117 281 172 39 44 51
117 282 172 39 44 50
117 283 172 39 44 50
116 284 171 39 44 50
116 286 171 40 44 50
116 287 170 39 45 51
116 287 171 39 44 50
117 287 171 41 45 51
116 284 172 39 44 50
116 285 172 40 45 50
117 284 172 39 44 50
117 285 172 39 44 50
116 286 172 39 44 50
117 286 172 39 44 50
97 288 171 44 50 57
98 288 171 42 49 56
98 289 171 42 49 57
99 288 170 41 47 54
99 288 171 41 48 55
99 289 170 41 48 55
99 289 171 42 49 56
98 290 171 44 51 59
99 290 171 44 51 58
99 291 171 42 50 59
96 288 172 44 51 59
96 288 173 42 51 60
96 289 173 44 53 63
97 288 172 44 50 58
97 289 172 43 51 60
96 290 173 46 56 67
97 290 172 45 53 62
97 290 173 46 55 65
97 291 173 48 58 69
96 290 174 47 58 70
96 291 174 50 60 72
96 291 175 52 62 73
97 291 174 49 60 71
98 289 172 43 51 59
98 290 172 44 52 61
98 291 172 45 54 64
98 291 173 47 57 67
99 291 172 43 52 61
96 292 175 51 61 73
97 292 174 49 60 72
97 292 175 49 60 72
97 293 174 48 59 71
97 293 175 47 59 71
97 294 175 45 57 68
98 292 173 47 57 68
98 293 173 50 60 70
99 292 172 45 54 64
99 292 173 47 57 67
99 293 172 46 56 66
99 293 173 48 57 68
98 293 174 49 60 71
99 294 173 49 58 68
98 294 174 48 59 69
98 294 175 46 56 67
98 295 175 42 53 63
99 294 174 48 58 68
99 295 174 46 55 65
99 295 175 43 53 63
101 288 169 39 47 54
101 289 169 39 47 54
100 288 170 41 47 55
100 289 170 42 48 56
101 290 169 38 45 53
100 290 170 42 49 56
100 290 171 42 49 57
100 291 170 41 49 56
100 291 171 41 49 58
101 290 170 38 46 53
101 291 170 40 47 55
102 288 169 39 47 54
102 289 169 38 46 53
103 288 169 39 46 54
103 289 169 39 46 54
102 290 169 39 46 53
102 291 169 41 47 55
103 290 169 38 45 53
103 291 169 41 48 55
102 291 170 41 47 54
100 292 171 41 50 59
100 293 171 42 51 60
101 292 170 40 47 55
101 292 171 41 48 56
101 293 171 43 50 58
101 294 171 42 50 59
103 292 169 40 47 55
103 293 169 41 47 55
102 292 170 41 47 54
102 293 170 42 49 56
103 293 170 42 48 56
102 294 170 42 48 56
102 294 171 41 48 57
102 295 171 41 48 57
103 294 170 42 49 56
103 294 171 41 48 56
103 295 171 42 49 57
100 292 172 43 52 61
100 293 172 43 52 62
100 294 172 42 51 61
100 294 173 46 55 65
100 295 173 46 54 63
101 294 172 40 50 59
101 295 172 40 49 59
101 295 173 42 51 60
100 295 174 48 56 66
102 295 172 41 49 58
103 295 172 42 49 57
99 296 174 43 53 62
99 296 175 40 50 59
99 297 175 40 49 58
100 296 173 45 53 62
101 296 173 42 50 59
100 296 174 44 52 62
100 296 175 42 51 61
100 297 174 43 52 61
100 297 175 42 51 60
101 296 174 43 52 61
101 297 174 43 51 60
100 298 175 42 51 60
101 298 175 42 51 60
102 296 172 41 49 58
102 296 173 42 50 58
102 297 173 41 50 58
103 296 172 43 50 58
103 296 173 44 51 59
103 297 173 43 51 59
102 297 174 41 50 59
103 297 174 42 50 59
102 298 174 42 50 59
102 298 175 42 51 60
102 299 175 42 51 61
103 298 174 43 51 59
103 298 175 43 52 60
103 299 175 43 52 61
104 288 168 39 46 53
104 288 169 39 46 53
104 289 168 40 47 54
105 288 168 39 46 53
105 288 169 38 45 53
105 289 168 40 47 54
104 290 168 40 47 54
104 291 168 40 47 55
104 291 169 40 47 55
105 290 168 40 47 55
105 291 168 40 47 55
106 288 168 39 45 52
106 288 169 39 45 52
106 289 168 39 46 53
107 288 169 41 47 53
107 289 168 39 46 53
106 290 168 40 47 54
106 291 168 41 48 55
107 290 168 41 47 54
107 291 168 41 47 55
104 292 168 40 47 55
104 292 169 41 48 56
104 293 169 42 49 57
105 292 168 40 47 55
105 293 168 39 47 55
105 293 169 41 48 56
104 293 170 42 49 56
104 294 169 42 49 57
105 294 169 41 48 56
104 294 170 43 50 57
104 295 170 44 50 58
104 295 171 43 50 57
105 294 170 42 49 57
105 295 170 43 50 58
105 295 171 43 50 58
106 292 168 39 47 55
106 293 168 39 47 55
107 292 168 41 48 55
107 293 168 39 47 55
106 294 168 39 47 56
106 294 169 40 48 56
106 295 169 41 48 56
107 294 168 39 47 55
107 294 169 40 48 56
107 295 169 41 48 56
106 295 170 41 48 57
107 295 170 40 48 57
108 288 169 41 47 53
108 289 168 41 47 53
108 289 169 41 47 54
109 288 169 40 46 53
109 289 169 41 47 53
108 290 168 41 47 53
108 291 168 41 47 54
109 290 168 40 46 53
109 290 169 41 47 53
109 291 168 41 47 54
110 288 169 39 45 52
110 289 169 40 46 53
111 288 169 38 45 51
111 289 169 39 45 52
110 290 169 40 46 53
110 291 168 41 47 54
110 291 169 40 46 53
111 290 169 40 46 53
111 291 169 40 46 53
108 292 168 41 48 55
108 293 168 41 47 55
109 292 168 42 48 56
109 293 168 41 48 56
108 294 168 43 49 56
108 294 169 44 50 57
108 295 169 43 50 57
109 294 168 43 50 57
109 294 169 44 50 58
109 295 169 43 50 58
110 292 168 41 48 55
110 293 168 41 48 56
110 293 169 41 48 56
111 292 168 40 47 54
111 292 169 40 47 54
111 293 169 40 47 55
110 294 168 43 50 57
110 294 169 42 49 56
110 295 169 42 50 58
111 294 169 41 48 56
111 295 169 43 50 58
110 295 170 43 51 59
111 295 170 43 51 59
104 296 171 44 51 59
105 296 171 43 51 59
106 296 170 40 48 57
106 296 171 42 50 58
107 296 170 40 48 57
107 296 171 42 50 59
107 297 171 42 50 59
104 296 172 44 51 59
104 297 173 44 51 60
105 296 172 44 51 59
105 297 172 43 51 59
105 297 173 43 51 60
104 298 173 44 52 60
105 298 173 43 52 61
104 298 174 45 53 61
104 298 175 44 52 61
104 299 175 44 52 61
105 298 174 45 53 62
105 299 174 44 53 62
105 299 175 44 53 62
106 297 172 42 50 59
106 297 173 42 50 59
107 297 172 40 49 59
106 298 173 42 51 60
107 298 172 42 50 59
107 298 173 42 51 60
107 299 173 43 52 61
106 298 174 43 52 61
106 299 174 43 52 62
106 299 175 43 52 62
107 299 174 43 52 62
104 300 175 44 52 61
105 300 175 44 53 62
106 300 175 44 53 62
106 301 175 44 53 62
107 300 174 43 52 62
107 300 175 44 53 62
107 301 175 44 53 62
108 296 170 43 50 58
108 297 171 43 50 59
109 296 170 44 51 59
109 297 171 43 51 60
110 296 170 43 51 59
110 297 171 43 51 60
111 296 170 43 51 59
111 296 171 44 51 60
111 297 171 43 51 60
108 297 172 42 49 59
108 298 172 42 50 59
108 298 173 43 52 61
108 299 173 43 52 61
109 298 172 44 52 61
109 298 173 44 52 61
109 299 173 43 52 61
108 299 174 43 52 61
110 298 172 44 52 61
110 299 173 43 52 61
111 298 172 43 52 61
111 299 173 44 53 61
108 300 174 43 52 62
108 301 175 43 52 61
109 300 174 43 52 61
109 301 174 43 51 60
109 301 175 42 51 60
110 300 173 44 52 61
111 300 173 44 52 61
110 300 174 43 52 61
110 301 174 43 51 60
110 301 175 42 50 59
111 300 174 42 51 60
111 301 174 41 50 59
111 301 175 40 49 58
110 302 175 40 48 57
111 302 175 39 48 57
96 292 176 51 61 73
96 293 176 47 58 70
96 293 177 44 56 67
97 293 176 46 57 69
96 294 176 44 55 66
96 294 177 41 52 63
97 294 176 43 54 64
97 294 177 39 50 60
97 295 176 38 48 59
97 295 177 36 47 57
96 294 178 39 49 60
96 294 179 37 47 57
96 295 178 36 46 56
96 295 179 37 46 55
97 295 178 35 45 55
98 295 176 38 49 59
96 295 180 36 44 53
97 296 177 35 44 54
97 297 177 36 44 53
96 296 178 36 45 54
96 296 179 36 44 52
96 297 179 38 45 52
97 296 178 35 44 53
97 297 178 36 44 51
97 297 179 37 44 52
97 298 178 38 45 52
97 298 179 40 46 53
97 299 179 41 47 55
98 296 176 35 46 55
98 296 177 35 44 53
98 297 176 38 46 55
98 297 177 36 45 53
99 296 176 37 47 56
99 297 176 39 48 57
98 298 177 38 45 54
99 298 176 39 48 56
99 298 177 40 48 56
99 299 177 42 50 58
98 298 178 39 46 53
98 299 178 42 49 57
96 296 180 36 44 51
96 297 180 38 44 52
96 298 180 39 45 52
96 298 181 39 45 53
96 299 180 41 48 55
96 299 181 41 48 55
97 299 180 41 47 55
97 300 179 41 49 57
99 300 177 43 51 59
98 300 178 42 50 58
98 300 179 43 51 59
98 301 179 43 51 60
99 300 178 42 50 59
99 301 178 43 52 61
99 301 179 44 52 62
99 302 179 44 53 62
96 300 180 42 49 57
96 300 181 42 49 57
96 301 180 43 50 59
96 301 181 45 52 61
97 300 180 42 49 58
97 301 180 44 52 60
96 301 182 46 54 62
97 302 180 45 53 62
97 302 181 44 52 61
97 303 181 43 51 61
96 302 182 46 53 62
96 303 182 45 52 61
96 303 183 45 52 60
97 303 182 42 50 59
98 301 180 44 52 61
98 302 180 44 52 62
98 303 180 41 50 60
98 303 181 42 51 60
99 302 180 42 52 61
99 303 180 40 50 60
99 303 181 40 49 58
98 303 182 41 49 58
100 298 176 42 50 59
100 299 176 44 52 62
100 299 177 44 52 60
101 299 176 43 52 62
102 299 176 43 52 62
103 299 176 43 52 61
100 300 177 44 53 62
100 301 177 45 53 63
101 300 176 42 52 62
101 300 177 43 52 62
101 301 177 44 53 63
100 301 178 43 52 62
101 301 178 43 52 62
100 302 178 42 52 62
100 302 179 43 52 62
101 302 178 42 52 61
101 302 179 42 51 61
101 303 179 40 50 59
102 300 176 43 52 62
102 300 177 43 53 62
102 301 177 43 52 62
103 300 176 42 52 61
103 301 177 41 51 61
103 302 177 42 51 61
102 302 178 41 51 61
102 302 179 40 50 60
102 303 179 40 49 59
103 302 178 40 50 60
103 303 179 39 48 57
100 302 180 42 51 61
100 303 180 40 49 59
100 303 181 37 47 56
101 303 180 38 48 57
102 303 180 37 47 56
103 303 180 37 47 56
96 303 184 42 50 58
104 300 176 44 52 61
104 301 176 43 52 61
104 301 177 42 51 61
105 300 176 44 52 61
105 301 176 43 52 61
105 301 177 43 51 60
104 302 177 42 51 60
105 302 177 41 49 59
104 302 178 42 50 59
104 303 178 40 49 58
104 303 179 38 47 56
105 303 178 39 48 56
105 303 179 37 46 54
106 301 176 43 52 61
107 301 176 44 52 62
106 302 176 41 50 59
106 302 177 39 48 57
106 303 177 38 47 57
107 302 176 41 50 60
107 302 177 39 48 57
107 303 177 39 47 56
106 303 178 38 47 56
106 303 179 38 46 55
107 303 178 38 46 55
104 303 180 37 46 54
108 301 176 43 51 60
108 302 176 41 49 58
108 303 177 38 47 56
109 302 176 40 49 57
109 303 176 39 47 56
109 303 177 37 46 54
108 303 178 37 45 54
109 303 178 37 45 54
110 302 176 39 47 56
110 303 176 37 46 54
110 303 177 38 46 54
111 302 176 37 46 55
111 303 176 37 46 55
111 303 177 38 47 55
96 304 183 41 49 57
97 304 183 40 48 57
99 304 181 38 47 56
98 304 182 39 47 56
98 304 183 37 46 54
99 304 182 37 46 55
99 304 183 37 45 54
99 305 183 37 45 54
100 304 181 36 45 55
101 304 181 35 44 54
100 304 182 36 45 54
100 304 183 37 45 54
100 305 183 37 45 53
101 304 182 37 46 54
101 305 182 37 45 54
101 305 183 37 45 53
102 304 180 35 45 54
102 304 181 36 45 54
103 304 180 36 45 54
103 304 181 36 45 53
103 305 181 36 44 53
102 304 182 37 46 54
102 305 182 37 45 53
102 305 183 38 45 53
103 305 182 37 45 53
103 305 183 38 45 53
102 306 183 39 45 53
103 306 183 38 45 52
103 311 183 34 41 49
96 304 184 39 47 56
96 304 185 38 46 55
96 305 184 37 46 55
96 305 185 37 45 54
97 304 184 39 47 55
97 305 184 38 46 55
97 305 185 37 45 54
96 305 186 38 45 54
97 305 186 38 46 54
96 306 186 38 45 53
96 306 187 39 45 53
96 307 187 38 44 51
97 306 186 38 46 54
97 306 187 39 45 52
97 307 187 37 44 51
98 305 184 37 45 54
98 305 185 37 45 53
99 305 184 38 46 54
99 305 185 37 45 53
98 306 185 38 46 54
99 306 185 37 45 53
98 306 186 38 45 53
98 307 186 37 44 52
98 307 187 37 43 51
99 306 186 37 44 52
99 307 186 37 44 52
96 308 187 37 42 49
96 309 187 37 42 49
97 308 187 37 43 49
97 309 187 37 42 48
96 310 187 36 42 48
96 311 186 37 42 48
96 311 187 37 42 49
97 310 186 37 42 49
97 310 187 37 42 48
97 311 186 36 42 48
98 308 187 36 43 50
98 309 186 35 42 49
98 309 187 36 42 49
99 308 186 36 43 50
99 309 186 36 42 49
98 311 185 35 41 46
99 311 185 35 41 48
98 310 186 37 43 49
98 311 186 36 42 48
99 310 186 36 42 49
99 311 186 35 41 48
100 305 184 38 46 54
101 305 184 38 45 52
100 306 184 38 45 52
100 306 185 37 44 52
100 307 185 38 44 51
101 306 184 38 45 52
101 306 185 39 45 52
101 307 185 37 44 51
100 307 186 37 44 51
102 306 184 38 45 52
102 307 184 37 44 51
102 307 185 36 43 50
103 306 184 38 45 52
103 307 184 38 44 51
100 309 185 34 40 47
101 308 185 37 43 51
101 309 185 34 41 48
100 308 186 36 43 51
100 309 186 35 42 49
100 310 185 34 41 47
100 311 185 34 41 47
101 310 185 34 41 48
101 311 184 34 40 47
101 311 185 34 40 47
100 310 186 35 41 48
102 308 185 37 43 50
102 309 185 35 41 48
103 308 184 36 43 50
103 308 185 37 43 50
103 309 184 35 42 49
103 309 185 36 42 49
102 310 184 34 41 48
102 310 185 35 41 48
102 311 184 34 41 48
103 310 184 34 41 48
103 311 184 35 42 48
99 314 183 35 42 49
99 315 183 36 42 49
99 316 183 36 42 48
100 313 183 35 42 48
101 312 183 33 40 47
101 313 183 33 40 48
100 314 183 34 41 48
100 315 182 34 41 49
100 315 183 35 42 49
101 314 182 34 41 48
101 314 183 33 40 48
101 315 182 34 41 48
102 312 183 33 40 47
102 313 183 33 41 48
103 312 183 34 41 48
103 313 182 34 40 47
103 313 183 35 41 48
103 315 181 34 41 47
102 314 182 34 40 47
102 315 182 34 41 47
103 314 182 34 41 47
103 315 182 34 40 47
100 316 182 35 41 48
100 316 183 35 42 49
100 317 183 36 42 49
101 316 182 35 42 48
101 317 182 35 42 48
100 318 183 36 42 49
100 319 183 36 43 49
101 318 182 35 41 48
102 316 181 34 41 48
102 317 181 35 41 48
103 316 181 34 41 48
102 316 182 35 41 48
96 313 185 34 41 48
97 312 185 34 41 47
97 313 185 34 41 48
96 312 186 36 41 48
96 313 186 35 41 48
97 312 186 36 41 47
96 314 185 35 42 48
96 315 185 36 42 48
97 314 184 35 42 48
97 314 185 35 42 49
97 315 184 36 42 49
97 315 185 36 42 49
98 312 185 36 41 48
98 313 184 36 42 49
98 313 185 36 43 49
99 312 184 37 42 48
99 312 185 36 42 48
99 313 184 36 42 48
98 314 184 36 42 49
98 315 184 36 42 49
99 314 184 36 42 49
96 316 185 37 43 49
96 317 185 37 43 50
97 316 184 37 43 49
97 316 185 37 44 50
97 317 185 38 44 50
96 316 186 37 42 49
96 317 186 37 43 49
97 317 186 38 44 50
96 318 186 37 43 50
96 319 186 38 44 50
97 318 186 38 44 51
97 319 186 39 45 51
98 316 184 37 43 49
98 317 184 37 43 50
98 317 185 38 44 50
99 316 184 36 42 49
99 317 184 36 43 49
98 318 185 37 44 51
98 319 185 38 44 51
99 318 184 37 43 50
99 318 185 38 44 50
99 319 184 38 44 50
99 319 185 38 44 50
98 318 186 38 44 51
98 319 186 38 45 51
100 312 184 35 41 48
100 312 185 35 41 48
100 313 184 35 42 48
101 312 184 34 40 47
102 312 184 34 40 48
100 318 184 36 42 49
100 319 184 37 43 50
105 304 179 37 46 54
106 304 179 38 46 54
107 304 179 38 46 55
104 304 180 37 45 54
104 304 181 37 45 53
104 305 181 37 45 53
105 304 180 38 46 54
105 305 181 38 46 54
104 305 182 37 45 52
105 305 182 38 45 53
104 306 182 38 45 52
104 306 183 38 45 52
104 307 183 37 44 51
105 306 182 38 45 53
105 307 182 38 45 52
105 307 183 38 44 52
106 304 180 38 46 54
106 305 180 37 45 54
106 305 181 38 46 54
107 304 180 37 46 54
107 305 180 37 46 55
107 305 181 37 45 54
107 306 181 36 45 54
106 306 182 37 45 53
106 307 182 36 44 52
107 306 182 37 45 54
107 307 182 35 44 53
104 308 183 35 43 50
104 309 183 34 41 49
105 308 183 36 43 50
105 309 183 35 42 49
104 310 183 34 41 49
104 311 183 35 41 48
105 310 183 34 41 48
105 311 182 34 41 48
105 311 183 34 41 48
106 308 182 36 43 51
106 308 183 36 43 51
106 309 182 35 42 49
106 309 183 35 42 50
107 308 182 35 44 52
107 309 182 35 42 50
106 310 182 34 41 48
106 310 183 34 41 48
106 311 182 35 41 49
107 310 182 35 42 49
107 311 182 35 41 48
108 304 178 37 45 54
108 304 179 37 46 54
109 304 178 37 46 54
109 304 179 38 46 54
111 304 177 38 46 54
110 304 178 38 46 54
110 304 179 38 46 54
110 305 179 39 46 54
111 304 178 37 45 53
111 304 179 38 46 54
111 305 179 39 46 54
108 304 180 37 46 54
108 305 180 37 46 54
108 305 181 37 46 54
109 305 180 38 46 54
109 305 181 37 46 54
108 306 181 35 44 53
108 307 181 36 45 54
109 306 181 37 45 54
109 307 181 37 45 53
108 307 182 36 45 53
110 305 180 39 47 55
111 305 180 38 46 54
110 306 180 38 46 54
110 306 181 38 45 54
110 307 181 37 45 52
111 306 180 37 45 52
111 306 181 38 45 53
111 307 181 37 44 52
109 308 181 36 44 52
109 309 181 38 44 51
108 308 182 36 44 53
108 309 182 36 43 51
109 308 182 36 44 52
109 309 182 37 44 51
108 311 181 36 43 49
109 310 181 37 43 50
109 311 181 37 43 50
108 310 182 36 43 50
108 311 182 36 42 49
110 308 181 36 43 51
110 309 181 38 44 50
111 308 181 36 43 50
111 309 181 36 42 49
110 310 181 37 43 49
110 311 181 37 43 50
111 310 181 36 42 49
111 311 181 36 42 48
104 307 184 37 44 51
104 308 184 36 43 50
104 309 184 35 42 49
104 310 184 34 41 49
104 312 182 35 42 48
104 312 183 35 41 48
104 313 182 35 41 48
105 312 182 35 41 48
105 313 182 35 41 48
104 315 181 34 40 47
105 314 181 35 41 48
105 315 181 35 41 47
104 314 182 36 42 48
104 315 182 33 39 46
105 314 182 36 41 48
107 312 181 35 41 48
107 313 181 35 41 48
106 312 182 35 41 48
106 313 182 35 41 48
107 312 182 35 42 48
107 313 182 35 41 47
106 314 181 35 41 48
106 314 182 35 41 48
106 315 182 35 41 48
107 314 182 35 41 48
104 316 181 35 42 48
108 312 181 35 42 49
109 312 181 37 43 50
108 312 182 36 42 48
108 313 182 36 42 48
109 312 182 37 42 49
109 313 182 37 43 49
108 314 182 37 42 48
110 312 182 37 43 49
111 312 182 36 42 49
112 288 169 39 45 52
112 289 169 39 45 52
113 288 169 38 45 52
113 289 169 38 45 52
113 288 170 38 44 51
112 290 169 40 46 53
112 291 169 38 45 53
113 290 169 39 46 53
113 291 168 39 46 53
113 291 169 39 46 53
114 288 169 38 44 51
114 289 169 38 45 52
115 288 169 39 45 52
115 289 169 39 45 51
114 288 170 38 45 52
115 288 170 38 44 51
114 290 169 39 45 52
114 291 168 40 46 53
115 290 168 38 44 51
115 290 169 38 45 51
115 291 168 39 45 52
112 292 169 39 46 53
112 293 169 39 47 55
113 292 168 39 46 54
113 293 169 39 47 55
112 294 169 40 48 56
113 294 169 39 47 56
112 295 170 40 49 57
113 295 170 40 48 57
114 292 168 40 47 54
114 293 169 41 48 55
115 292 168 41 46 53
115 292 169 40 46 52
115 293 169 41 47 53
114 294 169 42 48 55
114 295 169 41 48 55
115 294 169 42 47 54
115 295 169 42 48 54
114 295 170 41 48 56
115 295 170 42 48 55
116 289 169 39 45 51
117 289 169 38 44 50
116 288 170 38 44 51
117 288 170 39 44 51
117 289 170 38 44 50
116 290 169 38 44 51
116 291 168 38 44 51
116 291 169 38 44 50
117 290 169 38 44 50
117 291 168 38 44 50
117 291 169 38 44 50
116 292 169 39 45 51
116 293 169 40 45 51
117 292 169 39 44 50
117 293 169 40 45 51
116 294 169 42 47 53
116 295 169 43 48 55
112 296 170 42 50 58
112 296 171 43 51 59
112 297 171 43 51 60
113 296 170 41 50 58
113 296 171 42 51 59
113 297 171 42 50 59
113 298 171 43 51 60
114 296 170 42 49 57
114 297 171 42 50 58
115 296 170 43 49 56
115 297 170 42 49 57
115 297 171 41 49 57
114 298 171 42 50 59
115 298 171 43 50 58
112 298 172 44 52 61
112 299 172 44 52 60
112 299 173 44 52 61
113 298 172 44 52 60
113 299 172 45 52 61
113 299 173 45 53 61
114 298 172 43 51 60
114 299 172 45 52 60
114 299 173 45 53 61
115 298 172 44 51 60
115 299 172 44 51 60
112 300 173 44 52 61
113 300 173 45 52 61
112 300 174 43 51 60
112 301 174 41 50 59
112 301 175 38 47 57
113 301 174 42 50 58
113 301 175 39 48 57
112 302 175 37 47 56
113 302 175 39 47 56
114 300 173 45 52 60
114 301 173 43 51 60
115 300 172 43 51 60
115 300 173 44 51 60
115 301 173 42 51 60
114 301 174 41 49 58
115 301 174 40 49 58
114 302 174 38 47 56
114 302 175 38 46 55
114 303 175 37 46 55
115 302 174 38 47 56
115 302 175 38 46 55
115 303 175 38 46 55
116 296 170 42 48 55
116 297 170 43 50 57
116 298 170 43 50 58
116 298 171 44 51 59
116 299 171 43 51 60
116 299 172 43 51 60
116 300 172 43 51 60
116 301 173 41 49 58
116 301 174 39 48 57
116 302 174 37 47 56
116 303 175 38 46 55
112 302 176 37 46 55
112 303 176 36 45 54
112 303 177 37 45 54
113 303 176 36 45 54
114 303 176 37 45 54
115 303 176 38 46 54
112 304 177 37 46 54
113 304 177 38 46 54
112 304 178 38 45 54
112 305 178 38 46 54
112 305 179 38 46 54
113 304 178 38 46 54
113 305 178 38 46 54
113 305 179 37 45 53
114 304 176 38 45 54
114 304 177 38 46 54
115 304 176 37 45 54
115 304 177 37 45 53
115 305 177 38 45 53
114 305 178 38 45 53
114 305 179 39 45 53
115 305 178 38 45 53
114 306 179 38 45 52
115 306 179 37 44 51
115 307 179 37 44 51
112 305 180 37 44 52
112 306 180 38 45 52
112 307 180 38 45 52
112 307 181 37 44 51
113 306 180 38 45 52
113 307 180 38 44 51
114 306 180 37 44 51
114 307 180 37 44 51
115 307 180 37 43 51
112 308 181 37 43 50
112 309 181 36 42 48
113 308 180 37 43 50
113 308 181 37 43 49
113 309 181 36 42 48
112 310 181 36 42 49
112 311 181 35 41 48
113 310 181 36 42 49
114 308 180 37 43 50
114 309 180 36 43 49
114 309 181 36 42 49
115 308 180 36 43 50
116 304 176 37 45 53
116 305 176 36 44 53
116 305 177 37 45 53
116 305 178 36 44 52
116 306 178 36 44 52
116 306 179 37 44 52
116 307 179 36 44 51
116 307 180 37 44 51
79 256 192 46 56 66
79 256 193 47 56 66
79 257 192 46 56 66
79 257 193 46 55 65
79 256 194 46 56 66
79 256 195 46 56 67
79 257 194 47 56 66
79 257 195 46 56 67
79 258 194 48 57 66
79 258 195 46 55 66
78 256 197 46 57 68
79 256 196 47 57 68
79 256 197 48 58 68
79 257 196 46 56 67
79 257 197 47 57 67
78 256 198 46 56 67
78 256 199 45 56 67
78 257 199 46 56 67
79 256 198 47 57 68
79 257 198 47 57 68
79 257 199 46 57 68
79 258 196 46 56 66
79 258 197 46 55 66
79 259 197 47 56 66
79 258 198 47 57 67
79 258 199 47 57 68
79 259 198 46 56 66
79 259 199 44 55 66
75 256 207 45 55 65
77 256 202 44 55 66
77 256 203 44 55 66
77 257 203 44 55 66
78 256 200 44 55 66
78 256 201 44 55 66
78 257 200 45 55 66
78 257 201 46 56 67
79 257 200 46 56 67
78 256 202 45 55 66
78 257 202 46 56 67
78 257 203 45 56 67
78 258 201 46 57 68
79 258 200 46 56 67
79 258 201 45 56 67
79 259 200 44 55 66
79 259 201 44 55 66
78 258 202 46 57 68
78 258 203 46 57 68
78 259 203 46 57 68
79 259 202 45 56 67
79 259 203 46 56 67
76 256 205 44 55 66
77 256 204 44 55 66
77 256 205 44 55 66
77 257 204 45 55 67
77 257 205 44 55 66
76 256 206 45 55 65
76 256 207 45 54 65
76 257 206 44 55 66
76 257 207 44 54 65
77 257 206 44 55 66
77 258 205 44 56 67
77 259 205 45 56 67
76 258 207 45 56 66
77 258 206 45 56 67
77 258 207 46 57 67
77 259 206 45 56 67
77 259 207 46 57 68
78 258 204 45 56 68
78 258 205 45 56 67
78 259 204 47 57 68
78 259 205 47 57 68
79 259 204 47 57 68
78 259 206 47 57 68
79 260 201 46 56 67
79 260 202 47 57 68
79 260 203 47 57 68
79 261 202 45 56 67
79 261 203 45 56 67
77 260 207 48 58 69
78 260 205 48 58 68
79 260 204 47 57 68
79 260 205 47 58 68
79 261 204 46 56 68
79 261 205 47 57 67
78 260 206 48 58 69
78 260 207 48 58 69
78 261 206 46 56 67
78 261 207 46 57 67
79 261 206 46 56 67
79 262 204 44 55 66
79 262 205 43 54 64
78 262 207 45 56 66
79 262 206 43 53 64
79 262 207 44 54 64
79 263 207 43 53 63
75 256 208 46 55 65
75 256 209 46 55 65
75 257 209 45 55 65
74 256 211 47 55 64
75 256 210 47 56 65
75 256 211 47 55 64
75 257 210 47 56 66
75 257 211 47 56 66
75 258 210 45 55 66
75 258 211 46 56 66
75 259 211 45 56 67
74 256 212 47 55 64
74 256 213 47 54 63
74 257 212 47 55 64
74 257 213 47 55 64
75 257 212 47 56 65
75 257 213 48 55 64
74 256 214 45 53 62
74 256 215 44 52 60
74 257 214 46 54 62
74 257 215 44 52 61
75 257 215 43 51 60
75 258 212 47 56 66
75 258 213 47 55 65
75 259 212 46 56 66
75 259 213 47 56 66
75 258 214 45 54 63
75 258 215 44 52 61
75 259 214 46 56 66
75 259 215 46 54 64
75 260 213 48 57 68
75 260 214 47 57 67
75 260 215 46 55 66
76 256 208 45 54 64
76 257 208 44 54 65
76 257 209 45 54 65
76 258 208 46 56 66
76 258 209 46 56 66
76 259 208 47 57 68
76 259 209 48 57 68
77 259 208 47 57 68
77 259 209 47 58 68
76 258 210 46 56 67
76 259 210 47 57 68
76 259 211 47 57 67
76 259 212 47 57 68
77 260 208 48 58 69
77 260 209 48 58 69
77 261 209 47 57 68
76 260 210 49 59 70
76 260 211 48 58 69
77 260 210 49 59 69
77 261 210 49 58 69
77 261 211 48 58 69
77 262 210 49 59 69
77 262 211 49 59 70
78 260 208 47 57 68
78 261 208 46 57 68
78 261 209 47 57 68
78 262 208 46 56 67
78 262 209 47 57 68
79 262 208 45 55 66
79 262 209 47 56 67
79 263 208 45 54 65
79 263 209 46 56 66
78 262 210 48 58 69
78 262 211 49 59 69
78 263 210 48 58 69
78 263 211 48 58 69
79 263 210 47 57 68
76 260 212 48 58 69
76 260 213 47 57 68
76 261 212 47 58 69
76 261 213 47 57 68
77 261 212 47 58 69
76 260 214 48 57 68
76 261 214 47 57 68
76 261 215 46 56 66
76 262 213 47 58 68
77 262 212 49 59 69
77 262 213 47 58 69
77 263 213 47 58 69
76 262 214 48 58 69
76 262 215 46 56 66
