ply
format ascii 1.0
comment PCL generated
element vertex 2283
property float x
property float y
property float z
property uchar red
property uchar green
property uchar blue
element camera 0
property float view_px
property float view_py
property float view_pz
property float x_axisx
property float x_axisy
property float x_axisz
property float y_axisx
property float y_axisy
property float y_axisz
property float z_axisx
property float z_axisy
property float z_axisz
property float focal
property float scalex
property float scaley
property float centerx
property float centery
property int viewportx
property int viewporty
property float k1
property float k2
end_header
97 442 225 47 56 66
97 443 224 48 57 67
97 443 225 47 56 66
98 440 226 48 57 68
98 440 227 50 60 70
98 441 226 47 57 67
98 441 227 49 58 69
98 443 225 47 56 67
98 442 226 48 57 67
98 442 227 48 58 68
98 443 226 47 57 67
98 443 227 47 57 68
99 442 227 48 58 69
99 443 227 46 56 68
98 440 228 51 60 71
98 441 228 51 60 71
99 440 228 50 60 72
99 440 229 50 60 72
99 441 228 50 60 71
99 441 229 49 60 71
99 440 230 50 61 73
99 442 228 48 58 69
99 443 228 46 56 67
97 444 224 48 57 68
97 445 224 47 56 66
98 444 224 47 57 67
98 444 225 46 56 66
98 445 224 46 56 66
98 445 225 45 55 65
98 444 226 44 55 66
98 445 226 44 54 65
99 444 227 44 55 66
99 445 226 44 54 65
99 445 227 44 54 65
98 446 224 45 54 64
98 446 225 45 54 64
98 447 224 45 54 64
98 447 225 45 54 64
99 446 225 45 54 64
99 447 225 45 53 63
99 446 226 45 54 64
99 446 227 44 53 64
99 447 226 45 53 63
99 447 227 43 53 64
99 444 228 45 55 67
100 441 229 48 59 71
100 440 230 51 62 73
100 441 230 48 59 70
101 440 231 52 63 75
101 441 230 47 59 71
101 441 231 48 59 71
100 442 229 46 57 69
100 443 228 45 56 67
100 443 229 45 56 67
100 442 230 46 58 69
101 442 230 46 57 69
101 442 231 46 58 70
101 443 230 46 56 68
102 441 231 49 60 72
102 442 231 48 59 70
102 443 231 46 57 69
103 443 231 48 59 70
100 445 227 45 54 65
100 446 227 44 54 65
100 447 227 43 54 65
100 444 228 45 56 67
100 444 229 46 57 68
100 445 228 46 56 67
101 444 229 46 56 68
101 445 229 47 57 68
101 444 230 46 56 68
101 445 230 47 56 68
100 446 228 46 56 66
100 447 228 43 55 66
101 446 228 47 57 68
101 446 229 47 57 68
101 447 228 44 55 67
101 447 229 45 56 68
102 444 230 47 57 68
102 444 231 47 57 69
102 445 230 47 57 68
102 445 231 47 57 69
103 444 231 47 58 69
103 445 231 47 58 70
102 446 229 46 57 68
102 447 229 45 57 69
102 446 230 46 57 68
102 447 230 46 58 70
103 446 231 48 59 71
103 447 231 48 60 73
102 440 232 49 62 75
102 440 233 49 62 75
102 441 232 49 61 73
103 440 233 50 63 76
103 441 232 50 61 74
103 441 233 51 63 75
103 440 234 50 63 75
103 442 232 47 59 71
103 442 233 48 60 72
103 443 232 48 59 71
103 444 232 48 59 70
103 445 232 48 58 70
104 434 235 51 64 76
104 432 236 48 61 74
104 432 237 50 63 76
104 433 236 50 62 75
104 433 237 50 63 76
105 432 237 51 64 77
105 433 237 53 66 79
105 432 238 52 65 78
105 433 238 52 65 78
104 434 236 52 66 79
104 435 236 54 68 82
105 434 237 55 68 82
105 435 236 55 70 84
105 435 237 57 71 86
106 432 238 53 66 79
106 432 239 53 66 79
106 433 238 54 67 80
107 432 239 54 67 81
107 433 239 54 68 82
106 435 237 57 72 87
106 434 238 57 71 85
106 435 238 57 73 88
107 434 238 57 71 86
107 434 239 57 72 86
107 435 239 56 72 88
104 436 235 54 68 82
104 437 235 54 68 83
104 438 235 51 65 79
104 439 234 49 62 76
104 439 235 49 63 76
104 436 236 55 70 84
104 437 236 55 69 84
105 436 236 56 71 86
105 436 237 56 71 86
105 437 236 56 70 85
105 437 237 57 71 86
104 438 236 53 67 82
105 438 236 53 68 83
105 438 237 52 68 83
105 439 236 51 65 79
105 439 237 52 67 81
106 436 237 57 72 87
106 437 237 57 72 87
106 436 238 57 73 88
106 437 238 57 72 88
107 436 238 57 73 88
107 436 239 57 73 89
107 437 238 57 72 88
107 437 239 58 73 89
106 438 237 53 69 84
106 439 237 53 67 82
106 438 238 56 71 86
107 438 238 56 71 86
107 438 239 58 73 88
107 439 238 54 68 83
108 436 239 58 74 89
108 437 239 58 74 89
108 438 239 58 72 87
108 439 239 55 70 84
109 439 239 56 70 85
104 446 231 50 62 74
104 447 231 51 63 76
104 440 234 51 63 76
104 440 235 51 64 76
104 441 234 51 62 75
105 440 235 51 64 77
105 441 235 51 63 76
104 442 233 49 61 72
104 443 233 50 62 73
104 442 234 50 61 73
105 442 234 51 63 75
105 442 235 52 63 76
105 443 234 52 63 75
105 443 235 53 64 76
106 442 235 52 64 76
106 443 235 54 65 78
105 440 236 51 65 78
106 440 236 50 64 78
106 440 237 51 65 79
106 441 236 49 63 76
106 441 237 49 63 77
107 440 237 50 64 78
107 441 237 50 64 78
107 440 238 52 66 80
107 441 238 51 65 79
106 442 236 52 64 77
106 443 236 54 66 79
107 442 237 52 65 78
107 443 236 54 67 80
107 443 237 54 67 80
104 444 232 49 60 71
104 444 233 49 60 71
104 445 232 48 59 72
104 445 233 49 60 72
105 444 233 49 60 72
105 445 233 49 61 74
105 444 234 50 61 73
105 445 234 49 61 74
104 446 232 50 61 74
104 447 232 52 65 78
105 446 232 52 64 77
105 446 233 52 65 79
105 447 232 53 66 80
105 447 233 55 68 81
106 444 235 52 65 78
106 445 234 51 64 78
106 445 235 52 66 80
107 445 235 53 67 81
106 447 233 55 69 84
106 446 234 53 67 81
106 446 235 53 67 81
106 447 234 56 70 85
107 446 235 55 70 84
107 447 234 57 72 87
107 447 235 57 73 88
107 444 236 54 67 80
107 444 237 53 67 81
107 445 236 54 68 82
107 446 236 55 69 84
108 440 238 53 67 81
108 440 239 54 68 82
108 441 238 51 65 79
108 441 239 52 66 80
109 440 239 54 68 83
109 441 239 52 67 81
108 442 237 52 66 80
108 443 237 53 67 81
108 442 238 52 66 79
108 443 238 52 66 81
109 442 238 53 67 81
109 442 239 52 67 81
109 443 238 54 69 83
109 443 239 55 70 85
110 442 239 53 68 83
110 443 239 56 71 86
108 444 237 53 68 83
108 445 236 54 70 85
108 445 237 53 69 84
109 445 237 55 71 86
108 444 238 54 69 84
109 444 238 55 71 86
109 445 238 55 71 87
108 446 236 56 71 87
108 447 236 55 72 88
109 446 236 55 72 88
109 446 237 57 73 90
109 447 236 53 70 87
109 447 237 55 71 88
109 446 238 55 72 88
110 444 239 56 72 88
110 445 238 55 72 88
110 445 239 56 73 89
111 444 239 57 74 90
111 445 239 56 73 89
110 447 237 57 73 89
110 446 238 57 73 90
110 446 239 57 73 90
110 447 238 57 72 88
111 446 239 57 73 89
111 447 238 58 73 88
111 447 239 57 72 88
107 432 240 55 69 83
107 433 240 56 70 84
107 434 240 57 71 86
108 432 240 55 69 83
108 432 241 56 70 84
108 433 240 56 71 85
108 433 241 58 72 86
109 432 241 56 71 85
109 433 241 58 73 88
109 432 242 56 71 85
108 434 240 58 73 88
108 435 240 59 74 90
109 434 241 59 74 89
109 435 240 60 76 91
109 435 241 60 75 91
110 432 242 57 72 87
110 433 242 60 75 90
110 433 243 62 77 92
111 432 243 59 73 89
111 433 243 60 75 91
110 434 241 61 76 92
110 434 242 61 76 91
110 435 242 60 75 91
111 434 243 59 74 90
111 435 242 58 74 89
111 435 243 58 74 89
111 432 244 58 73 89
111 433 244 58 74 89
108 436 240 57 73 89
108 437 240 58 74 89
109 436 240 58 74 89
109 436 241 57 73 89
109 437 240 58 74 89
109 437 241 56 72 88
109 438 240 57 72 87
109 438 241 55 70 86
109 439 240 56 71 85
110 436 241 58 73 89
110 437 241 56 71 86
110 436 242 55 72 88
110 437 242 56 71 87
111 436 242 55 71 87
111 436 243 55 71 87
111 437 242 55 70 85
110 438 241 55 70 85
110 439 241 55 70 84
111 439 241 54 68 83
111 438 242 53 68 83
111 439 242 53 68 82
109 440 240 53 68 83
109 441 240 52 67 82
109 442 240 52 67 82
110 440 240 53 68 83
110 440 241 53 68 82
110 441 240 52 67 82
110 441 241 52 67 82
111 440 241 52 67 81
111 441 241 51 67 82
111 440 242 52 67 81
110 442 240 53 68 84
111 442 240 51 68 84
111 442 241 50 67 83
111 443 240 55 71 87
111 443 241 55 71 87
111 444 240 58 74 90
111 445 240 56 74 90
111 446 240 57 74 90
112 416 245 55 69 84
112 417 244 55 69 83
112 417 245 56 70 85
113 416 245 56 71 85
113 417 245 57 71 86
113 416 246 55 70 85
113 417 246 57 72 87
112 418 244 53 67 81
112 418 245 54 68 83
112 419 244 52 67 81
112 419 245 54 68 82
113 418 245 54 69 84
113 419 245 55 69 84
113 418 246 54 70 85
114 416 246 56 71 87
114 416 247 56 72 88
114 417 246 57 73 88
114 417 247 59 74 90
115 416 247 58 74 89
115 417 247 59 75 90
114 418 246 56 72 88
114 418 247 57 73 89
114 419 246 57 73 88
114 419 247 58 74 89
115 418 247 57 73 89
115 419 247 59 75 91
112 420 244 52 67 81
112 421 244 54 68 82
113 420 245 54 69 83
113 421 245 54 69 83
112 422 244 53 67 82
112 423 244 49 64 78
113 422 245 54 68 82
113 423 245 52 66 80
114 420 245 56 71 86
114 421 245 56 71 85
114 420 246 57 73 88
114 421 246 57 72 87
115 420 247 58 74 90
115 421 247 57 73 89
114 422 245 56 70 85
114 423 245 53 68 82
114 422 246 57 72 87
114 423 246 54 70 85
115 422 246 56 72 88
115 422 247 56 72 88
115 423 246 54 70 85
115 423 247 55 71 86
116 421 247 57 74 91
116 422 247 57 73 89
116 423 247 57 73 88
115 416 248 59 75 91
115 417 248 59 75 91
115 418 248 58 75 91
116 416 248 61 77 93
116 416 249 63 78 94
116 417 248 60 76 92
117 416 249 63 79 95
117 417 249 59 77 93
116 418 248 58 75 92
116 419 248 61 77 93
117 418 249 58 76 93
117 419 249 62 79 95
118 416 250 63 80 96
118 417 250 60 78 95
119 416 251 64 81 97
119 417 251 65 82 99
118 418 249 61 78 95
118 419 249 63 80 96
118 418 250 61 79 96
118 419 250 65 81 98
119 418 250 66 83 99
119 418 251 68 84 100
119 419 250 68 84 101
119 419 251 70 86 102
116 420 248 60 76 93
116 421 248 58 75 92
117 420 248 63 79 96
117 420 249 64 80 97
117 421 248 61 78 94
117 421 249 62 79 95
116 422 248 59 75 92
116 423 248 58 74 90
117 422 248 59 76 92
117 423 248 59 75 90
118 420 249 65 81 97
118 421 249 65 81 97
118 420 250 66 82 98
118 421 250 66 82 98
119 420 250 70 85 102
119 420 251 71 87 103
119 421 250 68 84 99
118 422 249 61 78 94
118 423 249 61 77 92
118 422 250 64 79 95
119 422 250 65 81 96
119 423 250 62 78 94
112 424 244 51 64 78
112 425 244 50 64 78
113 424 245 53 67 81
113 425 245 52 67 81
112 426 244 50 65 78
112 426 245 52 67 81
112 427 244 54 68 82
112 427 245 54 69 83
113 426 245 53 67 81
113 427 245 55 69 83
114 424 245 54 69 83
114 425 245 53 68 82
114 424 246 54 69 84
114 425 246 52 68 83
115 424 246 56 71 86
115 424 247 56 71 85
115 425 246 54 69 84
115 425 247 55 70 85
114 426 245 54 69 83
114 427 245 54 69 83
114 426 246 54 70 84
114 427 246 54 70 85
115 426 246 54 70 84
115 426 247 56 71 86
115 427 246 56 71 86
115 427 247 56 72 87
112 428 244 54 69 83
112 428 245 55 70 84
112 429 244 55 69 83
112 429 245 55 70 84
113 428 245 56 70 85
113 429 245 55 70 85
112 430 244 55 69 84
112 430 245 56 70 85
112 431 244 57 72 87
112 431 245 58 73 88
113 430 245 55 71 86
113 431 245 58 74 90
114 428 246 55 71 85
114 429 246 56 71 86
115 428 246 58 73 88
115 428 247 57 73 88
115 429 246 58 73 88
115 429 247 60 75 90
114 430 246 57 73 88
114 431 246 60 76 92
115 430 246 60 75 90
115 430 247 61 77 92
115 431 246 62 78 94
115 431 247 64 79 95
116 424 247 58 73 88
116 425 247 57 71 86
116 426 247 58 73 88
116 427 247 58 73 89
116 428 247 59 74 90
116 429 247 60 75 91
116 430 247 60 76 93
116 431 247 64 80 96
116 425 248 56 71 86
117 424 248 60 75 90
117 425 248 59 74 89
116 426 248 59 75 90
116 427 248 58 74 89
117 426 248 59 75 90
117 427 248 59 75 91
118 424 249 62 76 92
118 425 249 59 75 91
119 424 250 62 78 93
119 425 250 61 77 92
118 426 249 62 77 93
118 427 249 60 76 92
119 426 250 61 77 92
119 427 250 59 76 91
116 428 248 57 74 89
116 429 248 59 76 92
117 428 248 58 74 91
117 429 248 59 76 93
116 430 248 61 77 94
116 431 248 63 80 97
117 430 248 61 77 94
117 431 248 64 81 97
118 428 249 59 76 92
118 429 249 60 77 94
119 429 249 60 77 93
119 428 250 59 76 92
119 429 250 59 76 93
118 430 249 61 78 95
118 431 249 65 81 98
119 430 249 61 78 95
119 431 249 67 83 100
119 430 250 62 79 96
119 431 250 66 83 99
120 416 251 66 82 99
120 417 251 68 84 100
120 418 251 70 86 102
120 419 251 72 87 104
121 419 251 71 87 104
120 416 252 67 83 99
121 416 252 66 82 98
121 417 252 67 83 100
121 418 252 68 84 101
121 419 252 68 85 101
122 416 252 65 81 98
122 417 252 67 83 100
123 416 252 63 80 97
123 416 253 61 78 95
123 417 252 65 82 98
122 418 252 67 84 101
122 419 252 66 83 101
123 418 252 63 81 98
123 419 252 62 80 97
120 420 251 73 88 104
120 421 251 70 85 101
121 420 251 72 87 104
121 421 251 69 84 101
120 422 251 65 81 97
120 423 250 62 79 94
120 423 251 64 80 95
121 422 251 66 82 98
121 423 251 64 80 95
121 420 252 70 85 102
121 421 252 68 84 100
121 422 252 65 81 97
122 420 252 68 85 101
122 421 252 67 82 98
123 420 252 63 80 97
123 421 252 61 78 94
122 422 252 64 80 95
122 423 252 63 78 93
123 422 252 59 76 91
123 423 252 59 74 90
124 416 253 60 77 94
124 417 253 62 79 96
125 416 253 61 78 94
125 417 253 62 79 96
124 418 252 60 78 96
124 418 253 61 79 96
124 419 252 60 78 96
124 419 253 60 78 96
125 418 253 62 79 96
125 419 253 62 79 96
126 416 253 60 77 94
126 417 253 60 77 94
127 416 253 63 79 96
127 417 253 61 78 95
126 418 253 60 78 95
126 419 253 60 78 95
127 418 253 62 79 96
127 419 253 62 79 96
124 420 252 60 77 94
124 421 252 57 75 91
125 420 252 61 78 94
125 420 253 62 78 95
125 421 252 58 75 91
125 421 253 60 76 92
124 422 252 57 73 89
124 423 252 55 71 86
125 422 252 56 73 89
125 422 253 58 74 90
125 423 252 55 71 87
125 423 253 56 71 86
126 420 253 61 78 95
126 421 253 60 77 93
127 420 253 62 79 95
127 421 253 62 78 94
126 422 253 58 74 90
126 423 253 57 72 88
127 422 253 60 76 92
127 423 253 58 74 89
120 424 250 63 79 94
120 424 251 65 80 96
120 425 250 62 78 93
120 425 251 64 79 94
121 424 251 63 78 94
121 425 251 63 78 93
120 426 250 62 77 92
120 426 251 64 78 94
120 427 250 62 77 93
120 427 251 64 79 94
121 426 251 63 78 93
121 427 251 63 77 93
122 424 252 62 77 92
122 425 252 62 77 92
123 424 252 59 74 89
123 425 252 59 74 89
122 426 252 63 78 94
122 427 252 63 79 94
123 426 252 61 76 91
123 427 252 64 79 94
120 428 250 62 78 94
120 428 251 62 78 93
120 429 250 62 79 95
120 429 251 62 79 95
121 428 251 61 77 93
121 429 251 61 78 93
120 430 250 65 81 98
120 430 251 65 81 98
120 431 250 68 84 101
120 431 251 68 84 101
121 430 251 65 81 97
121 431 251 67 83 99
122 428 251 62 78 93
122 429 251 59 76 93
122 430 251 63 79 95
122 431 251 65 81 98
122 428 252 64 80 95
122 429 252 62 79 95
123 428 252 64 79 95
123 429 252 63 79 96
122 430 252 65 81 98
122 431 252 67 84 100
123 430 252 66 82 99
123 431 252 68 85 102
124 424 252 54 70 85
124 425 252 54 70 85
125 424 252 55 71 85
125 424 253 55 70 85
125 425 252 57 71 86
125 425 253 56 71 86
124 426 252 56 72 88
124 426 253 58 73 88
124 427 252 58 74 89
124 427 253 59 75 90
125 426 253 58 73 88
125 427 253 59 74 90
126 424 253 57 72 87
126 425 253 58 73 88
127 424 253 58 73 88
127 425 253 59 74 89
126 426 253 58 73 88
126 427 253 59 74 90
127 426 253 59 74 89
127 427 253 61 76 91
127 427 254 61 78 93
124 428 253 60 76 92
124 429 253 60 77 94
125 428 253 60 76 92
125 429 253 60 77 93
124 430 253 60 78 95
124 431 253 60 79 97
125 430 253 62 79 97
125 431 253 64 81 99
126 428 253 60 76 92
126 429 253 62 78 95
126 428 254 64 79 95
126 429 254 64 80 97
127 428 254 63 80 95
127 429 254 65 81 97
126 430 253 63 81 98
126 431 253 63 81 98
126 430 254 64 81 98
127 430 254 66 82 99
127 431 254 65 82 100
112 447 239 56 71 86
112 434 243 56 72 88
112 435 243 56 72 88
112 432 244 60 75 91
112 433 244 60 75 91
113 432 245 60 76 92
113 433 245 60 76 92
112 434 244 57 73 89
112 435 244 54 71 88
113 434 244 57 73 90
113 434 245 57 74 90
113 435 244 55 72 88
113 435 245 56 73 90
114 432 245 61 77 93
114 433 245 61 77 93
114 432 246 62 77 93
114 433 246 62 78 94
115 432 246 62 78 94
115 432 247 63 79 95
115 433 246 61 78 94
115 433 247 61 78 95
114 434 245 59 76 92
114 435 245 59 76 92
114 434 246 60 77 93
115 434 246 61 78 94
115 434 247 59 76 93
115 435 246 61 77 93
112 436 243 53 70 86
112 437 243 54 69 85
112 438 242 51 66 81
112 438 243 50 67 82
112 439 242 53 67 82
112 439 243 51 67 81
113 438 243 49 66 82
113 439 243 52 67 83
112 436 244 53 70 86
113 436 244 54 71 87
113 437 244 54 70 87
113 438 244 51 68 84
113 439 244 51 67 83
114 436 245 57 74 90
114 437 244 55 71 87
114 437 245 57 73 89
115 436 245 61 77 93
115 437 245 60 76 92
115 436 246 60 76 92
115 437 246 60 76 92
114 438 244 51 68 84
114 438 245 53 70 86
114 439 244 54 70 85
114 439 245 58 73 88
115 438 245 55 72 88
115 439 245 58 73 89
115 438 246 55 72 88
115 439 246 56 72 88
116 432 247 63 79 96
116 433 247 60 78 95
116 434 247 60 77 94
116 435 247 60 77 94
116 436 247 60 76 92
116 437 246 58 74 90
116 437 247 59 75 91
117 436 247 59 75 92
117 437 247 57 74 90
116 438 246 55 72 88
116 438 247 55 72 88
116 439 246 56 72 88
117 438 247 53 71 87
117 439 247 55 72 88
116 432 248 62 80 97
116 433 248 60 78 96
117 432 248 64 80 97
117 433 248 62 79 96
116 434 248 60 78 95
117 434 248 62 79 95
117 435 248 62 78 94
118 432 249 66 82 99
118 433 249 63 80 96
119 432 249 67 83 100
119 433 249 65 82 99
119 432 250 66 83 100
119 433 250 65 82 98
118 434 248 62 78 94
118 434 249 62 78 95
118 435 248 62 78 94
118 435 249 63 79 95
119 434 249 64 80 96
119 435 249 62 79 95
119 434 250 62 79 96
119 435 250 62 79 95
117 436 248 60 75 91
117 437 248 57 74 90
117 438 248 54 71 88
118 436 248 60 76 92
118 436 249 61 77 93
118 437 248 57 73 89
118 437 249 61 76 92
119 436 249 62 78 94
119 437 249 61 77 94
119 436 250 62 79 95
119 437 250 62 79 95
118 438 248 55 71 87
118 438 249 57 73 90
118 439 248 56 72 88
119 438 249 58 75 91
119 439 248 56 73 89
119 439 249 58 75 91
112 440 242 51 66 81
112 440 243 51 66 81
112 441 242 50 67 81
113 440 243 52 67 82
113 441 242 51 67 82
113 441 243 53 68 83
112 442 241 52 68 83
112 443 241 56 72 87
112 442 242 52 68 83
112 443 242 58 73 88
113 442 242 53 69 84
113 442 243 53 69 85
113 443 242 57 73 89
114 441 243 55 71 86
114 442 243 56 72 88
114 443 243 60 76 92
113 440 244 54 69 84
114 440 244 55 70 85
114 440 245 58 73 88
114 441 244 58 73 88
115 440 245 58 74 89
115 441 244 63 77 93
115 441 245 61 76 91
114 442 244 60 76 91
115 442 244 62 78 94
115 442 245 63 78 94
115 443 244 64 80 96
112 444 240 58 74 90
112 444 241 57 74 89
112 445 240 58 75 91
112 445 241 59 75 91
113 445 241 59 76 92
113 444 242 58 75 91
113 445 242 59 76 93
112 446 240 57 74 90
112 446 241 58 74 90
112 447 240 57 72 88
113 446 241 60 76 92
113 447 240 57 73 88
113 447 241 58 73 89
114 444 243 61 77 94
114 445 242 60 77 94
114 445 243 62 78 95
115 444 243 64 80 97
115 445 243 63 79 96
114 447 241 57 73 89
114 446 242 61 77 94
114 446 243 61 78 95
114 447 242 58 74 90
115 446 243 62 78 94
115 447 242 58 74 90
115 447 243 60 76 91
115 444 244 65 81 98
115 445 244 63 81 98
116 441 245 60 76 92
116 440 246 56 73 89
116 441 246 59 75 91
117 440 246 54 72 89
117 440 247 55 72 89
117 441 246 57 75 91
117 441 247 55 73 90
116 442 245 61 77 94
116 443 245 64 81 98
117 443 245 62 79 97
117 442 246 58 76 93
117 443 246 60 79 96
118 440 247 56 73 89
118 441 247 55 73 90
118 442 246 55 74 92
118 442 247 55 74 91
118 443 246 59 77 95
118 443 247 59 78 95
119 442 247 56 75 93
119 443 247 60 78 96
116 446 243 64 80 96
116 447 243 59 75 90
116 444 244 64 81 98
116 444 245 63 81 98
116 445 244 63 80 97
116 445 245 61 79 97
117 444 245 62 80 97
117 445 245 62 80 97
117 444 246 62 80 97
116 446 244 63 80 96
116 447 244 60 76 93
117 446 244 62 79 95
117 446 245 64 80 97
117 447 244 57 73 90
117 447 245 58 75 91
118 445 245 62 79 97
118 444 246 62 80 97
118 444 247 65 82 99
118 445 246 62 80 97
119 444 247 66 83 100
119 445 247 64 81 98
118 446 245 61 78 95
118 447 245 56 73 89
118 446 246 61 78 95
118 447 246 57 74 90
119 446 246 60 77 94
119 446 247 60 77 94
119 447 246 57 74 91
118 440 248 57 73 89
119 440 248 57 74 90
119 440 249 57 74 91
119 441 248 57 74 91
119 441 249 57 74 91
119 442 248 57 76 93
119 443 248 61 79 96
119 444 248 64 82 99
120 432 250 67 84 101
120 432 251 68 84 101
120 433 250 63 80 97
120 433 251 64 81 98
121 432 251 66 83 99
121 433 251 64 80 97
120 434 250 60 78 94
120 434 251 61 78 95
120 435 250 62 79 95
121 434 251 62 79 96
121 435 251 63 79 96
122 432 251 64 80 97
122 433 251 62 79 96
122 434 251 63 79 96
122 435 251 62 79 95
122 432 252 67 83 100
122 433 252 65 81 98
123 432 252 67 84 101
123 433 252 67 84 101
122 434 252 65 81 97
122 435 252 66 81 97
123 434 252 68 84 100
123 435 252 67 83 99
120 436 250 60 77 94
120 437 250 60 77 94
121 436 250 61 78 95
121 436 251 60 77 94
121 437 250 62 79 95
121 437 251 61 78 95
120 438 249 59 75 92
120 439 249 60 76 92
120 438 250 59 76 92
120 439 250 59 76 92
121 438 250 61 77 93
121 439 250 60 76 93
122 436 251 61 78 95
122 437 251 62 78 94
123 437 251 65 80 96
122 438 250 59 76 93
122 438 251 61 77 93
122 439 250 59 76 93
122 439 251 59 76 93
123 438 251 63 79 95
123 439 251 60 77 93
123 436 252 64 81 97
123 437 252 65 80 96
124 432 252 60 80 98
124 432 253 60 79 97
124 433 252 63 81 98
124 433 253 61 79 97
125 432 253 63 81 99
125 433 252 63 81 98
125 433 253 64 82 99
124 434 252 62 80 98
124 435 252 62 79 97
125 434 252 62 80 97
125 434 253 64 81 98
125 435 252 63 80 97
125 435 253 63 80 97
126 432 253 63 81 98
126 433 253 64 82 99
127 432 253 66 83 100
127 433 253 67 84 101
127 432 254 66 83 101
126 434 253 64 81 98
126 435 253 63 80 97
127 434 253 66 82 99
127 435 253 64 81 97
124 438 251 59 76 92
124 439 251 58 75 92
124 436 252 58 76 93
124 437 252 59 76 92
125 436 252 58 76 93
125 437 252 56 73 90
124 438 252 58 75 91
124 439 252 56 74 91
125 438 252 56 73 90
125 439 252 58 75 92
126 436 253 60 77 94
126 437 252 57 74 91
126 437 253 60 76 92
127 436 253 62 78 94
127 437 253 60 76 92
126 438 252 59 75 91
126 439 252 60 76 93
127 438 253 58 75 91
127 439 252 59 76 93
127 439 253 58 76 92
120 445 247 64 81 98
120 446 247 61 78 95
120 447 247 59 75 91
121 447 247 59 75 91
120 440 249 59 76 92
120 441 249 57 75 93
121 441 249 58 77 94
121 440 250 58 76 93
121 441 250 58 77 95
120 442 248 60 78 95
120 442 249 59 77 95
120 443 248 63 81 98
120 443 249 62 80 97
121 442 249 60 79 96
121 443 249 62 81 98
121 442 250 61 79 97
121 443 250 61 80 99
122 440 250 59 77 95
122 440 251 59 77 95
122 441 250 63 80 98
122 441 251 60 78 96
123 440 251 61 78 95
123 441 251 62 80 98
122 442 250 64 82 100
122 443 250 64 83 101
123 442 250 63 82 100
123 442 251 64 82 100
123 443 250 66 84 101
123 443 251 65 83 100
120 444 248 67 83 101
120 445 248 65 82 99
121 444 248 67 84 101
121 444 249 66 83 101
121 445 248 65 82 99
121 445 249 65 82 100
121 446 248 62 79 96
121 447 248 59 76 92
122 444 249 66 83 101
122 445 249 66 83 100
123 445 249 67 83 100
122 444 250 66 84 102
123 444 250 69 85 103
123 445 250 68 84 101
122 446 249 64 81 98
122 447 248 59 76 93
122 447 249 61 77 94
123 446 249 65 81 98
123 447 249 60 77 94
123 446 250 66 82 98
124 440 251 60 77 94
124 441 251 62 80 97
125 440 251 59 77 93
125 441 251 60 78 95
124 442 251 63 81 99
124 443 251 66 83 100
125 442 251 63 81 98
125 443 251 65 82 99
126 443 251 64 81 99
125 440 252 59 76 93
125 441 252 59 77 95
126 440 252 60 77 94
126 441 252 61 79 96
127 440 252 61 78 95
127 440 253 60 77 94
127 441 252 61 79 96
126 442 252 64 82 99
126 443 252 64 82 99
127 442 252 63 81 98
127 443 252 65 82 99
124 444 250 68 84 102
124 444 251 67 84 101
124 445 250 67 83 99
125 444 251 66 83 100
125 445 250 64 80 97
125 445 251 62 79 96
124 447 249 61 77 94
124 446 250 63 80 96
124 447 250 60 77 93
125 446 250 61 78 94
125 446 251 58 76 93
125 447 250 57 74 91
126 444 251 63 80 97
126 445 251 59 77 94
127 444 251 61 78 96
127 445 251 59 76 94
126 446 250 58 75 92
126 446 251 56 74 91
126 447 250 56 73 90
126 447 251 56 74 90
127 446 251 58 75 92
127 447 251 58 74 91
126 444 252 63 81 98
127 444 252 63 81 98
127 445 252 60 77 95
99 448 183 47 59 70
101 451 179 47 57 68
102 451 179 46 57 68
100 448 181 49 60 71
100 449 181 48 59 71
101 449 181 47 58 70
100 448 182 49 61 72
100 448 183 48 60 71
100 449 182 48 59 71
100 449 183 47 59 70
100 450 181 48 59 70
100 451 181 49 60 71
101 450 180 48 59 70
101 450 181 48 59 70
101 451 180 49 59 70
101 451 181 50 60 71
100 450 182 46 58 69
100 450 183 47 58 69
100 451 182 48 59 70
100 451 183 46 57 69
101 452 179 46 57 68
102 452 179 47 57 68
102 453 178 47 57 68
102 453 179 48 58 69
102 454 177 46 57 67
102 455 177 45 56 67
103 454 177 46 56 67
103 455 177 46 57 68
102 454 178 47 57 68
102 454 179 50 60 70
102 455 178 48 58 69
102 455 179 49 59 70
101 452 180 49 59 70
101 452 181 49 59 70
101 453 180 50 60 71
101 453 181 48 59 70
100 452 182 47 58 69
100 452 183 45 57 68
100 453 182 45 57 68
100 453 183 45 57 68
101 452 182 47 58 69
101 453 182 46 58 69
101 454 180 51 61 72
101 454 181 49 59 71
101 455 180 49 59 70
101 455 181 47 58 69
100 454 182 46 57 69
100 454 183 46 58 69
100 455 183 47 58 69
101 454 182 47 58 69
101 455 182 47 58 69
102 454 180 49 59 70
102 455 180 49 60 70
99 448 184 48 59 71
99 448 185 48 59 71
99 449 184 47 59 70
99 449 185 47 59 71
98 448 186 48 60 71
98 448 187 47 59 70
98 449 186 50 61 72
98 449 187 48 58 70
99 448 186 48 60 71
99 449 186 49 60 72
99 450 184 47 58 70
99 450 185 47 59 71
99 451 184 47 58 70
99 451 185 47 59 70
98 450 186 48 59 70
98 450 187 47 58 69
98 451 186 47 58 69
98 451 187 47 58 69
99 450 186 47 59 70
99 451 186 48 59 70
97 448 188 46 57 69
97 448 189 46 57 68
97 449 189 46 57 68
97 448 190 47 57 68
97 448 191 48 58 68
97 449 190 46 57 67
97 449 191 47 57 67
97 450 189 46 57 68
97 451 189 46 57 68
97 450 190 46 56 67
97 450 191 47 56 67
97 451 190 46 56 67
97 451 191 46 56 67
98 448 188 46 58 69
98 449 188 46 58 69
98 450 188 45 56 68
98 451 188 46 57 68
99 452 184 46 58 69
99 452 185 48 59 71
99 453 184 47 58 70
99 453 185 48 59 71
98 452 187 47 57 68
98 453 187 46 57 68
99 452 186 49 59 70
99 453 186 48 59 70
99 454 184 49 60 71
99 454 185 49 60 71
99 455 185 49 59 70
98 454 187 46 57 67
98 455 187 47 57 68
99 454 186 48 59 69
99 454 187 47 57 68
99 455 186 48 59 69
99 455 187 47 57 68
97 452 189 45 56 67
97 453 189 44 55 65
97 452 190 45 56 66
97 452 191 46 56 66
97 453 190 44 54 65
97 453 191 45 55 65
97 454 189 46 57 67
97 455 189 46 56 66
97 454 190 46 56 66
97 454 191 46 56 65
97 455 190 46 55 65
97 455 191 46 56 66
98 452 188 46 56 67
98 452 189 45 56 67
98 453 188 45 56 67
98 453 189 44 55 66
98 454 188 46 56 67
98 454 189 46 56 67
98 455 188 45 56 66
98 455 189 44 55 66
100 454 184 48 59 70
100 455 184 48 59 70
103 456 177 48 58 69
103 457 177 47 58 69
102 456 178 50 60 71
102 456 179 50 60 71
102 457 178 49 60 70
102 457 179 48 59 70
103 458 177 47 58 69
103 459 177 48 59 70
102 458 178 48 60 71
102 458 179 49 60 71
102 459 178 50 61 72
102 459 179 51 62 73
103 458 178 48 59 70
103 459 178 49 60 71
101 456 180 48 59 70
101 456 181 47 58 69
101 457 180 47 58 70
101 457 181 47 58 69
100 456 183 46 57 69
100 457 183 48 59 70
101 456 182 47 58 69
101 456 183 46 58 69
101 457 182 48 59 70
101 457 183 48 58 69
101 458 181 48 59 70
101 459 181 50 60 71
101 458 182 48 59 70
101 458 183 47 58 69
101 459 182 49 59 70
101 459 183 48 58 69
102 456 180 49 60 71
102 457 180 47 59 70
102 458 180 48 59 70
102 458 181 49 60 71
102 459 180 51 62 73
102 459 181 50 61 71
103 460 177 49 60 71
103 461 177 49 60 71
102 460 179 50 61 73
102 461 179 50 61 73
103 460 178 50 61 72
103 461 178 50 61 72
103 461 179 50 61 73
103 462 177 49 60 71
103 463 177 49 60 72
102 462 179 50 61 72
103 462 178 49 60 71
103 462 179 49 60 71
103 463 178 49 60 71
103 463 179 48 59 70
101 460 181 48 59 70
101 461 181 48 58 69
101 460 182 48 58 69
101 460 183 46 57 68
101 461 182 49 59 70
101 461 183 46 57 68
101 462 181 49 59 70
100 462 183 47 57 68
101 462 182 48 58 68
101 462 183 46 57 68
101 463 182 47 57 68
101 463 183 47 57 67
102 460 180 48 60 71
102 460 181 49 59 70
102 461 180 48 59 70
102 461 181 49 59 70
102 462 180 49 59 70
102 462 181 48 59 69
102 463 180 48 58 69
102 463 181 47 57 68
103 463 180 47 58 69
102 463 182 48 58 68
99 456 185 47 58 69
99 457 185 48 59 70
99 456 186 47 58 69
99 456 187 45 56 67
99 457 186 47 57 68
99 457 187 45 56 67
99 458 185 47 58 68
99 459 185 46 56 67
98 459 187 46 56 65
99 458 186 46 56 67
99 458 187 45 56 66
99 459 186 46 55 66
99 459 187 46 56 66
97 456 190 43 53 64
97 456 191 44 54 64
97 457 190 43 53 63
97 457 191 43 53 63
97 458 190 44 54 63
97 458 191 43 53 63
97 459 190 45 55 64
97 459 191 44 54 64
98 456 188 44 55 65
98 456 189 43 54 64
98 457 188 44 54 65
98 457 189 43 53 64
98 457 190 43 53 63
98 458 188 45 55 65
98 458 189 45 54 64
98 459 188 46 55 65
98 459 189 45 55 64
98 458 190 44 54 64
98 459 190 45 55 65
99 460 185 46 56 67
98 460 187 47 56 66
99 460 186 46 56 66
99 460 187 46 56 66
99 461 186 46 56 66
99 461 187 47 56 66
99 462 186 46 56 66
99 462 187 46 56 66
99 463 187 46 56 66
97 460 190 45 55 65
97 460 191 44 54 64
97 461 191 45 54 64
97 462 191 43 53 64
98 460 188 46 56 66
98 460 189 46 55 65
98 461 188 46 56 65
98 461 189 45 54 64
99 460 188 46 56 66
99 461 188 47 56 66
98 460 190 45 55 65
98 461 190 45 54 64
98 462 188 45 54 64
98 462 189 44 54 63
98 463 189 43 53 62
99 462 188 46 55 65
99 463 188 44 54 64
98 462 190 44 53 63
98 462 191 43 53 63
98 463 190 43 53 63
98 463 191 42 53 63
100 456 184 46 57 69
100 456 185 47 58 69
100 457 184 47 58 70
100 457 185 48 58 69
100 458 184 47 58 69
100 458 185 47 57 68
100 459 184 46 57 68
100 459 185 46 57 67
100 460 184 46 57 68
100 460 185 46 56 67
100 461 184 46 57 68
100 461 185 45 56 66
100 462 184 46 56 67
100 462 185 47 57 67
100 463 184 46 57 67
100 463 185 47 57 67
100 462 186 46 56 66
100 463 186 46 56 66
103 464 177 48 59 71
103 465 177 47 58 69
103 464 178 48 59 71
103 464 179 47 58 69
103 465 178 49 59 70
103 465 179 47 58 69
103 466 178 49 59 70
103 466 179 47 58 69
103 467 178 48 59 69
103 467 179 48 59 70
101 464 182 47 58 69
101 464 183 46 57 68
101 465 183 46 56 67
101 466 183 46 57 68
101 467 183 47 58 69
102 464 180 47 58 69
102 464 181 48 59 69
102 465 180 48 58 69
102 465 181 48 58 69
103 464 180 47 58 69
103 465 180 48 59 70
102 464 182 48 58 69
102 465 182 47 57 68
102 466 180 48 59 70
102 466 181 48 58 69
102 467 180 48 59 70
102 467 181 48 59 69
103 466 180 48 59 70
103 467 180 48 59 70
102 466 182 48 58 69
102 467 182 47 58 69
103 468 178 47 58 69
103 468 179 47 59 70
103 469 178 47 58 69
103 469 179 47 58 69
103 470 179 47 58 69
103 471 179 47 58 69
101 468 183 47 58 69
101 469 183 48 59 70
101 470 183 48 59 70
101 471 183 48 59 70
102 468 180 48 59 70
102 468 181 48 59 70
102 469 181 47 58 70
103 468 180 48 58 69
103 469 180 47 59 70
102 468 182 47 58 69
102 469 182 47 58 70
102 469 183 48 59 70
102 470 181 48 59 70
102 471 181 47 58 70
103 470 180 47 58 70
103 470 181 49 59 70
103 471 180 47 58 69
103 471 181 47 58 69
102 470 182 48 59 70
102 470 183 48 59 71
102 471 182 47 58 69
102 471 183 47 59 70
99 464 187 45 55 65
99 465 187 44 54 64
99 466 187 44 54 64
99 467 187 45 55 66
98 464 189 44 54 63
98 465 189 44 54 64
99 464 188 44 53 63
99 464 189 44 53 63
99 465 188 44 54 64
99 465 189 44 53 63
98 464 190 43 53 62
98 464 191 42 52 63
98 465 190 44 53 63
98 465 191 43 53 63
98 466 189 44 54 64
98 467 189 45 55 66
99 466 188 44 54 64
99 466 189 44 54 64
99 467 188 45 55 66
99 467 189 46 56 66
98 466 190 44 55 65
98 466 191 45 55 65
98 467 190 46 56 66
98 467 191 46 55 66
99 468 187 46 56 67
99 469 187 46 56 67
99 470 187 45 56 66
99 468 188 46 56 66
99 468 189 47 56 67
99 469 188 46 56 66
99 469 189 45 55 66
98 468 190 46 56 66
98 468 191 45 55 65
98 469 190 45 55 65
98 469 191 44 54 64
99 469 190 45 55 65
99 470 188 46 55 66
99 470 189 45 55 66
99 471 188 45 55 65
99 471 189 44 54 65
98 470 190 44 54 65
98 470 191 44 54 64
98 471 191 44 54 64
99 470 190 45 55 65
99 471 190 45 55 65
100 464 184 47 57 67
100 464 185 47 57 67
100 465 184 46 56 67
100 465 185 46 56 67
101 464 184 46 56 67
101 465 184 45 56 67
100 464 186 48 57 67
100 465 186 46 56 66
100 465 187 44 54 65
100 466 185 46 56 67
100 467 185 47 57 68
101 466 184 46 57 67
101 467 184 47 57 68
100 466 186 45 55 66
100 466 187 45 55 65
100 467 186 46 56 67
100 467 187 45 55 66
100 468 185 47 57 68
100 469 185 46 57 68
101 468 184 48 59 70
101 469 184 48 59 70
100 468 186 46 57 67
100 468 187 45 55 66
100 469 186 46 57 68
100 469 187 45 56 66
100 470 185 46 57 68
100 471 185 46 56 67
101 470 184 48 59 69
101 470 185 47 58 69
101 471 184 48 59 69
101 471 185 47 57 68
100 470 186 45 56 67
100 470 187 45 55 66
100 471 186 45 55 66
100 471 187 45 55 66
103 472 179 47 58 69
103 473 179 47 58 70
101 472 183 49 59 69
101 473 183 48 59 70
102 472 181 47 59 70
103 472 180 47 58 70
103 472 181 47 58 69
103 473 180 48 59 71
103 473 181 48 59 71
102 472 182 47 59 69
102 472 183 49 59 70
102 473 182 48 59 71
102 473 183 49 60 72
103 474 180 48 60 72
103 474 181 47 59 71
103 475 180 48 60 72
103 475 181 48 59 71
102 474 182 48 60 71
102 474 183 49 60 72
102 475 182 49 60 72
102 475 183 48 59 71
103 475 182 49 60 72
103 476 180 48 60 72
103 476 181 48 60 71
103 477 180 48 60 72
103 477 181 49 60 71
102 476 182 48 60 71
102 476 183 47 58 69
102 477 183 49 59 70
103 476 182 49 60 72
103 477 182 50 61 72
103 478 180 48 60 71
103 478 181 49 61 72
103 479 181 48 59 71
102 478 183 47 58 69
102 479 183 48 58 69
103 478 182 48 59 71
103 478 183 47 58 69
103 479 182 48 59 70
103 479 183 48 59 70
99 472 188 45 55 65
99 472 189 44 54 65
99 473 188 46 55 65
99 473 189 45 55 65
98 472 191 44 54 64
98 473 191 44 54 65
99 472 190 45 55 65
99 472 191 44 54 64
99 473 190 45 54 64
99 473 191 44 54 65
99 474 189 45 54 64
99 475 189 43 53 63
99 474 190 44 54 64
99 474 191 44 54 64
99 475 190 44 53 64
99 475 191 44 54 64
99 476 189 43 53 63
99 477 189 44 53 63
99 476 190 44 53 63
99 476 191 44 54 64
99 477 190 44 53 63
99 477 191 44 54 64
99 478 190 44 54 63
99 478 191 44 54 64
99 479 190 44 54 64
99 479 191 44 54 64
101 472 184 48 58 68
101 472 185 47 57 67
101 473 184 49 59 70
101 473 185 47 57 68
100 472 186 46 56 67
100 472 187 46 56 66
100 473 186 46 56 67
100 473 187 46 56 66
101 473 186 46 57 67
101 474 184 48 58 69
101 474 185 46 57 68
101 475 184 46 57 68
101 475 185 46 57 68
100 474 186 46 56 67
100 474 187 46 56 66
100 475 186 45 55 66
100 475 187 44 55 66
101 474 186 46 57 68
101 475 186 46 56 67
101 475 187 44 55 66
102 474 184 48 58 70
102 475 184 47 58 69
100 473 188 46 56 65
100 474 188 46 56 66
100 475 188 44 54 65
100 475 189 43 53 63
101 476 184 46 57 68
101 476 185 46 57 68
101 477 185 47 57 68
100 476 187 43 54 65
100 477 187 42 52 63
101 476 186 45 56 66
101 476 187 44 55 65
101 477 186 44 55 65
101 477 187 42 53 64
101 478 185 44 55 65
101 478 186 43 54 64
101 478 187 43 53 63
101 479 186 44 55 65
101 479 187 43 54 64
102 476 184 46 57 68
102 477 184 48 58 69
102 477 185 47 57 68
102 478 184 47 58 68
102 478 185 46 56 67
102 479 184 47 58 68
102 479 185 46 56 67
100 476 188 43 53 64
100 476 189 43 53 63
100 477 188 42 53 63
100 477 189 43 53 63
100 478 188 44 54 64
100 478 189 44 53 63
100 479 188 43 54 64
100 479 189 44 54 64
101 479 188 44 54 65
100 478 190 44 53 63
100 479 190 45 55 65
104 464 177 48 59 71
104 465 177 48 59 70
104 466 177 49 59 70
104 467 177 49 60 70
104 468 177 50 60 71
104 469 177 50 60 71
104 468 178 48 59 69
104 469 178 48 58 69
104 470 177 48 59 70
104 471 177 48 58 69
104 470 178 47 57 69
104 471 178 47 57 68
104 472 177 47 58 69
104 473 177 46 57 69
104 472 178 47 58 69
104 472 179 47 58 69
104 473 178 46 58 69
104 473 179 46 57 68
104 474 177 47 58 70
104 475 177 48 59 70
104 474 178 48 60 71
104 474 179 49 60 72
104 475 178 48 60 72
104 475 179 49 60 72
104 476 177 46 58 69
104 477 177 46 58 69
104 476 178 47 59 71
104 476 179 47 59 71
104 477 178 47 58 70
104 477 179 47 59 70
104 478 178 47 58 69
104 478 179 47 59 70
104 479 178 47 58 69
104 479 179 47 59 70
105 479 178 47 59 70
104 476 180 48 60 72
104 477 180 47 59 71
104 478 180 48 59 71
104 479 180 48 59 71
104 479 181 48 59 71
103 480 181 47 59 71
103 480 182 48 59 71
103 480 183 50 60 72
103 481 182 51 62 74
103 481 183 52 62 73
103 482 182 50 62 73
103 482 183 51 62 73
103 483 183 51 62 73
103 484 183 50 61 73
103 485 183 50 61 73
99 480 191 46 55 65
99 481 191 46 56 66
101 480 186 45 56 66
101 480 187 45 56 66
101 481 187 46 57 68
101 482 187 48 58 69
101 483 187 49 59 70
102 480 184 48 58 69
102 480 185 46 57 68
102 481 184 49 60 71
102 481 185 48 59 70
103 480 184 49 59 70
103 481 184 50 61 72
102 480 186 46 57 67
102 481 186 46 57 68
102 481 187 47 58 69
102 482 185 49 60 71
102 483 185 49 60 71
103 482 184 52 62 73
103 483 184 50 61 72
103 483 185 50 60 71
102 482 186 48 59 70
102 482 187 49 59 70
102 483 186 49 59 70
102 483 187 49 59 70
100 480 188 45 56 66
100 480 189 46 56 66
100 481 189 46 57 67
101 480 188 46 56 66
101 481 188 47 57 68
101 481 189 46 57 67
100 480 190 45 55 66
100 480 191 46 56 66
100 481 190 46 57 67
100 481 191 46 56 67
100 482 189 46 56 67
101 482 188 48 58 69
101 482 189 47 57 68
101 483 188 47 57 68
101 483 189 47 58 69
100 482 190 46 56 67
100 482 191 46 56 67
100 483 190 47 57 68
100 483 191 46 56 67
103 484 184 50 61 72
103 484 185 49 60 71
103 485 184 49 61 72
103 485 185 47 59 70
102 484 186 48 58 69
102 484 187 47 58 69
102 485 186 47 58 69
102 485 187 47 57 67
103 484 186 48 59 70
103 485 186 47 57 69
103 486 184 48 60 71
103 486 185 46 58 69
103 487 184 47 58 70
103 487 185 46 57 69
102 486 187 46 56 67
102 487 187 44 54 64
103 486 186 46 57 68
103 487 186 46 56 67
103 487 187 45 55 65
101 484 188 47 57 68
101 484 189 47 57 67
101 485 188 46 56 67
101 485 189 46 56 66
100 484 190 46 56 67
100 484 191 45 56 66
100 485 191 46 55 66
101 484 190 46 56 67
101 484 191 46 56 66
101 485 190 46 56 66
101 485 191 46 56 66
101 486 189 47 56 66
101 487 189 45 55 64
101 486 190 47 56 66
101 486 191 46 56 65
101 487 190 45 55 64
101 487 191 46 55 65
102 484 188 47 57 68
102 485 188 47 56 67
102 486 188 47 56 66
102 486 189 46 55 65
102 487 188 45 54 64
102 487 189 45 54 64
103 488 185 46 56 67
102 488 187 44 54 64
103 488 186 46 56 67
103 488 187 45 54 64
103 489 186 45 55 66
103 489 187 45 54 64
101 488 190 46 55 64
101 488 191 45 54 64
101 489 191 45 54 64
102 488 188 45 54 63
102 488 189 44 54 63
102 489 188 45 54 63
102 489 189 44 53 63
102 488 190 45 54 63
102 489 190 45 54 63
102 489 191 45 54 63
102 490 191 45 54 63
104 480 179 48 59 70
105 480 178 48 59 70
105 480 179 48 59 70
105 481 178 48 59 70
105 481 179 47 58 70
105 482 178 46 58 69
105 482 179 47 58 70
105 483 178 46 58 70
105 483 179 47 59 70
106 483 178 48 59 71
104 480 180 48 59 71
104 480 181 47 59 71
104 481 180 48 59 71
104 481 181 49 60 72
104 481 182 50 61 73
104 482 180 48 59 71
104 482 181 48 60 72
104 483 180 47 59 71
104 483 181 48 60 72
105 482 180 48 59 71
105 483 180 48 59 71
104 482 182 49 61 73
104 483 182 49 61 73
104 483 183 50 61 73
105 484 178 48 59 71
105 484 179 47 59 71
105 485 179 48 60 71
105 486 179 49 60 72
106 484 178 48 60 71
106 485 178 48 59 71
106 485 179 48 59 71
106 486 178 47 59 71
106 486 179 47 59 71
106 487 178 47 59 71
106 487 179 48 59 71
104 484 181 48 60 72
104 485 181 48 60 72
105 484 180 47 59 71
105 485 180 48 60 72
105 485 181 48 60 72
104 484 182 49 61 73
104 484 183 50 61 73
104 485 182 49 61 73
104 485 183 50 61 73
104 486 181 48 60 72
105 486 180 49 60 72
105 486 181 48 60 72
105 487 180 48 59 71
105 487 181 49 60 72
104 486 182 50 61 73
104 486 183 51 62 74
104 487 182 50 61 73
104 487 183 50 61 72
105 487 182 49 60 72
106 487 180 48 59 71
104 486 184 49 60 72
104 487 184 48 59 70
106 488 178 46 58 70
106 488 179 47 59 71
106 489 179 49 60 71
107 488 178 46 57 69
107 489 178 47 59 70
105 488 180 48 59 71
105 488 181 48 59 71
105 489 181 50 61 72
104 488 183 49 60 71
104 489 183 48 59 70
105 488 182 49 60 71
105 488 183 49 60 71
105 489 182 50 61 72
105 489 183 49 60 71
106 488 180 48 60 71
106 489 180 49 60 72
104 488 184 48 59 70
104 488 185 46 56 67
104 489 184 48 59 70
104 489 185 48 58 68
104 489 186 47 57 67
95 448 196 45 56 66
95 448 197 45 55 66
95 449 196 44 54 64
95 449 197 44 54 63
95 448 198 48 57 66
95 448 199 47 56 66
95 449 198 44 53 63
95 449 199 44 53 63
95 450 197 44 53 62
95 450 198 43 52 61
95 450 199 43 51 61
95 451 198 43 52 61
95 451 199 43 51 60
95 452 199 44 52 61
95 448 200 46 55 65
95 448 201 46 56 66
95 449 200 44 53 63
95 449 201 45 54 63
95 448 202 46 55 65
95 448 203 45 54 63
95 449 202 45 54 62
95 449 203 44 53 62
95 450 200 44 52 61
95 450 201 46 54 62
95 451 200 44 52 61
95 451 201 45 53 61
95 450 202 46 54 62
95 450 203 46 53 62
95 451 202 44 52 60
95 451 203 44 52 61
95 448 204 44 53 62
95 448 205 44 53 62
95 449 204 44 52 61
95 449 205 45 53 62
95 448 206 45 54 63
95 448 207 46 54 64
95 449 206 46 54 63
95 449 207 47 55 64
95 450 204 45 53 62
95 450 205 45 53 62
95 451 204 44 52 61
95 451 205 44 52 61
95 450 206 46 54 64
95 450 207 48 56 65
95 451 206 45 54 63
95 451 207 47 55 64
95 452 200 45 52 61
95 452 201 46 53 62
95 453 200 45 53 62
95 453 201 46 54 62
95 452 202 46 53 62
95 452 203 45 53 62
95 453 202 46 54 63
95 453 203 46 54 62
95 454 200 45 53 62
95 454 201 46 54 63
95 455 200 46 54 63
95 455 201 46 54 63
95 454 202 45 54 63
95 454 203 46 54 63
95 455 202 46 54 64
95 455 203 47 55 65
95 452 204 45 53 62
95 452 205 44 53 62
95 453 204 46 54 63
95 453 205 46 54 63
95 452 206 45 53 63
95 452 207 47 55 65
95 453 206 46 55 64
95 453 207 47 56 65
95 454 204 47 55 64
95 454 205 46 55 64
95 455 204 48 56 65
95 455 205 47 55 64
95 454 206 47 56 65
95 454 207 48 56 66
95 455 206 47 55 64
95 456 201 46 55 64
95 456 202 47 55 65
95 456 203 47 56 66
95 457 203 47 56 66
95 456 204 48 57 66
95 456 205 48 56 65
95 457 204 48 56 66
95 448 208 46 55 65
95 448 209 46 55 65
95 449 208 49 57 66
95 449 209 48 56 65
95 448 210 46 54 63
95 448 211 45 53 62
95 449 210 46 54 63
95 449 211 44 52 61
95 450 208 49 57 66
95 450 209 48 55 64
95 451 208 48 56 65
95 451 209 47 55 64
95 450 210 45 53 62
95 450 211 44 51 60
95 448 212 45 53 62
95 448 213 44 52 61
95 452 208 48 56 65
96 448 192 48 58 68
96 448 193 47 57 68
96 449 192 47 57 67
96 449 193 48 57 67
96 448 194 46 57 67
96 448 195 46 56 66
96 449 194 46 55 65
96 449 195 44 54 65
96 450 192 46 56 66
96 450 193 46 55 65
96 451 192 47 56 66
96 451 193 46 55 65
97 451 192 47 56 66
96 450 194 45 54 64
96 450 195 44 53 63
96 451 194 44 53 63
96 451 195 44 53 62
96 448 196 45 55 66
96 449 196 44 53 63
96 450 196 43 52 62
96 450 197 43 52 61
96 451 196 44 52 61
96 451 197 44 52 61
96 451 198 44 52 61
96 452 192 47 56 66
96 452 193 46 55 64
96 453 192 45 55 65
96 453 193 45 54 64
97 452 192 46 56 66
97 453 192 45 55 65
96 452 194 45 54 63
96 452 195 45 53 63
96 453 194 44 53 63
96 453 195 44 53 62
96 454 193 45 54 64
96 455 193 43 53 63
97 454 192 46 56 66
97 455 192 45 54 64
96 454 194 43 53 62
96 454 195 44 52 62
96 455 194 43 53 63
96 455 195 44 53 62
96 452 196 45 53 62
96 452 197 46 53 62
96 453 196 44 52 61
96 453 197 44 52 61
96 452 198 45 53 61
96 452 199 44 52 61
96 453 198 44 52 61
96 453 199 43 52 60
96 454 196 45 53 62
96 454 197 46 54 63
96 455 196 45 54 63
96 455 197 46 54 63
96 454 198 45 53 62
96 454 199 44 52 61
96 455 198 44 52 61
96 455 199 44 53 62
96 453 200 45 52 61
96 454 200 45 53 62
96 455 200 46 54 63
96 453 207 48 56 66
96 454 207 49 57 66
96 455 206 47 55 64
96 455 207 48 56 66
96 456 193 43 53 63
96 457 193 43 53 63
97 456 192 44 53 63
97 456 193 43 53 63
97 457 192 44 53 63
97 457 193 43 53 63
96 456 194 43 53 63
96 456 195 45 54 64
96 457 194 44 53 63
96 457 195 45 54 64
97 458 192 44 53 63
97 458 193 43 52 62
97 459 192 44 54 64
97 459 193 44 53 63
96 458 194 44 54 64
96 458 195 45 54 64
96 459 194 44 54 63
96 459 195 44 54 63
97 458 194 44 53 63
97 459 194 44 54 63
96 456 196 46 54 64
96 456 197 45 54 63
96 457 196 46 54 64
96 457 197 46 54 63
96 456 198 45 53 62
96 456 199 45 54 63
96 457 198 45 54 63
96 457 199 47 55 64
96 458 196 45 54 63
96 458 197 45 53 62
96 459 196 44 53 62
96 459 197 43 52 62
96 458 198 45 53 63
96 458 199 47 55 64
96 459 198 43 52 61
96 459 199 45 54 63
97 460 192 45 55 64
97 460 193 45 54 64
97 461 192 46 55 65
97 461 193 45 55 65
96 460 195 45 54 63
96 461 195 44 53 63
97 460 194 45 54 64
97 460 195 46 54 64
97 461 194 45 55 65
97 461 195 45 54 63
97 462 192 44 54 64
97 462 193 43 53 63
97 463 192 42 52 62
97 463 193 43 53 63
97 462 194 44 54 64
97 462 195 45 54 63
97 463 194 44 54 63
97 463 195 45 54 64
98 463 192 41 52 62
96 460 196 44 53 62
96 460 197 43 52 61
96 461 196 45 53 62
96 461 197 45 53 62
96 460 198 43 51 60
96 460 199 44 52 61
96 461 198 43 52 61
96 461 199 42 51 59
96 462 196 45 54 63
96 462 197 45 53 62
97 462 196 45 54 63
97 462 197 45 53 62
97 463 196 46 54 63
97 463 197 45 53 62
96 462 198 44 52 61
96 462 199 43 51 59
97 462 198 44 52 61
97 463 198 45 52 61
97 463 199 44 51 60
96 456 200 46 55 64
96 456 201 46 55 65
96 457 200 46 55 65
96 457 201 46 55 65
96 457 202 47 56 66
96 457 203 48 56 66
96 458 200 46 55 65
96 458 201 46 55 65
96 459 200 46 54 64
96 459 201 44 53 62
96 458 202 47 55 65
96 458 203 46 55 65
96 459 202 44 52 61
96 459 203 44 52 61
96 456 205 47 55 64
96 457 204 48 56 66
96 457 205 48 55 64
96 456 206 47 55 64
96 456 207 47 56 65
96 457 206 48 56 64
96 457 207 48 55 64
96 458 204 46 55 64
96 458 205 47 55 64
96 459 204 44 52 61
96 459 205 44 52 61
96 458 206 47 55 64
96 458 207 48 55 64
96 459 206 46 54 62
96 459 207 46 53 62
96 460 200 43 51 60
96 460 201 42 50 59
96 461 200 42 50 58
96 461 201 42 49 57
96 460 202 42 50 58
96 460 203 42 50 58
96 461 202 43 49 57
96 461 203 43 50 57
96 462 200 44 51 59
96 462 201 44 51 58
96 463 201 46 52 59
97 463 200 46 52 59
97 463 201 47 53 59
96 462 202 47 51 58
96 462 203 48 52 59
96 463 202 51 55 61
96 463 203 55 58 63
97 463 202 56 59 63
97 463 203 62 63 67
96 460 204 42 49 58
96 460 205 42 50 58
96 461 204 43 50 58
96 461 205 44 51 59
96 460 206 44 51 60
96 460 207 44 51 59
96 461 206 45 52 60
96 461 207 45 52 60
96 462 204 47 52 59
96 462 205 47 54 62
96 463 204 54 58 63
96 463 205 51 56 63
97 463 204 62 63 67
97 463 205 55 59 65
96 462 206 49 56 63
96 462 207 47 53 61
97 462 207 48 54 62
97 463 206 51 57 65
97 463 207 48 55 63
96 449 211 45 52 61
96 451 209 46 54 63
96 450 211 43 51 60
96 451 210 45 53 62
96 451 211 43 51 60
96 448 212 45 53 61
96 448 213 45 53 61
96 449 212 45 52 61
96 449 213 45 52 61
96 448 214 44 52 61
96 448 215 44 52 60
96 449 214 44 52 60
96 449 215 44 52 60
96 450 212 44 52 60
96 450 213 45 52 61
96 451 212 44 52 61
96 451 213 45 53 62
96 450 214 45 53 62
96 450 215 45 52 61
96 451 214 46 54 63
96 451 215 47 54 63
96 452 208 48 56 65
96 452 209 47 55 64
96 453 208 48 56 66
96 453 209 48 55 64
96 452 210 45 53 62
96 452 211 44 52 60
96 453 210 45 53 61
96 453 211 44 52 60
96 454 208 49 57 66
96 454 209 47 55 64
96 455 208 47 55 65
96 455 209 45 53 62
96 454 210 45 53 61
96 454 211 45 52 60
96 455 210 44 52 60
96 455 211 44 51 59
96 452 212 44 52 60
96 452 213 45 53 62
96 453 212 43 51 60
96 453 213 44 52 61
96 452 214 45 54 63
96 452 215 47 55 65
96 453 214 45 53 63
96 453 215 47 56 65
97 453 215 49 57 66
96 454 212 44 51 60
96 454 213 43 51 60
96 455 212 43 51 59
96 455 213 43 51 60
96 454 214 44 52 62
96 454 215 46 54 64
96 455 214 44 52 62
97 454 215 48 56 65
97 455 215 46 54 64
96 448 216 44 52 60
96 448 217 43 52 61
96 449 216 44 52 61
96 449 217 44 53 62
96 448 218 44 53 63
96 448 219 45 54 64
96 449 218 45 54 64
96 449 219 46 55 65
97 448 219 47 55 65
97 449 219 47 56 66
96 450 216 45 53 62
96 450 217 45 54 64
96 451 216 47 55 65
96 451 217 48 57 66
97 451 217 50 59 68
96 450 218 47 56 66
97 450 218 47 56 67
97 450 219 48 57 68
97 451 218 49 58 69
97 451 219 49 59 69
97 448 220 46 55 64
97 448 221 45 54 64
97 449 220 47 56 65
97 449 221 45 55 65
97 448 222 45 54 64
97 450 220 47 57 67
97 450 221 45 55 66
97 451 220 47 57 68
98 449 221 45 55 66
98 448 222 46 55 65
98 448 223 45 55 65
98 449 222 47 56 67
98 449 223 45 55 66
98 450 221 46 56 67
98 451 220 49 59 70
98 451 221 48 58 69
98 450 222 47 57 68
98 450 223 46 56 68
98 451 222 49 59 70
98 451 223 49 59 71
99 450 223 46 57 68
99 451 223 49 60 71
96 452 216 48 57 66
97 452 216 49 58 67
97 452 217 51 60 69
97 453 216 50 58 68
97 453 217 51 60 70
97 452 218 52 61 72
97 452 219 51 61 72
97 453 218 52 62 72
97 453 219 51 61 72
97 454 216 50 59 69
97 454 217 51 60 70
97 455 216 49 58 68
97 455 217 50 59 69
97 454 218 51 61 71
97 454 219 51 61 71
97 455 218 50 59 69
98 453 219 51 61 72
98 454 219 48 58 69
98 455 218 49 58 69
98 455 219 46 57 67
98 452 220 51 61 72
98 452 221 51 61 73
98 453 220 49 60 71
98 453 221 50 60 71
99 453 221 49 60 71
