ply
format ascii 1.0
comment PCL generated
element vertex 2202
property float x
property float y
property float z
property uchar red
property uchar green
property uchar blue
element camera 0
property float view_px
property float view_py
property float view_pz
property float x_axisx
property float x_axisy
property float x_axisz
property float y_axisx
property float y_axisy
property float y_axisz
property float z_axisx
property float z_axisy
property float z_axisz
property float focal
property float scalex
property float scaley
property float centerx
property float centery
property int viewportx
property int viewporty
property float k1
property float k2
end_header
110 499 176 49 58 68
108 496 180 47 58 69
108 497 180 47 58 68
108 498 180 49 59 70
108 498 181 49 59 69
108 499 180 48 58 69
108 499 181 48 58 68
109 500 176 48 57 68
109 500 177 47 57 67
109 501 176 46 56 66
109 501 177 46 56 66
108 500 179 46 56 67
109 500 178 47 57 67
109 500 179 47 57 68
109 501 178 46 56 66
109 501 179 45 55 65
109 502 176 44 53 63
109 502 177 45 55 64
109 503 176 44 53 62
109 503 177 45 53 62
108 503 179 44 52 61
109 502 178 46 55 64
109 502 179 45 54 63
109 503 178 45 53 62
109 503 179 44 53 62
110 500 176 48 57 67
110 501 176 46 56 66
110 502 176 45 55 65
110 503 176 44 53 63
108 500 180 46 56 67
108 500 181 46 56 67
108 501 180 45 55 65
108 501 181 45 55 66
108 500 182 47 57 67
108 501 182 45 55 65
108 502 180 45 54 63
108 502 181 45 54 64
108 503 180 44 52 61
108 503 181 44 52 61
108 502 182 46 54 64
105 496 184 46 57 68
105 496 185 45 56 67
105 497 184 45 56 67
105 497 185 45 56 67
104 496 186 45 56 66
104 496 187 45 55 66
104 497 186 44 55 65
104 497 187 44 55 65
105 496 186 45 55 66
105 497 186 44 55 65
105 498 184 46 56 67
105 498 185 45 56 67
105 499 185 45 55 65
104 498 187 45 55 65
104 499 187 45 55 64
105 498 186 45 55 65
105 498 187 45 55 65
105 499 186 45 55 65
105 499 187 45 55 65
106 496 184 47 58 69
106 497 184 46 57 68
106 498 184 47 57 68
106 499 184 46 56 66
106 499 185 44 54 65
104 496 188 44 54 65
104 497 188 43 54 65
104 497 189 43 54 64
104 497 190 44 54 64
104 498 188 44 54 65
104 498 189 44 54 64
104 499 188 45 54 65
104 499 189 44 54 64
104 498 190 43 53 64
104 498 191 44 54 64
104 499 190 44 54 63
104 499 191 43 53 63
105 500 185 46 55 64
105 501 185 46 55 64
104 500 187 45 54 64
104 501 187 45 53 62
105 500 186 46 55 64
105 500 187 45 55 64
105 501 186 46 54 63
105 501 187 45 53 62
105 502 185 43 51 60
105 503 185 41 50 59
105 502 186 43 51 60
105 502 187 42 51 60
105 503 186 41 50 59
105 503 187 42 50 59
106 500 184 45 55 65
106 500 185 45 54 65
106 501 184 45 54 63
106 501 185 45 54 63
107 501 184 45 54 64
106 502 184 43 52 61
106 502 185 43 52 61
106 503 184 42 51 59
106 503 185 42 50 59
104 500 188 44 53 63
104 500 189 43 53 62
104 501 188 43 52 61
104 501 189 42 51 60
104 500 190 43 52 62
104 500 191 43 52 61
104 501 190 42 51 60
104 501 191 42 50 59
104 502 188 41 50 59
104 502 189 42 50 59
104 503 188 42 50 58
104 503 189 42 50 58
105 503 188 42 50 59
104 502 190 41 50 58
104 502 191 41 49 58
104 503 190 41 49 58
104 503 191 42 50 58
107 504 181 43 51 59
107 505 181 42 50 58
106 504 183 43 51 59
106 505 183 43 50 59
107 504 182 43 51 60
107 504 183 43 51 59
107 505 182 43 51 59
107 505 183 43 51 59
107 506 180 42 49 58
107 506 181 43 51 59
107 507 180 43 51 60
107 507 181 44 52 60
106 506 183 43 51 59
106 507 182 44 52 61
106 507 183 44 52 61
107 506 182 43 51 59
107 507 182 44 52 61
107 508 180 44 53 62
107 508 181 45 53 62
107 509 181 46 55 64
106 508 182 45 53 62
106 508 183 45 53 62
106 509 183 45 54 63
107 508 182 45 54 63
107 509 182 45 54 64
107 509 183 44 53 63
107 510 181 46 54 63
107 510 182 44 54 63
107 510 183 43 53 63
107 511 182 44 53 63
107 511 183 43 53 63
109 504 176 44 52 61
109 504 177 44 52 61
109 505 176 43 52 60
109 505 177 43 50 59
108 504 179 44 51 59
108 505 178 42 50 58
108 505 179 43 50 58
109 504 178 44 52 60
109 504 179 44 52 60
109 505 178 43 51 59
109 506 176 43 51 60
109 506 177 43 51 59
109 507 176 44 52 61
109 507 177 44 52 60
108 506 178 43 51 59
108 506 179 43 50 58
108 507 178 43 51 59
108 507 179 43 51 59
109 506 178 43 51 59
109 507 178 44 52 60
110 504 176 43 52 61
110 505 176 43 51 60
108 504 180 43 51 59
108 504 181 42 51 60
108 505 180 42 50 58
108 505 181 42 50 58
108 506 180 42 50 58
108 507 180 43 51 60
109 508 176 45 53 62
109 508 177 45 53 61
109 509 176 47 55 63
109 509 177 45 54 63
108 508 178 45 53 62
108 508 179 44 53 62
108 509 178 45 54 63
108 509 179 44 53 63
109 509 178 45 54 63
109 510 176 45 54 63
109 510 177 45 54 63
109 511 177 46 54 63
108 510 178 45 54 63
108 510 179 46 54 64
108 511 179 46 55 64
109 510 178 45 54 63
109 511 178 46 54 63
109 511 179 46 54 63
110 508 176 46 54 63
110 509 176 47 55 64
110 510 176 46 55 64
110 511 176 45 54 63
110 511 177 45 53 62
108 508 180 45 53 61
108 509 180 46 54 63
108 510 180 46 55 64
108 510 181 46 54 64
108 511 180 45 55 64
108 511 181 45 53 63
108 511 182 44 53 62
105 504 185 42 50 58
105 504 186 42 50 58
105 504 187 42 50 58
105 505 186 42 50 58
105 505 187 43 50 59
105 506 186 43 51 59
105 506 187 43 51 60
105 507 186 44 52 61
105 507 187 45 53 62
106 504 184 42 50 58
106 504 185 42 50 58
106 505 184 43 50 58
106 505 185 42 50 58
106 506 184 43 51 59
106 506 185 43 51 59
106 507 184 45 52 61
106 507 185 45 53 62
106 506 186 43 51 60
106 507 186 44 53 62
104 504 189 42 50 58
105 504 188 42 49 58
105 504 189 42 50 58
105 505 188 43 50 59
105 505 189 43 51 60
104 504 190 42 50 59
104 504 191 44 52 60
104 505 190 43 51 60
104 505 191 44 53 61
105 505 190 44 52 60
105 505 191 44 53 62
105 506 188 44 52 60
105 506 189 44 52 61
105 507 188 44 53 62
105 507 189 44 53 62
105 506 190 43 52 61
105 506 191 45 53 63
105 507 190 44 53 62
105 507 191 45 55 64
105 508 187 45 54 63
106 508 184 45 54 63
106 508 185 45 53 63
106 509 184 45 54 64
106 509 185 45 54 64
106 508 186 45 54 63
106 508 187 45 54 63
106 509 186 45 55 65
106 509 187 45 54 64
106 510 184 44 54 64
106 510 185 44 54 64
107 510 184 44 53 63
107 511 184 44 53 63
107 511 185 43 53 63
106 510 186 43 53 64
106 510 187 43 53 63
106 511 186 43 53 63
106 511 187 43 53 63
107 511 186 43 53 62
105 508 188 45 54 63
105 508 189 44 53 63
105 509 189 44 53 63
105 508 190 44 54 63
105 508 191 46 56 66
105 509 190 45 55 64
105 509 191 45 55 65
105 510 191 46 55 66
105 511 191 46 55 66
106 508 188 44 53 63
106 509 188 44 53 63
106 509 189 44 54 63
106 509 190 45 54 64
106 510 188 43 53 63
106 510 189 44 53 63
106 511 188 43 53 62
106 511 189 44 53 63
106 510 190 45 54 64
106 511 190 45 54 65
106 511 191 46 55 65
112 501 171 51 60 70
112 502 170 53 62 71
112 502 171 50 59 68
112 503 170 54 61 71
112 503 171 50 58 68
113 507 167 51 58 66
113 508 166 49 56 64
113 508 167 52 59 67
113 509 166 50 57 65
113 509 167 52 60 68
113 510 166 52 59 68
113 510 167 55 62 71
113 511 167 56 63 72
114 509 166 48 55 64
114 510 165 47 55 64
114 511 165 47 56 66
114 510 166 48 56 65
114 511 166 51 59 68
112 504 169 59 66 75
112 505 169 53 61 71
113 504 169 61 68 77
113 505 169 56 63 73
112 504 170 51 59 68
112 504 171 47 55 64
112 505 170 47 56 65
112 505 171 45 54 63
112 506 169 52 60 70
112 507 169 53 60 70
113 506 168 54 62 70
113 506 169 55 62 71
113 507 168 55 63 72
112 506 170 46 55 65
112 507 170 46 55 64
112 508 169 54 61 71
112 509 169 53 61 70
113 508 168 56 63 72
113 509 168 55 63 72
112 508 170 47 55 64
112 508 171 46 54 62
112 509 170 47 55 64
112 509 171 47 54 63
112 510 169 53 60 69
112 511 169 51 59 68
113 510 168 56 63 73
113 510 169 56 63 72
113 511 168 56 64 74
113 511 169 54 61 70
112 510 170 48 55 64
112 510 171 45 53 62
112 511 170 47 55 64
112 511 171 45 53 61
112 510 172 44 52 61
112 511 172 44 53 61
112 511 173 44 53 62
101 491 192 44 53 63
101 491 193 44 54 64
101 491 194 45 55 65
101 491 195 46 56 66
102 491 192 43 53 63
101 491 196 47 57 67
101 491 197 48 58 68
101 492 193 45 55 65
101 492 194 46 56 66
101 492 195 46 56 67
102 492 192 44 53 63
102 492 193 45 54 65
102 493 192 44 54 64
102 493 193 46 55 66
102 492 194 46 56 66
102 493 194 47 57 67
102 493 195 47 58 69
102 494 192 45 55 65
102 494 193 46 56 67
102 495 192 45 56 66
102 495 193 46 56 67
103 495 192 45 55 66
102 494 194 47 57 67
102 494 195 48 58 69
102 495 194 47 57 68
102 495 195 49 59 70
101 492 196 48 58 69
101 492 197 49 60 70
101 492 198 50 60 71
101 492 199 51 60 71
102 493 196 48 59 70
102 493 197 50 60 71
102 492 199 52 61 71
102 493 198 50 61 72
102 493 199 52 61 72
102 494 196 49 60 71
102 494 197 50 61 72
102 495 196 50 61 72
102 495 197 50 61 72
102 494 198 51 62 73
102 494 199 52 62 72
102 495 198 51 61 73
102 495 199 52 62 73
101 492 200 54 62 72
101 492 201 55 63 73
101 492 202 53 61 71
101 492 203 50 59 69
102 492 201 55 63 73
102 493 200 54 62 72
102 493 201 54 62 72
102 493 202 53 61 71
102 493 203 51 60 70
102 494 200 54 63 73
102 494 201 55 63 72
102 495 200 55 63 72
102 495 201 57 64 73
102 494 202 53 61 71
102 494 203 51 61 72
102 495 202 54 62 72
102 495 203 51 61 72
103 495 202 54 63 73
103 495 203 51 61 72
102 493 204 51 61 72
102 493 205 51 62 73
102 493 206 50 61 73
102 493 207 50 61 72
102 494 204 50 61 72
102 494 205 50 61 73
102 495 204 50 61 73
103 494 205 49 61 73
103 495 204 50 61 73
103 495 205 49 61 73
102 494 206 48 60 72
103 494 206 47 60 72
103 494 207 47 59 71
103 495 206 48 60 72
103 495 207 48 59 71
103 494 208 48 59 70
103 494 209 48 58 69
103 495 208 48 58 69
103 495 209 48 59 69
103 494 210 47 57 68
103 494 211 47 57 68
104 494 209 47 58 68
104 495 209 48 58 69
104 494 210 47 57 68
104 495 210 46 57 68
104 495 211 47 56 67
104 495 212 46 55 66
104 495 213 46 55 66
104 495 214 45 55 65
105 495 214 46 55 66
103 496 192 45 55 66
103 496 193 46 56 67
103 497 192 45 55 65
103 497 193 46 56 67
102 496 195 49 59 70
103 496 194 47 57 68
103 496 195 49 59 70
103 497 194 47 57 68
103 497 195 49 59 70
103 498 192 45 54 65
103 498 193 45 55 66
103 498 194 46 55 65
103 498 195 46 56 66
103 499 194 44 53 63
103 499 195 44 53 63
102 496 196 51 61 72
102 496 197 51 61 72
103 496 196 50 60 71
103 496 197 50 61 72
103 497 196 49 59 70
103 497 197 50 60 70
102 496 198 50 61 72
103 496 198 50 60 72
103 496 199 52 62 72
103 497 198 49 59 69
103 497 199 51 59 69
103 498 196 47 56 66
103 498 197 48 56 66
103 499 196 45 54 63
103 499 197 47 55 63
103 498 198 48 55 65
103 498 199 49 56 65
103 499 198 46 53 62
103 499 199 47 54 62
103 500 197 45 53 62
103 500 198 46 53 61
103 496 200 55 63 72
103 496 201 56 63 72
103 497 200 54 61 70
103 497 201 53 61 69
103 496 202 54 63 73
103 496 203 51 62 73
103 497 202 52 60 70
103 497 203 50 61 71
103 498 200 50 57 66
103 498 201 52 59 68
103 499 200 49 56 64
103 499 201 51 58 67
103 498 202 50 58 68
103 498 203 50 59 69
103 499 202 49 57 66
103 496 204 50 61 73
103 496 205 49 61 73
103 497 204 49 60 72
103 497 205 49 60 72
103 496 206 49 60 72
103 496 207 48 59 70
103 497 206 49 59 71
103 497 207 48 59 70
103 498 204 50 60 71
103 498 205 49 60 72
103 498 206 49 59 70
104 498 192 45 54 64
104 498 193 45 55 65
104 499 192 44 53 63
104 499 193 44 53 63
104 499 194 43 52 62
104 499 195 44 53 62
104 499 196 45 53 63
104 500 192 43 52 61
104 500 193 42 51 61
104 501 192 42 50 59
104 501 193 42 50 59
104 500 194 42 51 60
104 500 195 44 52 61
104 501 194 43 51 60
104 501 195 45 52 61
104 502 192 42 50 59
104 502 193 43 52 60
104 503 192 44 52 60
104 503 193 45 53 62
104 502 194 44 52 61
104 502 195 45 53 61
104 503 194 45 54 62
104 503 195 46 54 64
104 500 196 45 53 62
104 500 197 45 53 61
104 501 196 45 53 62
104 501 197 45 52 61
104 500 198 46 53 61
104 500 199 46 53 61
104 501 198 45 52 60
104 501 199 47 54 62
104 502 196 45 54 62
104 502 197 45 53 61
104 503 196 46 55 64
104 503 197 47 54 64
104 502 198 46 54 62
104 502 199 49 56 64
104 503 198 49 56 65
104 503 199 51 58 67
104 499 201 50 58 66
104 498 203 49 58 69
104 499 202 48 57 66
104 499 203 48 57 67
104 497 207 48 58 69
104 498 204 49 59 70
104 498 205 49 59 70
104 499 204 47 58 68
104 499 205 47 58 69
104 498 206 48 59 70
104 498 207 48 58 69
104 499 206 47 58 69
104 499 207 47 58 68
104 500 200 47 55 63
104 500 201 48 56 65
104 501 200 48 55 64
104 501 201 47 55 65
104 500 202 46 55 65
104 500 203 46 56 67
104 501 202 45 55 65
104 501 203 47 57 67
104 502 200 49 57 65
104 502 201 48 56 66
104 503 200 51 59 68
104 503 201 50 58 67
104 502 202 47 56 66
104 502 203 49 58 69
104 503 202 49 59 69
104 503 203 50 60 71
104 500 204 47 57 68
104 500 205 48 58 69
104 501 204 48 58 69
104 501 205 49 59 69
104 500 206 48 58 69
104 500 207 47 58 69
104 501 206 49 59 70
104 501 207 48 58 70
105 501 207 48 58 69
104 502 204 50 59 70
104 502 205 50 59 70
104 503 204 50 60 70
104 503 205 50 60 70
105 503 205 49 59 70
104 502 206 50 59 70
105 502 206 49 59 70
105 502 207 48 59 70
105 503 206 49 59 70
105 503 207 48 58 70
104 504 192 45 53 62
104 504 193 46 55 64
104 505 192 46 54 64
104 505 193 47 56 65
105 505 192 45 54 64
104 504 194 46 55 65
104 504 195 48 56 66
104 505 194 47 56 66
104 505 195 47 57 67
105 505 195 49 58 68
105 506 192 46 56 66
105 506 193 47 57 67
105 507 192 46 56 66
105 507 193 47 57 68
104 506 194 48 57 68
105 506 194 48 58 68
105 506 195 49 58 68
105 507 194 48 58 68
105 507 195 49 58 68
104 504 196 48 57 66
104 504 197 48 57 66
104 505 196 49 58 67
104 505 197 51 59 68
105 505 196 50 59 69
105 505 197 51 60 69
104 504 198 52 59 68
104 504 199 54 61 70
104 505 198 53 61 70
105 505 198 54 61 71
105 505 199 55 63 72
105 506 196 50 59 69
105 506 197 53 61 71
105 507 196 49 58 68
105 507 197 52 60 70
105 506 198 55 62 72
105 506 199 56 63 73
105 507 198 54 62 72
105 507 199 55 63 73
105 508 192 47 56 67
105 508 193 47 57 68
105 509 192 47 56 66
105 509 193 47 57 67
105 508 194 48 58 68
105 508 195 48 58 68
105 509 194 47 57 67
105 509 195 47 57 67
105 510 192 47 56 66
105 510 193 46 56 67
105 511 192 46 55 66
105 511 193 45 56 66
105 510 194 46 56 67
105 510 195 48 57 67
105 511 194 46 56 67
106 511 192 46 56 66
106 511 193 47 56 66
106 510 195 48 57 66
106 511 194 47 56 66
106 511 195 47 56 66
105 508 196 50 58 68
105 508 197 52 60 70
105 509 196 49 58 67
105 509 197 51 59 68
105 508 198 55 63 72
105 508 199 56 64 74
105 509 198 53 61 70
106 509 197 52 60 69
106 508 199 56 63 73
106 509 198 54 61 70
106 509 199 56 63 72
106 510 196 50 58 67
106 510 197 53 60 68
106 511 196 49 57 66
106 511 197 54 60 68
106 510 198 55 61 70
106 510 199 60 65 74
106 511 198 58 63 70
106 511 199 65 69 76
104 504 200 52 60 69
104 504 201 50 59 68
105 504 201 49 59 69
105 505 200 54 63 72
105 505 201 52 61 72
104 504 202 50 60 70
104 504 203 50 60 71
105 504 202 49 59 70
105 504 203 49 60 71
105 505 202 51 61 72
105 505 203 50 60 72
105 506 200 54 63 73
105 506 201 53 62 73
105 507 200 53 62 72
105 507 201 53 62 73
105 506 202 51 62 73
105 506 203 50 61 72
105 507 202 51 62 73
105 507 203 49 60 72
106 507 201 53 62 73
106 507 202 52 62 73
106 507 203 50 60 72
105 504 204 50 60 71
105 504 205 49 59 70
105 505 204 48 59 71
105 505 205 47 58 69
105 504 206 48 58 69
105 504 207 48 58 69
105 505 206 46 57 68
105 505 207 45 56 68
105 506 204 47 59 70
105 506 205 46 57 69
105 506 206 46 57 68
106 505 207 44 56 67
106 506 205 45 56 68
106 507 204 47 58 70
106 507 205 45 56 67
106 506 206 45 56 68
106 506 207 44 55 67
106 507 206 45 56 68
106 507 207 44 56 67
106 508 200 54 63 73
106 508 201 54 63 73
106 509 200 59 65 74
106 509 201 63 69 78
106 508 202 53 62 73
106 508 203 51 61 72
106 509 202 66 72 80
106 509 203 65 71 79
106 510 200 67 71 79
106 510 201 75 78 85
106 511 200 73 77 83
107 511 200 79 81 87
107 511 201 84 86 91
106 510 202 75 78 85
106 510 203 73 77 84
107 510 202 76 79 85
107 510 203 78 81 87
107 511 202 86 87 93
107 511 203 88 90 96
106 508 204 50 59 70
106 508 205 49 59 69
106 509 204 63 69 77
106 509 205 58 65 74
106 508 206 48 58 69
106 508 207 46 57 68
106 509 206 51 60 70
106 509 207 48 59 69
107 509 206 56 64 73
107 509 207 53 60 70
107 510 204 75 78 85
107 510 205 70 74 81
107 511 204 83 86 92
107 511 205 75 78 85
107 510 206 63 68 76
107 510 207 61 66 74
107 511 206 65 70 77
107 511 207 59 64 72
103 496 208 48 58 69
104 496 208 48 58 69
104 496 209 47 58 69
104 497 208 47 58 69
104 497 209 47 57 68
104 496 210 47 57 68
104 496 211 46 56 67
104 497 210 46 56 67
104 497 211 46 56 67
104 498 208 47 57 68
104 498 209 46 57 68
104 499 208 46 57 68
104 499 209 45 57 68
104 498 210 45 57 68
104 498 211 46 57 68
104 499 210 46 57 69
105 498 210 46 57 69
105 498 211 46 58 69
105 499 210 46 58 69
105 499 211 48 59 71
104 496 212 46 56 66
104 496 213 46 55 66
104 497 212 46 56 67
105 496 213 45 55 66
105 497 212 46 56 67
105 497 213 45 56 67
105 496 214 45 55 66
105 496 215 45 55 66
105 497 214 45 56 67
105 497 215 46 57 69
105 498 212 47 58 69
105 498 213 48 59 72
105 499 212 50 61 72
105 499 213 51 62 74
105 498 214 48 59 72
106 497 215 49 61 73
106 498 214 50 61 74
106 498 215 51 63 75
106 499 214 52 63 75
106 499 215 54 65 78
104 500 208 46 57 68
104 500 209 46 57 69
104 501 208 46 57 69
105 500 209 47 58 69
105 501 208 47 58 69
105 501 209 47 59 70
105 500 210 48 59 71
105 500 211 50 62 73
105 501 210 49 61 72
105 501 211 51 62 73
105 502 208 48 58 69
105 502 209 48 59 70
105 503 208 47 58 69
105 503 209 46 58 69
105 502 210 48 59 71
105 502 211 48 59 71
105 503 210 46 57 69
105 503 211 46 58 69
106 503 210 46 57 69
106 503 211 46 58 70
105 500 212 51 62 74
105 500 213 51 62 74
105 501 212 51 62 74
105 502 212 49 60 72
106 500 213 51 63 75
106 501 212 51 62 74
106 501 213 50 61 73
106 500 214 51 63 75
106 500 215 52 64 76
106 501 214 50 61 73
106 501 215 50 62 74
106 502 212 47 59 71
106 502 213 47 59 71
106 503 212 46 58 70
106 503 213 46 58 71
106 502 214 48 60 72
106 502 215 49 61 72
106 503 214 48 60 72
106 503 215 49 60 72
107 502 215 49 60 72
107 503 215 48 60 72
105 496 216 45 56 67
106 496 216 45 57 68
106 496 217 47 58 69
106 497 216 50 61 73
106 497 217 53 63 75
107 497 217 55 66 78
106 496 218 47 58 69
107 497 218 54 66 78
107 497 219 55 66 78
106 498 216 54 65 77
106 499 216 55 66 79
107 498 217 56 67 79
107 499 216 54 66 78
107 499 217 55 66 79
107 498 218 55 67 79
107 499 218 53 65 77
106 500 216 53 64 77
107 500 216 52 64 76
107 500 217 52 64 76
107 501 216 49 61 73
107 501 217 48 60 72
107 500 218 49 62 75
107 502 216 49 61 73
107 502 217 49 60 72
107 503 216 49 61 73
108 497 219 54 66 79
108 498 219 54 66 79
108 499 218 52 64 77
108 499 219 51 64 76
108 497 220 54 66 79
108 497 221 54 66 79
108 498 220 53 66 79
109 498 220 54 66 79
109 498 221 53 65 78
109 499 220 50 62 75
109 499 221 50 63 75
109 498 222 52 65 78
110 498 222 51 64 76
110 498 223 51 63 76
110 499 222 50 61 73
110 499 223 49 61 73
111 499 223 49 61 73
108 501 217 48 60 72
108 500 218 48 61 74
108 500 219 48 61 73
108 501 218 47 59 71
108 501 219 47 59 71
109 500 219 47 59 72
109 501 219 46 58 71
108 502 217 49 60 73
108 503 217 49 61 73
108 502 218 49 61 72
108 502 219 48 59 71
108 503 218 49 61 73
109 502 219 48 59 72
109 503 219 48 60 72
109 500 220 48 60 73
109 500 221 49 60 73
109 501 220 47 58 71
109 501 221 48 59 71
109 502 220 47 58 70
109 503 220 47 59 71
110 500 221 49 60 73
110 501 221 47 58 70
110 500 222 49 60 72
110 500 223 48 59 71
110 501 222 47 58 70
110 501 223 46 57 69
111 500 223 47 59 70
111 501 223 45 57 68
110 502 221 46 58 70
110 503 220 47 59 71
110 503 221 48 59 71
110 502 222 47 58 70
110 503 222 49 61 73
111 502 223 46 58 70
111 503 223 49 61 73
105 504 208 46 57 68
105 504 209 46 57 69
105 505 208 45 56 68
106 504 209 45 57 68
106 505 208 44 55 67
106 505 209 45 56 68
106 504 210 46 57 69
106 504 211 47 59 71
106 505 210 47 58 69
106 505 211 49 60 72
106 506 208 43 55 66
106 506 209 44 56 67
106 507 208 43 55 67
106 507 209 45 57 68
106 506 210 46 58 69
106 506 211 48 60 72
106 507 210 45 57 69
107 506 211 47 59 71
107 507 210 47 58 70
107 507 211 48 59 71
106 504 212 48 60 72
106 504 213 48 60 72
106 505 212 50 61 74
106 505 213 50 62 74
107 505 212 49 61 74
107 505 213 50 62 74
106 504 214 48 60 72
107 504 214 49 61 73
107 504 215 49 61 73
107 505 214 51 62 74
107 505 215 51 62 74
107 506 212 48 60 73
107 506 213 47 59 72
107 507 212 46 59 71
107 507 213 46 58 70
107 506 214 47 59 71
107 506 215 47 59 71
107 507 214 45 57 69
106 508 208 45 56 68
106 508 209 45 56 68
106 509 208 47 57 68
107 508 209 46 57 68
107 509 208 50 58 68
107 509 209 50 59 68
107 508 210 48 59 70
107 508 211 48 59 71
107 509 210 51 59 70
107 509 211 49 58 69
107 510 208 60 65 73
107 510 209 59 64 72
107 511 208 57 62 70
107 511 209 56 62 70
107 510 210 58 64 72
107 510 211 58 64 72
107 511 210 56 62 71
107 508 212 47 58 70
107 508 213 45 57 69
107 509 212 48 58 68
108 506 215 48 60 72
108 507 214 45 57 69
108 507 215 45 57 69
108 511 209 55 60 69
108 510 211 59 64 72
108 511 210 56 62 71
108 511 211 57 63 72
108 508 213 46 57 69
108 509 212 50 58 68
108 509 213 48 57 68
108 508 214 45 56 68
108 508 215 45 56 68
108 509 214 47 56 67
108 509 215 47 56 67
108 510 212 58 63 71
108 510 213 56 61 70
108 511 212 59 64 72
108 511 213 59 64 73
108 510 214 53 59 69
108 510 215 52 59 69
108 511 214 58 63 72
108 511 215 56 62 72
109 511 215 57 63 72
107 504 216 50 61 73
107 505 216 52 63 75
108 504 216 50 62 74
108 504 217 50 61 73
108 505 216 51 62 74
108 505 217 51 62 74
108 504 218 51 62 73
108 505 218 51 62 74
109 504 218 49 61 72
109 504 219 49 60 72
109 505 218 51 62 73
109 505 219 51 62 73
108 506 216 49 60 72
108 506 217 50 61 73
108 507 216 47 58 70
109 506 217 51 62 73
109 507 217 48 59 71
109 506 218 50 61 72
109 506 219 50 61 72
109 507 218 48 59 70
109 507 219 49 59 70
110 507 219 49 59 71
109 504 220 48 60 72
109 505 220 49 61 73
110 504 220 49 61 73
110 504 221 49 61 73
110 505 220 50 62 74
110 505 221 51 62 75
110 504 222 51 63 75
110 505 222 52 63 76
111 504 223 51 63 76
111 505 222 52 64 76
111 505 223 52 64 77
110 506 220 49 60 72
110 506 221 50 61 74
110 507 220 49 60 71
110 507 221 49 61 72
110 506 222 51 62 74
110 507 222 51 61 73
111 506 222 51 62 75
111 506 223 50 62 75
111 507 222 50 61 72
111 507 223 49 61 72
108 508 216 46 57 69
108 509 216 48 58 69
109 508 217 48 58 69
109 509 216 49 58 69
109 509 217 49 58 68
109 508 218 49 59 70
109 508 219 49 59 70
109 509 218 49 58 68
109 509 219 49 58 68
109 510 216 51 59 69
109 510 217 50 58 67
109 511 216 55 61 71
109 511 217 54 60 70
109 510 218 52 59 68
109 510 219 51 59 68
109 511 218 53 60 69
109 511 219 53 59 68
110 508 219 49 60 70
109 510 220 51 59 68
109 511 220 51 58 67
110 508 220 48 59 70
110 508 221 47 59 70
110 509 220 48 58 68
110 509 221 47 57 68
110 508 222 47 58 69
110 509 222 47 56 68
110 509 223 47 56 67
111 508 222 48 59 70
111 508 223 47 58 69
111 509 223 46 56 67
110 510 220 50 58 68
110 510 221 50 58 67
110 511 220 52 59 67
110 511 221 51 58 66
110 510 222 49 57 67
110 510 223 48 54 65
110 511 222 48 55 65
110 511 223 46 52 62
110 498 224 51 64 77
111 499 224 48 59 71
111 499 225 48 59 71
111 500 224 45 57 69
111 500 225 45 57 69
111 501 224 45 57 68
111 502 224 47 58 70
111 503 224 50 62 74
111 504 224 52 64 76
111 505 224 52 64 76
111 506 224 51 63 75
111 507 224 49 60 72
111 507 225 48 59 70
111 508 224 47 57 68
111 508 225 45 55 66
111 509 224 46 54 64
111 509 225 44 53 63
111 509 226 46 54 63
110 511 224 48 53 61
111 510 224 47 52 61
111 510 225 47 53 62
111 511 224 50 53 62
111 511 225 53 57 64
111 510 226 54 59 67
111 511 226 65 69 76
112 499 225 48 59 71
112 499 226 46 58 70
112 499 227 46 58 70
112 500 225 45 57 68
112 501 225 45 57 68
112 500 226 45 57 68
112 500 227 44 56 68
112 501 226 44 56 68
113 500 227 45 57 68
113 501 227 45 57 68
112 502 224 48 59 71
112 502 225 46 58 70
112 503 224 50 62 74
112 503 225 50 62 74
112 502 226 47 59 71
112 503 226 50 62 75
113 502 227 47 59 71
113 503 227 50 62 74
113 500 228 46 56 68
113 501 228 45 56 68
113 502 228 47 58 70
113 503 228 49 61 73
114 500 228 45 56 68
114 500 229 44 56 67
114 501 228 45 56 68
114 501 229 44 56 67
114 500 230 44 55 67
114 501 230 44 55 67
115 501 230 44 56 68
115 501 231 45 57 68
114 502 228 47 58 70
114 502 229 46 58 70
114 503 228 48 60 71
114 503 229 47 59 71
114 502 230 46 57 70
114 503 230 47 58 71
115 502 230 44 57 69
115 502 231 46 58 70
115 503 231 50 61 73
115 501 232 47 57 68
115 502 232 51 61 73
115 503 232 58 67 78
116 501 232 47 57 68
116 501 233 51 60 71
116 502 233 60 68 79
116 503 233 67 75 86
117 502 234 73 79 89
117 503 234 84 90 100
118 502 235 90 94 102
118 503 235 103 107 116
118 503 236 113 117 126
119 503 236 120 124 134
112 504 224 51 63 76
112 504 225 52 64 76
112 505 224 51 63 76
112 505 225 51 63 76
112 504 226 52 64 76
112 505 226 51 63 76
112 505 227 50 62 74
113 504 227 51 63 76
113 505 227 50 61 74
112 506 225 49 61 73
112 507 225 47 58 70
112 506 226 49 61 73
112 506 227 48 59 71
112 507 226 46 57 68
112 507 227 46 56 66
113 506 227 46 57 69
113 507 227 45 55 66
113 504 228 50 62 74
113 505 228 48 60 72
113 505 229 47 59 71
113 506 228 46 57 68
113 506 229 48 58 69
113 507 228 47 56 66
113 507 229 54 62 72
114 504 229 48 59 72
114 505 229 48 58 70
114 504 230 50 61 72
114 505 230 52 61 73
114 505 231 63 70 81
115 504 231 55 65 76
115 505 231 63 71 82
114 506 229 49 59 70
114 506 230 61 67 78
114 506 231 73 79 88
114 507 230 71 75 85
114 507 231 87 91 100
115 506 231 79 85 94
115 507 231 92 97 105
112 508 225 46 56 67
112 508 226 44 53 64
112 508 227 46 55 65
112 509 226 46 54 64
112 509 227 55 62 71
112 510 226 52 58 67
112 510 227 68 73 81
112 511 227 78 82 90
112 509 228 69 74 83
113 508 228 55 62 71
113 508 229 66 71 81
113 509 228 69 74 82
113 509 229 81 85 93
113 508 230 75 79 88
113 509 230 91 95 104
112 510 228 77 82 91
112 511 228 88 92 99
113 510 228 83 87 95
113 510 229 95 99 107
113 511 228 93 96 103
113 511 229 102 106 114
113 510 230 101 105 113
113 511 230 107 112 121
114 508 230 87 90 98
114 508 231 102 105 113
114 509 230 101 104 112
114 509 231 111 115 124
115 508 231 106 110 118
115 509 231 115 119 128
114 510 230 110 114 124
114 510 231 115 119 130
114 511 230 113 118 128
114 511 231 115 121 133
115 510 231 120 125 136
115 511 231 118 125 137
115 504 232 65 73 84
115 505 232 78 84 94
115 506 232 87 93 102
115 507 232 100 105 114
115 508 232 108 113 123
115 509 232 115 120 131
115 510 232 120 126 137
115 511 232 117 124 135
116 504 233 77 84 95
116 505 233 87 93 102
117 504 234 96 101 111
117 505 234 102 108 117
116 506 233 98 103 113
116 507 233 104 109 120
117 507 233 102 108 119
117 506 234 103 109 119
117 507 234 102 108 119
118 504 235 107 112 122
118 505 234 106 112 123
118 505 235 109 114 125
119 505 235 112 119 130
118 506 234 106 113 124
118 506 235 111 117 129
118 507 234 104 111 122
118 507 235 111 118 130
119 506 235 112 119 131
119 507 235 117 124 136
119 504 236 120 124 135
119 505 236 115 122 133
119 506 236 115 122 134
119 507 236 121 127 140
116 508 232 108 114 125
116 508 233 105 111 123
116 509 232 113 119 130
116 509 233 109 115 127
117 508 233 104 111 122
117 509 233 103 110 122
117 508 234 102 109 120
117 509 234 101 108 120
116 510 232 117 123 134
116 510 233 109 116 127
116 511 232 115 121 133
116 511 233 109 116 127
117 510 233 105 112 124
117 511 233 103 110 121
117 510 234 100 107 118
117 511 234 99 105 116
118 508 234 103 110 122
118 508 235 112 119 131
118 509 234 101 108 119
118 509 235 107 114 126
119 508 235 119 127 139
119 509 235 111 118 130
118 510 234 100 107 117
118 510 235 100 107 118
118 511 234 98 104 115
118 511 235 98 104 115
119 510 235 100 107 119
119 511 235 98 105 116
119 508 236 122 130 142
119 509 236 112 120 132
119 510 236 102 110 122
119 511 236 100 107 117
120 503 237 121 128 139
121 503 237 113 120 131
121 503 238 111 118 129
120 504 237 117 123 135
120 505 236 113 119 131
120 505 237 110 117 128
121 504 237 110 117 128
121 505 237 106 113 125
121 504 238 108 114 125
121 505 238 105 112 124
120 506 236 114 121 132
120 506 237 109 116 127
120 507 236 117 124 136
120 507 237 111 117 129
121 506 237 106 113 124
121 507 237 106 113 124
121 506 238 104 111 122
121 507 238 102 110 121
122 504 238 105 112 123
122 504 239 103 110 121
122 505 238 105 111 122
122 505 239 103 109 119
123 504 239 101 108 119
123 505 239 101 107 117
122 506 238 102 108 119
122 506 239 101 107 118
122 507 238 99 106 118
122 507 239 101 107 118
123 506 239 100 106 117
123 507 239 103 110 122
120 508 236 118 125 138
120 508 237 114 122 134
120 509 236 112 120 132
120 509 237 110 117 129
121 508 237 105 112 124
121 509 237 106 112 124
121 508 238 101 109 120
121 509 238 101 108 119
120 510 236 104 111 123
120 510 237 104 111 122
120 511 236 101 107 118
120 511 237 100 106 117
121 510 237 104 110 121
121 511 237 100 106 117
121 510 238 100 106 117
121 511 238 98 105 115
122 508 238 99 106 117
122 508 239 103 110 121
122 509 238 100 107 118
122 509 239 107 113 124
123 508 239 109 115 126
123 509 239 117 123 134
122 510 238 99 106 117
122 510 239 104 110 121
122 511 238 98 105 116
122 511 239 104 110 120
123 510 239 116 121 132
123 511 239 115 121 131
123 505 240 100 106 116
123 506 240 101 108 119
123 507 240 107 114 126
123 508 240 115 121 132
123 509 240 126 132 143
123 510 240 120 126 137
123 511 240 118 125 137
124 505 240 100 106 116
124 505 241 99 105 115
125 505 241 100 106 117
124 506 240 101 109 120
124 506 241 100 107 118
124 507 240 110 117 129
124 507 241 107 114 125
125 506 241 100 107 118
125 507 241 104 112 123
126 505 242 99 105 115
126 506 242 98 104 114
126 507 242 100 107 119
127 506 243 98 104 114
127 507 243 100 106 117
124 508 240 122 128 140
124 508 241 120 128 140
124 509 240 132 138 150
124 509 241 128 135 149
125 508 241 115 123 136
125 509 241 122 131 145
124 510 240 125 132 143
124 510 241 126 134 147
124 511 240 125 131 143
124 511 241 123 130 143
125 510 241 126 135 148
125 511 241 125 133 146
126 508 242 109 118 131
126 509 242 122 130 143
127 508 243 103 112 124
127 509 242 119 127 139
127 509 243 115 123 135
126 510 242 126 134 147
126 511 242 121 130 143
127 510 243 125 132 145
127 511 243 125 132 145
128 506 243 103 109 119
128 507 243 101 108 119
128 506 244 107 113 125
128 507 244 102 109 120
129 507 244 102 109 121
129 507 245 103 110 122
130 507 245 104 111 123
131 507 246 101 108 120
128 508 243 105 112 123
128 509 243 114 121 133
128 510 243 124 132 144
128 511 243 120 127 139
128 508 244 101 108 119
128 509 244 106 113 124
129 508 244 99 106 118
129 508 245 98 105 116
129 509 244 105 112 123
129 509 245 101 107 117
128 510 244 114 122 133
128 511 244 108 116 128
129 510 244 108 115 126
129 510 245 102 108 119
129 511 244 100 108 119
129 511 245 98 105 115
130 508 245 98 105 115
130 509 245 99 105 116
131 508 246 99 106 117
131 509 246 99 106 116
130 510 245 100 106 116
130 511 245 99 105 115
131 510 246 99 105 116
131 511 246 98 104 115
132 508 246 100 108 119
132 508 247 103 110 122
132 509 246 100 106 117
132 509 247 103 110 122
133 508 247 107 115 127
133 509 247 114 121 133
132 510 246 100 106 117
132 510 247 102 109 121
132 511 246 99 105 117
132 511 247 102 109 121
133 510 247 115 123 135
133 511 247 114 121 134
134 508 247 109 117 130
134 509 247 122 130 143
134 510 247 132 140 154
134 511 247 135 143 158
134 508 248 112 121 134
134 509 248 128 136 150
135 509 248 133 142 157
135 510 248 137 147 162
135 511 248 140 150 166
136 509 248 132 143 159
137 509 248 118 130 147
136 510 248 142 153 170
136 511 248 146 156 173
137 510 248 137 149 166
137 511 248 140 150 166
138 509 248 111 122 137
138 510 248 120 131 147
138 511 248 122 132 147
139 510 248 113 123 136
139 511 248 117 126 140
140 510 248 109 118 131
140 511 248 110 119 132
141 510 248 107 115 128
141 511 248 106 115 128
142 510 248 107 116 129
142 511 248 106 115 128
143 511 248 107 115 128
144 511 248 109 117 129
145 511 248 111 118 130
146 511 248 109 117 129
95 543 187 70 76 84
93 542 191 64 67 73
93 543 190 69 74 82
93 543 191 78 81 88
95 541 189 38 42 47
94 541 191 47 50 56
95 540 191 35 39 46
95 541 190 38 41 48
95 541 191 38 42 47
94 542 189 43 48 55
94 543 188 65 70 77
94 543 189 61 66 73
95 542 188 44 48 55
95 542 189 39 44 50
95 543 188 54 59 66
95 543 189 44 48 54
94 542 190 41 46 52
94 542 191 48 52 57
94 543 190 51 56 62
95 542 190 39 43 50
94 544 187 81 87 96
94 545 187 93 99 109
95 544 186 94 99 108
95 544 187 85 90 99
95 545 186 102 107 117
95 545 187 98 104 114
94 546 187 99 105 116
94 547 187 97 103 112
95 546 186 96 103 113
95 546 187 98 104 115
95 547 186 86 92 103
95 547 187 93 99 109
93 544 189 91 96 105
93 545 188 96 102 113
93 545 189 104 109 119
92 544 191 107 112 121
92 545 190 119 124 136
92 545 191 114 119 128
93 544 190 98 102 111
93 544 191 100 104 113
93 545 190 115 120 131
93 546 188 101 107 118
93 546 189 107 113 124
93 547 188 100 107 118
93 547 189 105 112 124
92 546 190 120 126 138
92 546 191 118 122 134
92 547 190 114 120 132
92 547 191 119 123 133
94 544 188 78 84 92
94 544 189 79 84 92
94 545 188 90 97 107
94 546 188 100 106 117
94 547 188 99 105 116
94 548 187 94 100 110
94 549 187 87 94 105
95 548 186 83 91 102
95 548 187 87 94 104
95 549 186 92 99 110
95 549 187 94 101 111
95 550 187 106 112 123
95 551 187 115 121 132
93 548 188 98 103 114
93 548 189 99 106 117
93 549 188 96 102 113
93 549 189 98 105 117
92 548 190 103 108 119
92 548 191 109 111 122
92 549 190 100 105 116
92 549 191 112 114 124
93 548 190 95 101 114
93 549 190 99 105 117
93 550 189 101 108 120
92 550 191 112 114 123
93 550 190 103 108 119
93 550 191 108 112 121
93 551 190 98 104 115
93 551 191 107 111 121
94 548 188 96 101 111
94 549 188 88 95 106
94 550 188 91 99 110
94 550 189 92 100 111
94 551 188 102 108 119
94 551 189 104 109 120
95 551 188 107 113 124
94 551 190 100 105 116
93 552 191 109 112 121
94 552 189 97 102 113
95 552 188 90 98 109
95 552 189 91 98 109
95 553 188 84 92 103
95 553 189 88 94 104
94 552 190 97 101 111
94 552 191 103 107 115
94 553 190 98 102 112
94 553 191 103 106 116
95 553 190 100 104 114
95 554 189 99 104 114
95 555 189 107 112 121
94 554 190 103 107 117
94 554 191 100 104 114
94 555 191 99 104 115
95 554 190 102 106 115
95 555 190 104 109 118
95 555 191 101 106 117
95 556 190 114 119 129
95 556 191 115 120 130
95 557 190 122 126 137
95 557 191 128 133 143
95 558 191 131 136 146
111 530 159 84 88 96
111 531 159 91 97 106
111 532 159 91 97 107
111 533 159 92 99 110
111 534 158 94 100 110
111 534 159 97 103 114
111 535 159 98 104 113
111 536 158 94 100 110
111 536 159 98 104 114
111 537 158 89 95 105
111 537 159 93 99 109
111 538 158 89 96 106
111 538 159 91 97 107
111 539 158 88 95 106
111 539 159 89 96 107
111 540 158 91 97 108
111 540 159 93 99 108
111 541 158 97 103 113
111 541 159 100 106 116
111 542 157 103 109 119
111 543 157 106 112 123
111 542 158 105 111 122
111 542 159 103 109 120
111 543 158 112 119 131
111 543 159 108 115 127
115 524 155 46 51 57
115 525 155 50 55 61
115 527 153 79 84 92
114 526 155 57 62 69
114 527 155 69 74 81
115 526 154 58 63 70
115 526 155 55 60 67
115 527 154 73 78 85
115 527 155 65 70 77
113 527 156 65 70 77
113 527 157 57 62 68
112 527 159 42 49 56
113 526 158 45 50 56
113 526 159 42 47 53
113 527 158 48 54 60
113 527 159 43 49 55
114 525 156 48 53 59
114 525 157 47 52 58
115 524 156 45 50 56
115 524 157 43 48 54
115 525 156 47 52 58
115 525 157 46 51 56
114 525 158 45 50 56
114 525 159 43 48 54
115 524 158 42 46 52
115 524 159 41 46 52
115 525 158 44 49 55
114 526 156 53 58 64
114 526 157 49 54 60
114 527 156 59 64 71
114 527 157 52 57 64
114 526 158 45 50 56
114 526 159 43 48 54
116 523 157 42 47 52
117 523 157 41 46 51
116 523 158 39 44 50
116 523 159 40 45 50
117 522 158 42 46 51
117 522 159 42 47 52
117 523 158 40 45 51
117 523 159 40 45 51
118 520 159 48 51 56
118 521 159 46 49 54
116 524 156 43 48 54
116 524 157 41 46 51
116 524 158 41 45 51
116 524 159 41 46 51
117 531 151 88 95 104
117 532 151 81 88 98
117 533 151 78 84 93
117 534 151 79 85 93
117 535 151 81 86 94
118 533 150 80 87 95
118 533 151 79 86 95
119 535 149 82 88 96
118 534 150 80 86 94
118 534 151 79 85 93
118 535 150 81 87 94
115 528 153 84 89 98
115 529 153 85 91 100
114 528 155 84 89 97
114 529 154 88 94 103
114 529 155 90 95 104
115 528 154 85 90 98
115 529 154 85 91 100
115 530 153 83 89 98
115 531 153 82 88 97
114 530 154 82 89 98
114 530 155 85 91 100
114 531 154 83 89 98
114 531 155 84 90 99
115 530 154 81 87 96
115 531 154 81 87 97
112 529 157 83 88 97
113 528 156 78 82 90
113 528 157 66 71 78
113 529 156 88 93 102
113 529 157 81 86 94
112 528 158 57 63 70
112 528 159 47 53 61
112 529 158 73 78 86
112 529 159 61 66 74
113 528 158 54 60 67
112 530 157 88 95 103
112 531 157 89 96 106
113 530 156 88 94 103
113 530 157 89 95 104
113 531 156 87 93 103
113 531 157 89 96 106
112 530 158 88 93 102
112 530 159 84 89 96
112 531 158 88 94 104
112 531 159 88 94 104
113 534 155 83 88 97
113 535 155 87 93 101
115 532 153 80 87 96
115 533 153 77 83 92
114 532 154 84 90 99
114 532 155 85 91 100
114 533 154 79 86 94
114 533 155 81 87 96
115 532 154 81 88 97
115 533 154 79 85 94
115 534 153 81 87 96
115 535 153 87 92 101
114 534 154 81 87 96
114 534 155 83 89 97
114 535 154 90 95 104
114 535 155 89 94 103
115 534 154 82 88 97
115 535 154 87 93 102
112 532 157 86 93 103
112 533 157 86 93 102
113 532 156 86 92 102
113 532 157 86 93 103
113 533 156 83 89 99
113 533 157 84 91 101
112 532 158 86 93 103
112 533 158 87 94 103
112 534 157 85 91 101
112 535 157 85 91 100
113 534 156 83 89 98
113 534 157 84 90 100
113 535 156 84 90 98
112 534 158 89 95 105
112 535 158 89 95 105
116 528 153 83 89 97
116 529 152 90 96 105
116 529 153 86 92 101
116 530 152 92 98 108
116 530 153 87 93 102
116 531 152 85 92 101
116 531 153 82 89 98
116 532 152 79 86 96
116 532 153 79 86 96
116 533 152 77 83 93
116 533 153 77 83 92
116 534 152 79 85 93
116 534 153 80 86 94
116 535 152 82 88 96
116 535 153 85 90 99
117 536 151 80 85 93
117 537 151 79 85 93
117 538 151 80 86 94
117 539 150 78 84 92
117 539 151 78 84 93
118 537 149 80 85 93
119 536 148 84 89 98
119 536 149 81 87 95
119 537 148 81 87 95
119 537 149 81 86 94
118 536 150 81 86 94
118 537 150 80 85 93
118 538 149 80 86 94
118 539 149 79 84 93
119 538 148 80 85 93
119 538 149 80 85 93
119 539 148 79 85 93
119 539 149 79 85 93
118 538 150 80 85 93
118 539 150 79 84 92
119 542 147 86 91 100
119 543 147 85 91 100
116 540 151 77 83 92
116 541 151 79 85 93
117 540 150 78 84 93
117 540 151 77 83 92
117 541 150 80 86 94
117 541 151 77 83 92
117 542 149 84 89 98
117 543 149 86 91 100
116 542 151 86 92 100
116 543 150 89 94 103
116 543 151 90 95 103
117 542 150 85 91 99
117 543 150 87 93 101
118 540 149 80 85 94
118 541 149 81 87 96
119 540 148 81 86 94
119 540 149 80 86 94
119 541 148 83 88 96
119 541 149 82 88 96
118 540 150 78 84 93
118 542 149 83 89 97
118 543 148 84 90 98
118 543 149 85 90 99
119 542 148 84 90 98
119 543 148 84 90 99
113 536 155 89 95 103
113 537 155 90 96 106
113 538 155 88 95 104
113 539 155 87 93 102
115 536 153 89 95 104
115 537 153 88 95 104
114 536 154 94 99 108
114 536 155 92 97 106
114 537 154 94 100 110
114 537 155 93 99 108
115 536 154 92 98 107
115 537 154 92 99 108
115 538 153 89 95 105
115 539 152 82 88 97
115 539 153 86 92 101
114 538 154 92 98 108
114 538 155 92 98 107
114 539 154 88 94 103
114 539 155 88 94 103
115 538 154 92 99 108
112 536 157 86 92 100
112 537 157 86 92 101
113 536 156 86 92 100
113 537 156 87 93 102
112 536 158 89 95 105
112 537 158 87 93 103
112 538 156 86 92 102
112 538 157 86 93 103
112 539 156 87 93 102
112 539 157 88 94 104
113 538 156 86 93 102
113 539 156 87 93 102
112 538 158 88 95 105
112 539 158 88 95 105
112 541 155 88 94 103
113 540 155 87 92 101
113 541 154 85 91 100
113 541 155 86 92 101
112 542 155 91 97 106
112 543 155 92 99 109
113 542 154 85 91 100
113 542 155 87 93 102
113 543 154 86 92 101
113 543 155 89 95 104
114 540 153 84 90 99
114 541 153 84 90 98
115 540 152 81 87 96
115 540 153 83 89 98
115 541 152 81 87 96
115 541 153 83 89 97
114 540 154 86 92 101
114 541 154 85 91 100
114 542 153 84 90 99
114 543 152 85 91 100
114 543 153 84 90 99
115 542 152 86 92 100
115 543 152 88 94 102
114 542 154 84 90 99
112 540 156 88 94 103
112 540 157 89 95 105
112 541 156 90 96 106
112 541 157 93 99 109
112 542 156 95 101 112
112 542 157 100 106 116
112 543 156 97 104 114
112 543 157 103 109 120
116 536 152 83 89 98
116 536 153 86 92 101
116 537 152 82 89 98
116 537 153 85 92 101
116 538 152 83 89 98
116 539 152 79 86 94
116 540 152 79 85 93
116 541 152 79 85 94
120 538 147 83 89 98
120 539 147 81 87 96
121 538 147 84 90 99
121 539 147 82 88 97
120 537 148 83 89 98
120 538 148 81 87 95
120 539 148 81 86 95
121 541 145 84 90 98
120 540 147 81 86 95
120 541 146 86 91 100
120 541 147 83 89 97
121 540 146 81 88 96
121 541 146 83 89 98
121 542 145 86 92 100
121 543 145 83 89 98
120 542 146 87 92 101
120 542 147 86 92 100
120 543 146 85 91 99
120 543 147 85 91 100
121 542 146 86 92 101
122 542 145 85 91 99
122 543 144 82 89 98
122 543 145 83 89 98
120 540 148 81 87 95
111 512 173 45 53 62
111 512 174 46 54 63
111 512 175 46 54 63
111 513 175 44 52 61
111 514 175 43 52 61
109 512 177 46 54 63
109 512 178 46 54 63
109 512 179 45 53 62
110 512 176 45 54 63
110 512 177 46 54 63
110 513 177 44 52 61
111 512 176 45 53 62
111 513 176 44 52 61
111 513 177 43 51 59
110 512 178 45 53 62
110 512 179 44 52 61
110 513 178 43 51 60
110 513 179 42 51 59
111 514 176 42 51 59
111 514 177 42 50 59
111 515 176 42 50 59
111 515 177 41 49 57
110 514 178 42 50 59
110 514 179 42 50 59
110 515 179 43 50 59
111 514 178 42 50 58
111 515 178 42 50 58
111 515 179 43 51 59
108 512 180 43 52 62
108 512 181 43 51 61
108 513 181 41 50 59
109 512 180 43 52 61
109 512 181 42 50 60
109 513 180 42 51 60
109 513 181 42 50 59
108 512 182 43 51 60
108 512 183 43 52 61
108 513 182 41 50 59
108 513 183 41 50 59
109 514 181 41 49 59
109 515 181 42 50 59
108 514 182 41 49 58
108 514 183 41 50 58
109 514 182 41 49 58
109 515 182 41 49 58
109 515 183 41 50 59
110 514 180 43 51 59
110 514 181 42 50 58
110 515 180 43 51 59
110 515 181 42 50 59
110 515 183 42 50 59
111 516 177 42 50 58
111 516 178 43 50 59
111 516 179 44 51 59
111 517 179 43 51 60
109 516 182 41 50 59
109 516 183 41 50 59
109 517 183 42 50 59
110 516 181 42 50 59
111 516 180 42 51 59
111 516 181 41 49 58
111 517 180 42 50 59
111 517 181 41 50 58
110 516 182 41 49 58
110 517 182 42 50 59
110 517 183 42 50 59
111 517 182 42 50 59
111 518 180 41 50 58
111 518 181 41 49 58
111 519 181 41 49 57
110 518 182 42 50 58
110 518 183 42 50 59
110 519 183 42 50 59
111 518 182 42 49 58
111 519 182 40 48 57
111 519 183 41 49 58
107 512 184 43 52 61
107 512 185 43 52 62
107 513 184 42 51 60
107 513 185 43 51 60
106 512 187 45 53 62
107 512 186 43 52 61
107 512 187 43 52 61
107 513 186 42 50 59
107 513 187 42 51 59
107 514 185 42 50 59
107 514 186 42 50 59
107 514 187 42 51 59
107 515 186 43 51 60
107 515 187 43 51 60
106 512 188 44 52 61
106 512 189 44 53 62
106 513 189 45 53 62
107 512 188 43 52 60
107 513 188 43 51 60
107 513 189 45 52 61
106 512 190 45 54 64
106 512 191 46 55 65
106 513 190 45 53 62
106 513 191 45 54 63
107 514 188 43 51 60
107 514 189 44 52 60
107 515 188 42 51 60
107 515 189 43 52 61
106 514 190 44 52 61
106 514 191 44 53 62
107 514 190 44 52 61
107 514 191 44 53 62
107 515 190 44 53 62
107 515 191 46 54 64
107 516 188 42 51 61
107 516 189 45 54 63
107 517 189 46 56 65
107 516 190 46 55 65
107 516 191 46 55 65
107 517 190 46 56 66
107 517 191 46 55 65
108 512 184 42 51 61
108 513 184 42 51 60
108 514 184 41 50 59
108 514 185 42 50 59
108 515 184 42 50 59
108 515 185 42 50 59
109 515 184 42 50 59
108 515 186 42 51 60
108 515 187 42 51 60
108 516 185 42 50 59
109 516 184 42 50 59
109 516 185 43 51 60
109 517 184 42 50 59
109 517 185 42 51 60
108 516 186 42 51 60
108 516 187 42 51 61
108 517 187 43 52 61
109 516 186 42 51 60
109 517 186 43 52 61
109 517 187 43 52 61
109 518 185 44 52 61
109 518 186 43 52 61
109 518 187 44 52 61
109 519 186 42 51 60
109 519 187 42 51 59
110 517 184 42 51 59
110 518 184 43 51 60
110 518 185 43 52 61
110 519 184 42 51 59
110 519 185 42 51 60
110 519 186 41 50 59
108 516 188 43 52 62
108 517 188 43 53 62
108 517 189 45 55 64
108 517 190 46 55 65
108 518 188 44 53 63
108 518 189 46 55 64
108 519 188 44 53 62
108 519 189 43 52 62
109 518 188 44 52 61
109 519 188 44 52 61
108 518 190 45 55 64
108 518 191 45 55 65
108 519 190 42 52 61
108 519 191 42 52 62
111 520 182 39 47 55
111 520 183 39 47 56
111 521 182 37 45 53
111 521 183 37 45 53
111 522 183 36 44 52
111 523 182 36 43 51
111 523 183 36 43 51
111 527 176 36 42 49
111 527 177 36 42 49
111 527 178 36 42 49
111 527 179 36 42 49
111 525 181 36 43 51
111 524 182 36 43 50
111 524 183 36 43 51
111 525 182 36 43 50
111 525 183 36 43 50
111 527 180 36 42 49
111 527 181 35 41 48
111 526 182 36 43 50
111 526 183 37 43 51
111 527 182 36 42 49
111 527 183 37 43 50
109 520 187 40 48 56
110 520 184 40 48 57
110 520 185 39 47 56
111 520 184 38 46 55
111 520 185 37 46 55
111 521 184 37 45 54
111 521 185 36 45 53
110 520 186 39 47 56
110 520 187 39 47 55
110 521 186 37 45 54
110 521 187 37 45 53
111 521 186 36 44 53
111 522 184 36 44 52
111 522 185 35 44 52
111 523 184 35 43 51
111 523 185 35 43 51
110 522 186 36 44 52
110 522 187 36 43 51
110 523 186 36 43 51
110 523 187 36 43 50
111 522 186 35 44 52
111 523 186 36 43 51
108 520 189 40 49 59
109 520 188 40 48 57
109 520 189 39 48 57
109 521 188 38 46 54
109 521 189 37 46 54
108 520 190 40 49 58
108 520 191 40 49 58
108 521 191 38 46 54
109 520 190 38 47 56
109 521 190 37 46 54
109 521 191 38 45 54
109 522 189 36 44 52
109 523 189 36 43 51
109 522 190 37 44 52
109 522 191 37 44 52
109 523 190 36 43 51
109 523 191 36 43 51
110 521 188 38 45 53
110 522 188 37 44 52
110 523 188 36 43 50
110 523 189 36 43 51
111 524 184 36 43 51
111 524 185 37 43 50
111 525 184 35 43 50
111 525 185 38 44 51
110 524 186 36 43 50
110 524 187 36 43 50
110 525 186 37 43 50
110 525 187 38 44 50
111 524 186 37 43 50
111 525 186 37 43 50
110 526 185 38 44 50
110 527 185 38 44 51
111 526 184 37 44 50
111 526 185 38 44 51
111 527 184 37 44 51
111 527 185 38 44 51
110 526 186 37 43 50
110 526 187 37 43 50
110 527 186 38 44 50
110 527 187 38 44 51
109 524 189 36 43 50
109 525 188 37 43 50
109 525 189 36 43 50
108 524 191 37 44 51
108 525 191 38 44 51
109 524 190 36 42 50
109 524 191 36 43 50
109 525 190 36 43 50
109 525 191 37 44 51
109 526 188 37 43 50
109 526 189 37 43 51
109 527 188 38 45 51
109 527 189 38 45 52
108 526 190 38 44 51
108 526 191 38 45 52
108 527 190 39 45 52
108 527 191 39 45 52
109 526 190 37 44 51
110 524 188 37 43 50
110 525 188 37 43 50
110 526 188 37 43 50
110 527 188 38 44 51
111 528 161 37 44 53
111 529 160 52 58 65
111 529 161 44 50 59
111 528 162 36 43 51
111 528 163 35 42 49
111 529 162 40 46 54
111 529 163 37 44 51
110 530 161 83 88 96
110 531 161 99 104 113
111 530 160 77 81 89
111 530 161 67 73 81
111 531 160 99 104 112
111 531 161 101 105 115
110 530 162 65 72 81
110 530 163 51 59 68
110 531 162 90 96 105
110 531 163 75 82 92
111 530 162 47 54 63
111 530 163 41 49 58
109 531 166 52 58 65
109 531 167 42 48 55
111 528 164 35 41 47
111 528 165 35 41 47
111 529 164 35 42 49
111 529 165 35 41 47
111 528 166 37 42 47
111 528 167 37 41 47
111 529 166 35 40 46
111 529 167 36 41 46
110 530 164 45 52 60
110 530 165 42 47 54
110 531 164 65 72 81
110 531 165 56 63 71
110 530 166 39 43 51
110 530 167 38 42 47
110 531 166 44 50 57
109 533 163 100 109 120
109 534 163 103 111 123
109 535 162 102 110 121
109 535 163 104 111 123
110 532 161 104 110 119
110 533 161 101 108 119
111 532 160 101 107 117
111 533 160 99 106 116
110 532 162 98 104 114
110 532 163 91 98 108
110 533 162 100 108 119
110 533 163 98 105 116
110 534 160 105 112 123
110 534 161 106 113 124
110 535 160 104 110 121
110 535 161 103 110 121
111 534 160 103 109 120
111 535 160 104 110 120
110 534 162 104 111 123
110 535 162 101 108 119
109 532 164 86 93 103
109 532 165 75 82 91
109 533 164 100 107 119
109 533 165 97 103 114
108 533 166 98 103 112
108 533 167 81 87 96
109 532 166 64 70 79
109 532 167 53 60 69
109 533 166 87 93 102
109 533 167 66 72 81
108 535 165 100 108 119
109 534 164 105 113 126
109 534 165 107 114 126
109 535 164 107 115 127
109 535 165 103 110 122
108 534 166 99 105 115
108 534 167 89 95 105
