ply
format ascii 1.0
comment PCL generated
element vertex 2067
property float x
property float y
property float z
property uchar red
property uchar green
property uchar blue
element camera 0
property float view_px
property float view_py
property float view_pz
property float x_axisx
property float x_axisy
property float x_axisz
property float y_axisx
property float y_axisy
property float y_axisz
property float z_axisx
property float z_axisy
property float z_axisz
property float focal
property float scalex
property float scaley
property float centerx
property float centery
property int viewportx
property int viewporty
property float k1
property float k2
end_header
190 756 283 119 125 136
191 756 283 116 122 133
191 757 283 121 125 136
188 757 284 121 127 139
189 756 284 121 126 137
189 757 284 121 127 138
188 758 284 118 124 137
188 759 284 127 133 145
189 758 284 117 123 135
189 759 284 118 124 136
190 756 284 120 125 137
190 757 284 121 125 136
191 757 284 121 125 136
190 758 284 120 125 136
190 759 284 117 122 134
191 758 284 121 126 136
191 759 284 118 123 135
184 760 284 140 148 164
184 761 284 133 143 158
185 760 284 145 153 168
185 761 284 135 144 159
184 762 284 141 146 159
184 763 284 130 136 149
185 762 284 145 148 158
185 763 284 138 141 151
186 760 284 135 143 158
186 761 284 134 142 156
187 760 284 127 134 148
187 761 284 123 129 142
186 762 284 133 137 147
186 763 284 132 134 144
187 762 284 123 128 140
187 763 284 125 128 139
184 764 284 117 124 138
184 765 284 122 128 141
185 764 284 120 124 136
185 765 284 123 128 140
184 766 284 133 139 152
184 767 284 128 134 148
185 766 284 142 148 161
185 767 284 135 142 155
186 764 284 125 128 137
186 765 284 127 131 142
187 764 284 124 128 138
187 765 284 126 130 140
186 766 284 149 153 165
186 767 284 142 147 159
187 766 284 138 142 153
187 767 284 137 141 152
188 760 284 123 130 143
188 761 284 122 126 138
189 760 284 121 128 140
189 761 284 122 128 139
188 762 284 121 125 137
188 763 284 120 124 134
189 762 284 122 126 137
189 763 284 117 122 131
190 760 284 119 125 137
190 761 284 120 126 138
191 760 284 116 122 135
191 761 284 118 124 136
190 762 284 122 126 136
190 763 284 116 120 131
191 762 284 121 126 137
191 763 284 119 123 133
191 765 283 113 119 130
191 766 283 128 133 145
191 767 283 136 141 152
188 764 284 122 126 135
188 765 284 124 127 137
189 764 284 119 124 134
189 765 284 120 125 135
188 766 284 128 132 142
188 767 284 127 131 141
189 766 284 120 125 136
189 767 284 122 127 137
190 764 284 117 122 134
190 765 284 115 121 132
191 764 284 118 122 132
191 765 284 115 120 131
190 766 284 116 122 134
190 767 284 123 128 139
191 766 284 121 127 139
191 767 284 132 136 147
192 756 283 118 123 135
192 757 283 123 127 138
192 758 283 127 130 140
192 759 283 123 129 140
192 758 284 124 128 139
192 759 284 120 126 137
192 760 283 117 123 136
192 761 283 116 123 136
192 762 283 121 127 138
192 763 283 122 125 135
192 760 284 115 122 134
192 761 284 115 122 136
192 762 284 120 126 139
192 764 283 122 125 134
192 765 283 117 121 132
193 765 283 115 120 132
192 766 283 136 142 154
192 767 283 145 149 162
193 766 283 138 144 158
193 767 283 138 144 157
127 789 191 68 74 82
126 790 191 65 70 77
126 791 191 65 70 77
127 790 191 67 72 80
127 791 191 65 70 77
125 795 191 75 81 89
126 792 191 66 71 78
126 793 191 67 72 80
127 792 191 64 68 75
127 793 191 63 68 75
126 794 191 69 74 82
126 795 191 70 75 83
127 794 191 63 68 76
127 795 191 64 70 78
125 796 191 75 81 89
126 796 191 73 78 86
126 797 191 75 81 90
127 796 191 65 71 79
127 797 191 69 75 83
126 798 191 78 84 93
126 799 191 81 87 97
127 798 191 71 77 86
127 799 191 74 80 89
126 800 191 85 92 101
126 801 191 88 94 104
127 800 191 77 83 93
127 801 191 80 86 97
126 802 191 93 100 110
126 803 191 95 102 113
127 802 191 83 91 102
127 803 191 95 102 113
127 804 191 108 115 127
127 805 191 120 127 140
95 772 229 99 106 117
95 772 230 101 108 120
95 772 231 100 108 119
95 773 230 97 105 117
95 773 231 100 107 119
95 774 230 96 104 115
95 774 231 100 107 119
95 775 231 99 107 119
94 771 233 105 112 123
94 771 234 110 117 129
94 771 235 115 122 134
93 770 237 119 126 140
93 770 238 124 130 144
93 770 239 126 133 145
94 771 236 119 127 140
94 771 237 121 128 142
94 771 238 123 130 143
94 771 239 123 130 143
94 772 232 103 110 122
94 772 233 110 116 128
94 773 233 114 120 132
95 772 232 104 111 123
95 773 232 103 111 122
95 773 233 109 115 127
94 772 234 116 123 135
94 772 235 123 130 143
94 773 234 118 125 138
94 773 235 126 133 147
95 774 232 105 112 124
95 774 233 110 117 129
95 775 232 107 113 125
95 775 233 112 118 130
94 774 234 116 122 135
94 774 235 119 125 138
94 775 235 116 123 135
95 774 234 114 121 133
95 775 234 115 121 133
95 775 235 116 121 133
94 772 236 135 142 155
94 772 237 136 143 156
94 773 236 137 143 157
94 773 237 139 144 157
94 772 238 131 137 150
94 772 239 125 132 144
94 773 238 127 132 144
94 773 239 122 127 138
94 774 236 120 126 140
94 774 237 119 125 138
94 775 236 112 119 131
94 775 237 110 117 129
95 775 236 113 119 132
94 774 238 117 122 134
94 774 239 113 118 129
94 775 238 109 115 127
94 775 239 105 111 121
95 776 232 107 113 125
95 776 233 108 115 127
95 777 233 108 114 126
95 776 234 112 117 129
95 776 235 112 117 129
95 777 234 109 115 126
95 777 235 110 116 127
95 778 235 110 116 127
94 776 237 108 114 125
95 776 236 109 114 126
95 776 237 107 112 124
95 777 236 108 113 124
95 777 237 106 111 122
94 776 238 106 112 123
94 776 239 100 106 116
95 776 238 104 109 120
95 776 239 99 104 114
95 777 238 104 109 119
95 777 239 100 105 115
95 778 236 108 113 124
95 778 237 105 111 121
95 779 237 105 111 123
95 778 238 102 109 119
95 778 239 98 105 116
95 779 238 103 110 121
95 779 239 104 111 123
93 769 241 118 125 137
93 769 242 113 119 131
93 769 243 111 117 128
93 770 240 124 130 143
93 770 241 118 125 137
93 771 241 114 120 132
93 770 242 110 117 129
93 770 243 106 112 124
93 771 242 110 116 127
93 771 243 104 110 122
94 771 240 119 126 139
94 771 241 116 122 134
94 771 242 109 115 126
94 771 243 104 109 120
93 768 244 109 115 126
93 768 245 108 114 125
93 769 244 107 113 125
93 769 245 105 112 123
93 768 246 108 115 126
93 768 247 106 113 125
93 769 246 110 117 128
93 769 247 112 119 130
93 770 244 104 110 122
93 770 245 108 115 127
93 771 244 104 110 121
93 771 245 109 116 127
93 770 246 110 117 129
93 770 247 115 122 134
94 771 244 102 108 119
94 771 245 106 113 124
94 771 246 107 115 127
94 771 247 111 119 131
94 772 240 116 123 135
94 772 241 111 117 128
94 773 240 115 120 131
94 773 241 111 116 127
94 772 242 108 113 124
94 772 243 103 109 120
94 773 242 107 112 123
94 773 243 103 109 120
94 774 240 109 114 125
94 774 241 111 116 127
94 775 240 103 108 119
94 775 241 107 114 125
94 774 242 111 117 129
94 774 243 107 114 125
94 775 242 112 118 129
94 775 243 108 114 126
94 772 244 100 105 116
94 772 245 98 105 116
94 773 244 100 106 116
94 773 245 95 101 112
94 772 246 99 106 118
94 772 247 103 110 122
94 773 246 92 99 111
94 773 247 93 100 112
94 774 244 100 106 117
94 774 245 97 103 113
94 775 244 96 103 114
94 775 245 94 100 110
94 774 246 95 101 111
94 774 247 97 103 113
94 775 246 94 100 110
94 775 247 96 102 112
93 768 248 108 114 126
93 768 249 104 110 121
93 769 248 115 122 133
93 769 249 105 112 123
93 768 250 102 108 119
93 768 251 102 108 118
93 769 250 102 109 120
93 769 251 101 107 118
93 770 248 118 125 136
93 770 249 107 114 126
94 769 251 98 105 117
94 770 248 118 124 136
94 770 249 110 116 128
94 771 248 111 118 130
94 771 249 105 111 123
94 770 250 104 110 121
94 770 251 100 107 118
94 771 250 102 108 119
94 771 251 102 108 119
93 768 252 100 106 116
93 768 253 104 111 122
93 769 252 98 105 115
93 768 254 114 122 135
94 768 253 111 118 129
94 769 252 99 106 117
94 769 253 107 114 125
94 768 254 117 125 138
94 768 255 126 133 146
94 769 254 115 123 136
94 769 255 123 132 146
94 770 252 101 109 121
94 770 253 117 124 137
94 771 252 107 114 125
94 771 253 115 123 135
94 770 254 125 132 146
94 770 255 121 129 143
94 771 254 115 122 136
94 771 255 112 119 133
95 771 255 107 115 129
94 772 248 99 106 118
94 772 249 97 104 115
94 773 248 97 104 115
94 773 249 100 107 118
94 772 250 98 105 117
94 772 251 102 108 119
94 773 250 102 109 120
94 773 251 103 109 121
94 774 248 101 107 118
94 774 249 102 108 120
94 775 248 100 106 117
94 775 249 103 110 122
94 774 250 103 110 122
94 774 251 106 113 126
94 775 250 106 114 126
94 775 251 111 118 131
95 775 250 114 121 133
95 775 251 118 125 137
94 772 252 106 112 124
94 772 253 107 113 126
94 773 252 106 112 124
94 773 253 106 112 123
95 773 253 108 114 125
94 772 254 105 112 125
95 772 254 106 112 124
95 772 255 105 113 126
95 773 254 109 116 128
95 773 255 111 118 129
95 774 252 111 117 129
95 774 253 111 118 129
95 775 252 116 124 136
95 775 253 115 122 135
95 774 254 111 118 130
95 774 255 113 119 130
95 775 254 114 120 133
95 775 255 115 121 133
94 776 240 97 103 114
94 776 241 98 105 116
95 776 240 97 102 112
95 776 241 95 101 112
95 777 240 96 102 112
95 777 241 96 102 112
94 776 242 99 105 117
94 776 243 96 103 114
95 776 242 93 100 110
95 776 243 93 99 110
95 777 242 95 101 112
95 777 243 94 100 110
95 778 240 96 103 114
95 778 241 97 104 116
95 779 240 105 112 124
95 779 241 110 118 130
95 778 242 98 105 116
95 778 243 98 104 114
95 779 242 110 117 129
95 779 243 107 113 124
94 776 244 92 99 110
94 776 245 92 98 109
95 776 244 92 98 109
95 776 245 92 99 109
95 777 244 93 99 109
95 777 245 94 100 110
94 776 246 95 100 111
94 776 247 97 103 113
95 776 246 95 101 111
95 776 247 97 103 115
95 777 246 95 101 113
95 777 247 99 105 116
95 778 244 97 103 113
95 778 245 97 103 114
95 779 244 101 107 118
95 779 245 100 107 118
95 778 246 99 106 117
95 778 247 104 111 122
95 779 246 102 110 121
95 779 247 106 114 126
95 780 240 116 124 137
95 780 241 120 128 141
95 780 242 118 125 137
95 780 243 113 120 131
95 780 244 104 110 121
95 780 245 103 109 120
95 780 246 106 114 126
94 776 248 100 106 117
95 776 248 103 109 121
95 776 249 110 117 130
95 777 248 107 114 126
95 777 249 117 124 137
95 776 250 118 125 138
95 776 251 122 130 143
95 777 250 127 134 147
95 777 251 125 133 147
95 778 248 112 119 131
95 778 249 119 126 139
95 779 248 110 117 130
95 779 249 113 120 133
95 778 250 125 131 144
95 778 251 125 132 145
95 776 252 117 125 138
95 776 253 115 123 137
95 777 252 118 126 140
95 776 254 116 123 136
103 773 219 97 104 114
103 774 219 98 105 115
103 775 219 101 107 117
100 773 223 105 112 122
101 772 223 105 111 122
101 773 222 107 114 126
101 773 223 111 117 128
100 774 223 99 106 116
100 775 223 86 93 104
101 774 223 105 112 123
101 775 223 90 97 107
102 773 221 105 112 123
103 773 220 101 108 119
102 773 222 106 113 124
102 774 221 103 109 120
102 775 221 99 105 115
103 774 220 100 106 117
103 775 220 102 108 118
103 775 221 102 108 118
102 774 222 101 109 120
102 775 222 93 101 111
103 776 219 100 106 116
100 776 223 83 90 100
100 777 223 84 90 100
101 776 223 85 91 101
101 777 223 86 92 103
100 778 223 87 93 103
101 778 223 90 96 106
101 779 223 95 102 112
102 776 221 97 103 113
102 777 221 96 101 111
103 776 220 101 106 116
103 776 221 100 106 116
103 777 220 99 105 115
103 777 221 98 104 114
102 776 222 92 98 108
102 777 222 91 96 106
102 778 221 93 99 109
102 779 221 92 98 109
103 778 220 98 104 114
103 778 221 96 102 112
103 779 220 100 105 116
103 779 221 93 100 110
102 778 222 92 98 109
102 779 222 95 102 112
101 780 223 106 113 124
101 781 223 110 118 130
101 782 223 112 120 132
101 783 223 113 120 132
103 780 220 102 108 119
103 780 221 97 104 114
103 781 220 103 110 121
103 781 221 104 111 122
102 780 222 99 106 117
102 780 223 108 115 127
102 781 222 108 116 127
102 781 223 111 118 130
103 782 220 104 110 121
103 782 221 109 115 127
103 783 220 104 110 121
103 783 221 104 110 122
102 782 222 116 123 134
102 782 223 116 123 135
102 783 222 110 117 128
102 783 223 114 121 133
107 773 215 96 104 115
106 774 215 102 109 121
106 775 215 99 107 119
107 774 214 98 105 116
107 774 215 100 108 119
107 775 214 93 100 112
107 775 215 95 103 115
109 774 211 98 104 114
109 775 211 96 102 112
111 774 208 97 104 116
111 774 209 93 100 111
111 775 209 91 98 108
110 774 210 95 101 111
110 775 210 93 99 110
110 775 211 93 99 109
111 775 210 92 98 109
108 774 212 102 108 118
108 774 213 101 107 117
108 775 213 95 102 112
109 774 212 101 107 117
109 775 212 97 103 113
105 773 217 98 105 116
104 773 218 98 105 116
104 773 219 97 103 113
105 773 218 100 107 118
105 774 216 104 111 122
105 774 217 104 110 121
105 775 217 106 113 125
104 774 218 101 107 118
104 774 219 99 106 116
104 775 218 104 110 121
104 775 219 102 108 118
105 774 218 102 109 120
105 775 218 106 113 124
106 773 216 96 103 114
106 774 216 102 110 121
106 775 216 100 108 120
106 777 215 101 108 120
107 776 214 92 99 110
107 776 215 93 102 113
107 777 214 92 99 110
107 777 215 98 106 117
106 778 215 98 105 116
107 778 214 95 101 112
107 778 215 99 106 117
107 779 215 97 104 115
107 780 215 101 108 119
107 781 215 108 115 126
107 782 215 110 117 128
107 783 215 103 110 121
109 776 211 93 99 109
111 776 209 90 96 106
111 777 209 89 95 106
110 776 210 93 100 110
110 776 211 94 100 110
110 777 210 95 101 111
110 777 211 95 101 111
111 776 210 92 98 108
111 777 210 93 98 108
111 778 209 92 98 109
111 779 209 95 101 112
110 778 210 94 100 110
110 778 211 95 101 111
110 779 211 92 98 108
111 778 210 92 99 109
111 779 210 93 100 110
108 776 213 88 95 106
108 777 213 88 95 105
109 776 212 91 97 108
109 777 212 93 99 110
108 776 214 89 96 107
108 777 214 88 95 105
108 778 213 89 96 107
108 779 213 92 99 110
109 778 212 93 100 110
109 778 213 90 97 108
109 779 212 94 100 111
109 779 213 93 100 110
108 778 214 90 97 108
108 779 214 93 100 111
110 778 212 94 100 111
110 779 212 93 99 109
110 780 211 88 95 104
110 781 211 86 93 103
111 780 210 92 99 109
111 780 211 86 93 103
111 781 210 88 94 104
111 781 211 85 91 101
110 782 211 87 93 103
111 782 210 87 93 102
111 782 211 88 94 103
111 783 210 88 94 103
111 783 211 90 96 105
108 780 213 98 105 116
109 780 212 96 102 112
109 780 213 97 103 114
109 781 212 93 100 111
109 781 213 100 106 117
108 780 214 100 107 118
108 781 214 112 118 129
108 781 215 116 122 133
109 782 212 90 97 107
109 782 213 96 103 114
109 783 213 94 101 111
108 782 214 108 115 125
108 782 215 114 120 131
108 783 214 99 106 117
108 783 215 100 107 118
109 783 214 97 104 115
110 780 212 92 98 108
110 781 212 90 97 107
110 782 212 89 95 105
110 783 212 91 97 107
105 776 217 103 111 122
105 777 217 97 104 115
104 776 218 103 109 120
104 776 219 100 106 117
104 777 218 97 104 115
104 777 219 97 104 114
105 776 218 104 111 122
105 777 218 97 104 115
105 778 217 96 102 113
105 779 217 98 104 115
104 778 219 100 106 116
104 779 219 105 110 121
105 778 218 99 105 116
105 779 218 101 107 117
106 776 216 101 109 121
106 777 216 100 107 119
106 777 217 96 103 114
106 778 216 95 102 113
106 778 217 95 102 113
106 779 216 97 103 114
106 779 217 97 104 115
105 780 217 101 107 117
104 780 219 105 111 122
104 781 219 105 110 121
105 780 218 100 107 118
105 780 219 104 110 120
105 781 218 99 106 117
105 781 219 103 109 120
104 782 219 105 111 121
104 783 219 106 112 122
105 782 218 101 107 117
105 782 219 104 110 120
105 783 218 107 113 123
105 783 219 106 112 123
106 780 216 100 106 117
106 780 217 100 106 117
106 781 216 100 107 118
106 781 217 98 105 116
107 781 216 102 109 121
106 782 216 100 107 118
106 782 217 99 105 116
106 783 216 101 107 119
106 783 217 101 107 118
107 782 216 104 111 122
107 783 216 100 107 119
106 783 218 104 111 121
104 780 220 104 110 121
104 781 220 103 110 121
104 782 220 104 110 121
104 783 220 105 111 122
101 784 223 105 112 123
101 785 223 97 104 115
103 784 220 102 109 120
103 784 221 101 108 119
103 785 221 101 107 117
102 784 222 104 111 122
102 784 223 106 113 124
102 785 222 101 108 118
102 785 223 99 105 116
103 784 222 102 108 119
103 785 222 100 106 117
103 786 221 100 106 116
103 787 221 99 105 116
102 786 222 100 106 116
102 786 223 99 105 117
102 787 223 99 106 117
103 786 222 99 105 116
103 787 222 98 105 116
103 787 223 98 106 117
102 788 223 100 107 119
102 789 223 103 110 121
103 788 222 99 106 118
103 788 223 99 106 118
103 789 222 101 108 119
103 789 223 101 108 120
103 790 223 102 109 120
103 791 223 107 114 125
107 784 215 99 106 117
111 784 211 90 96 105
111 785 211 91 97 106
111 786 211 93 99 110
111 787 211 98 104 115
109 784 213 96 101 111
109 785 213 94 100 110
108 784 214 98 105 115
108 784 215 98 104 115
108 785 215 96 102 112
109 784 214 97 103 113
109 785 214 94 100 110
108 786 215 97 103 113
108 787 215 99 105 116
109 786 214 94 100 111
109 786 215 96 102 112
109 787 214 97 104 114
109 787 215 99 105 115
110 784 212 92 98 107
110 784 213 94 100 110
110 785 212 92 98 108
110 785 213 94 99 109
111 784 212 91 97 107
111 785 212 91 97 107
110 786 212 93 99 109
110 786 213 93 99 109
110 787 212 95 101 112
110 787 213 96 102 113
111 786 212 92 99 109
111 787 212 97 103 114
110 787 214 97 104 114
108 788 215 104 110 121
109 788 214 99 106 117
109 788 215 103 109 119
109 789 215 102 109 119
109 790 215 105 111 122
109 791 215 105 112 124
110 788 213 97 104 115
110 789 213 98 106 117
111 788 212 102 109 120
111 788 213 97 104 116
111 789 212 102 109 121
111 789 213 100 107 119
110 788 214 99 105 116
110 789 214 98 105 116
110 790 213 100 107 118
111 790 212 103 110 122
111 790 213 102 109 121
111 791 212 110 117 129
111 791 213 107 115 127
110 790 214 101 108 118
110 790 215 102 108 119
110 791 214 103 111 122
110 791 215 102 109 121
104 784 219 106 113 124
104 785 219 116 122 133
105 784 218 108 114 125
105 784 219 109 115 126
105 785 219 117 123 134
104 786 219 117 123 134
105 786 219 111 118 129
105 787 219 107 113 124
106 784 217 99 106 117
106 785 217 103 109 120
107 784 216 98 104 115
107 784 217 98 105 116
107 785 216 99 105 116
107 785 217 101 108 119
106 784 218 104 110 121
106 785 218 109 115 126
106 786 217 103 110 121
107 786 216 98 105 116
107 786 217 101 107 119
107 787 216 99 106 117
107 787 217 102 109 121
106 786 218 105 112 123
106 787 218 104 111 123
106 787 219 105 112 123
104 784 220 103 110 121
104 785 220 106 112 123
104 786 220 106 113 124
104 787 220 104 111 122
104 787 221 100 106 117
105 788 219 108 114 125
105 789 219 111 118 130
107 788 217 107 113 125
107 789 217 114 121 133
106 788 218 107 114 126
106 788 219 108 114 126
106 789 218 112 119 131
106 789 219 115 122 133
107 788 218 107 114 126
107 789 218 117 123 135
107 790 217 120 127 139
107 791 217 117 125 137
106 790 219 123 130 142
106 791 219 127 133 146
107 790 218 125 131 143
107 791 218 124 131 144
107 791 219 129 135 147
104 788 220 104 111 122
104 788 221 101 108 119
104 789 221 106 112 123
105 788 220 106 113 124
105 789 220 109 115 126
104 789 222 103 109 121
104 790 221 110 115 126
104 791 221 110 116 127
105 790 220 113 120 131
105 790 221 112 118 129
105 791 220 114 120 132
105 791 221 109 115 127
104 790 222 105 111 123
104 791 222 106 112 124
104 791 223 108 115 126
106 791 220 119 126 138
108 786 216 98 104 115
108 787 216 100 107 118
108 788 216 105 112 123
108 789 216 111 118 129
108 789 217 115 121 133
108 790 216 114 120 132
108 790 217 118 124 136
108 791 216 112 119 131
108 791 217 114 122 134
109 791 216 108 115 127
109 792 215 106 113 125
109 793 215 108 116 128
109 794 215 110 117 130
111 792 213 110 117 130
111 793 213 112 119 131
110 792 214 107 114 126
110 792 215 106 113 125
110 793 214 110 117 129
110 793 215 107 114 126
111 792 214 108 116 128
111 793 214 112 119 131
111 794 213 104 112 124
111 795 213 100 107 118
110 794 214 106 113 125
110 794 215 106 113 125
110 795 215 108 115 127
111 794 214 103 111 122
111 795 214 101 108 120
111 796 213 102 109 120
111 797 213 105 111 122
110 796 215 110 116 128
110 797 215 112 118 129
111 796 214 104 110 122
111 797 214 107 113 124
111 797 215 109 115 126
110 798 215 109 115 126
110 799 215 110 116 127
111 798 214 106 113 124
111 798 215 107 113 125
111 799 214 106 113 124
111 799 215 107 113 125
106 792 219 115 122 134
106 793 219 102 109 121
107 792 218 112 119 131
107 792 219 115 122 134
107 793 218 104 111 123
107 793 219 103 110 122
106 794 219 101 107 118
107 794 218 110 116 128
107 794 219 107 113 124
107 795 219 111 117 128
105 792 220 110 117 129
105 792 221 105 112 124
105 793 221 107 113 125
104 792 222 108 115 127
104 792 223 120 126 137
104 793 223 124 129 141
105 792 222 106 113 125
105 793 222 111 118 129
105 794 221 109 115 126
104 794 223 119 125 137
105 794 222 111 118 129
105 794 223 114 121 133
105 795 222 106 113 125
105 795 223 107 114 126
106 792 220 111 118 130
106 793 220 103 110 121
106 794 220 102 109 120
106 794 221 106 112 123
106 795 220 106 112 124
106 795 221 107 113 124
107 795 220 108 114 126
106 795 222 106 113 124
107 796 219 109 117 129
107 797 219 117 125 138
105 796 222 103 110 121
105 796 223 102 109 120
105 797 223 105 111 123
106 796 220 108 114 126
106 796 221 108 115 127
106 797 221 110 117 130
107 796 220 108 115 128
107 797 220 118 125 138
107 797 221 115 122 135
106 796 222 106 113 124
106 797 222 105 112 124
106 797 223 104 111 123
107 798 220 124 131 144
107 798 221 120 128 140
107 799 221 121 128 141
106 798 222 109 117 129
106 798 223 107 113 125
106 799 222 109 116 129
106 799 223 107 114 126
107 798 222 115 122 134
107 799 222 111 118 131
108 792 216 112 118 130
108 792 217 111 118 129
108 793 216 111 118 130
108 793 217 108 115 127
109 792 216 110 117 129
109 793 216 112 119 131
108 794 216 112 119 131
108 794 217 113 119 131
108 795 217 111 118 130
109 794 216 112 119 131
109 795 216 110 117 129
109 795 217 109 117 129
108 794 218 111 118 129
108 795 218 113 120 132
108 796 217 111 118 130
109 796 216 110 117 129
109 796 217 109 116 129
109 797 216 111 118 130
109 797 217 109 116 129
108 796 218 116 123 135
108 796 219 116 123 136
108 797 218 114 123 136
108 797 219 121 129 142
109 797 218 110 119 132
109 798 217 111 119 132
109 799 217 123 129 141
108 798 218 113 122 135
108 798 219 124 132 146
108 799 219 126 134 148
109 798 218 114 122 135
109 799 218 127 135 148
109 799 219 130 138 151
110 796 216 113 119 131
110 797 216 113 119 131
110 798 216 110 117 129
110 798 217 114 121 133
110 799 216 112 118 130
110 799 217 117 124 136
108 798 220 124 132 145
108 799 220 126 134 147
108 799 221 127 134 146
119 775 199 74 80 89
115 775 203 118 123 134
112 774 207 101 108 119
112 775 207 89 96 106
113 774 206 97 105 116
113 774 207 100 108 119
113 775 206 91 97 108
113 775 207 90 97 107
114 774 205 98 105 116
114 775 204 106 112 122
114 775 205 98 103 114
115 775 204 112 117 127
114 774 206 95 103 114
114 775 206 93 100 110
117 775 200 87 95 106
117 775 201 97 105 116
116 775 202 115 121 133
118 775 200 80 87 97
119 775 200 77 83 91
118 777 199 82 89 99
119 776 199 75 81 89
119 777 199 75 81 90
118 778 199 86 93 104
118 779 199 91 98 109
119 778 198 75 81 90
119 778 199 77 84 93
119 779 198 76 82 91
119 779 199 78 85 95
117 780 199 111 118 131
117 781 199 115 123 135
117 782 199 115 123 135
117 783 199 116 122 134
119 781 197 81 88 99
118 780 198 87 95 107
118 780 199 96 104 116
118 781 198 91 100 112
118 781 199 103 112 124
119 780 198 78 84 94
119 781 198 82 90 100
119 782 197 83 91 101
119 783 197 87 94 105
118 782 198 97 105 117
118 782 199 107 114 127
118 783 198 102 110 122
118 783 199 111 118 130
119 782 198 89 97 109
119 783 198 92 100 112
115 776 203 117 122 133
115 777 202 113 119 130
115 777 203 109 115 126
115 778 202 114 119 130
115 778 203 107 113 123
115 779 203 108 114 124
112 776 207 88 94 103
113 776 206 90 96 105
113 776 207 87 93 103
113 777 206 89 95 104
113 777 207 87 93 103
113 778 206 88 94 104
113 778 207 87 94 104
113 779 207 90 96 106
114 776 204 105 110 120
114 776 205 100 105 115
114 777 205 98 103 113
115 776 204 109 114 124
115 777 204 103 108 118
114 776 206 94 100 110
114 777 206 93 98 108
114 778 205 94 99 109
114 779 205 90 96 106
115 778 204 100 105 115
115 779 204 99 105 115
115 779 205 94 99 109
114 778 206 89 95 105
114 779 206 89 95 106
115 780 203 109 114 124
115 781 203 108 113 124
113 780 207 92 98 108
113 781 207 90 97 107
114 780 205 89 95 105
114 781 205 90 96 106
115 780 204 101 106 116
115 780 205 94 99 109
115 781 204 102 107 117
115 781 205 94 99 109
114 780 206 88 94 104
114 780 207 89 96 106
114 781 206 90 97 107
114 781 207 90 96 106
115 782 204 97 103 113
115 782 205 96 102 112
115 783 204 95 102 112
115 783 205 100 106 116
114 782 206 100 106 116
114 782 207 94 100 111
114 783 206 110 116 127
114 783 207 102 108 119
115 783 206 109 115 125
116 776 201 114 121 132
116 777 201 112 119 130
117 776 200 90 98 109
117 776 201 102 109 121
117 777 200 97 105 117
117 777 201 104 112 124
116 776 202 121 127 138
116 777 202 117 122 133
116 778 201 117 123 134
116 779 201 123 129 140
117 778 200 108 115 127
117 778 201 113 120 131
117 779 200 116 123 135
117 779 201 121 128 139
116 778 202 116 122 133
116 779 202 118 124 135
118 776 200 81 88 98
118 777 200 89 97 108
118 778 200 97 105 117
118 779 200 103 110 122
116 780 201 127 132 144
116 781 201 128 134 146
117 780 200 118 126 138
117 780 201 125 131 143
117 781 200 123 130 142
117 781 201 129 135 147
116 780 202 119 125 136
116 780 203 112 118 129
116 781 202 118 124 135
116 781 203 109 114 125
116 782 201 123 129 141
116 783 201 116 123 134
117 782 200 123 130 142
117 782 201 126 132 145
117 783 200 117 124 136
117 783 201 117 123 135
116 782 202 118 124 136
116 782 203 105 111 122
116 783 202 112 118 129
116 783 203 98 104 115
116 783 204 94 101 111
120 775 199 70 75 84
121 775 199 65 70 77
122 775 199 59 64 71
125 774 199 59 65 72
125 775 198 57 63 71
125 775 199 57 62 69
126 773 199 61 67 74
126 774 197 64 69 76
126 775 197 63 68 76
127 774 196 61 66 74
127 774 197 64 69 76
127 775 196 65 70 78
127 775 197 64 69 77
126 774 198 62 67 74
126 774 199 61 66 73
126 775 198 60 65 73
120 774 200 72 78 86
121 774 200 62 67 75
123 773 201 50 56 64
122 774 200 57 63 70
122 775 200 56 61 69
123 774 200 51 57 64
123 775 200 50 56 63
124 773 201 51 56 63
125 773 200 58 63 70
125 773 201 55 60 67
124 774 200 50 56 63
124 774 201 49 54 62
124 775 200 50 56 64
125 774 200 56 61 68
125 775 200 54 60 67
120 776 199 68 75 83
120 777 198 68 74 81
120 777 199 69 75 83
121 776 199 64 70 77
121 777 198 65 70 78
121 777 199 65 70 78
120 778 198 71 76 84
120 779 198 71 77 85
121 778 198 66 71 79
121 779 198 66 72 79
122 776 199 58 63 70
122 777 198 58 64 71
122 777 199 58 63 70
123 776 199 51 57 64
123 777 198 53 59 67
123 777 199 52 58 65
122 779 197 55 61 68
123 779 197 56 61 69
122 778 198 58 63 71
122 779 198 57 63 71
123 778 198 55 60 68
123 779 198 56 61 68
120 780 197 71 78 87
120 781 197 73 80 89
121 780 197 65 71 79
121 781 197 69 76 84
120 780 198 72 78 86
120 782 197 77 84 94
120 783 196 78 86 96
120 783 197 81 88 98
121 782 196 73 80 89
121 782 197 75 82 92
121 783 196 77 84 93
122 780 197 55 62 69
122 781 196 55 61 69
122 781 197 57 63 71
123 780 197 55 60 68
123 781 196 55 61 68
123 781 197 55 60 67
122 782 196 61 68 76
122 783 196 65 72 81
123 782 196 57 62 70
123 783 196 59 65 72
127 776 195 72 77 84
127 777 195 73 77 84
127 778 195 70 74 81
127 779 195 69 74 81
124 776 199 53 59 66
124 777 198 53 59 67
124 777 199 53 59 67
125 776 198 58 63 71
125 776 199 56 61 69
125 777 198 57 62 70
125 777 199 55 61 69
124 779 197 56 61 68
125 778 197 59 64 71
125 779 197 58 63 71
124 778 198 54 59 67
124 779 198 55 60 68
125 778 198 55 61 68
126 776 197 62 68 75
126 777 196 62 67 74
126 777 197 60 65 73
127 776 196 67 72 79
127 776 197 64 69 76
127 777 196 65 70 77
126 776 198 59 64 72
126 777 198 59 64 72
126 778 196 61 66 73
126 778 197 59 64 72
126 779 196 60 65 72
126 779 197 59 65 72
127 778 196 63 68 75
124 783 195 58 64 71
125 783 195 61 67 74
126 780 195 63 68 75
126 781 195 64 69 77
127 780 194 65 70 78
127 780 195 64 69 76
127 781 194 63 68 76
127 781 195 64 69 76
126 782 195 64 69 76
126 783 194 65 70 77
126 783 195 64 70 77
127 782 194 64 69 77
127 783 194 64 70 77
124 780 197 56 61 68
124 781 196 56 61 68
124 781 197 55 60 68
125 780 197 58 63 71
125 781 196 59 64 72
125 781 197 57 63 70
124 782 196 57 62 70
124 783 196 58 63 70
125 782 196 61 67 74
125 783 196 61 67 74
126 780 196 61 66 73
126 781 196 62 67 75
112 774 208 100 107 118
112 775 208 90 97 107
112 776 208 87 93 103
112 776 209 87 93 103
112 777 208 87 93 104
112 777 209 87 93 104
112 778 208 88 95 105
112 778 209 90 97 108
112 779 208 92 99 109
112 779 209 94 101 111
113 778 208 87 94 104
113 779 208 91 97 107
112 780 209 98 105 115
112 781 209 97 102 112
113 780 208 95 102 112
113 781 208 93 99 108
113 781 209 95 101 111
112 781 210 89 95 105
112 782 209 89 95 105
112 783 209 87 93 103
113 782 208 89 96 106
113 782 209 91 97 107
113 783 208 91 97 107
113 783 209 88 94 104
112 782 210 87 93 103
112 783 210 87 93 103
114 783 208 95 101 111
117 784 199 115 121 133
117 785 199 118 124 135
117 786 199 119 125 136
117 787 199 120 126 137
119 784 197 91 98 109
119 785 196 89 96 106
119 785 197 92 99 111
118 784 198 102 110 122
118 784 199 114 120 132
118 785 198 107 114 125
118 785 199 117 124 135
119 784 198 94 102 114
119 786 196 89 96 107
119 786 197 93 100 112
119 787 196 87 94 105
119 787 197 97 104 115
118 786 198 110 117 129
118 786 199 120 125 137
118 787 198 115 121 132
118 787 199 121 126 137
119 788 196 88 97 108
119 788 197 103 109 120
119 789 196 91 100 112
119 789 197 104 111 123
118 788 198 119 124 135
118 788 199 122 127 138
118 789 198 122 127 138
118 789 199 124 128 139
119 790 196 96 104 116
119 790 197 108 114 126
119 791 196 98 106 118
119 791 197 110 116 128
118 790 198 126 130 141
118 790 199 126 130 141
118 791 198 126 130 141
118 791 199 125 129 140
119 790 198 119 124 135
119 791 198 121 126 138
115 784 204 93 99 110
115 784 205 95 101 111
115 785 205 90 97 107
114 784 206 105 112 122
114 784 207 102 108 118
114 785 207 98 103 113
115 784 206 101 107 118
115 785 206 95 102 112
115 786 205 89 95 105
115 787 205 89 95 105
114 786 207 93 99 109
114 787 207 88 94 104
115 786 206 90 96 106
115 786 207 90 97 106
115 787 206 88 94 104
115 787 207 87 93 103
114 788 207 88 94 104
115 788 206 88 94 104
115 788 207 88 94 104
115 789 206 88 94 104
115 789 207 88 95 105
115 790 206 90 97 107
115 790 207 90 97 107
115 791 206 90 97 107
115 791 207 93 100 111
116 784 201 108 114 126
117 784 200 113 120 131
117 784 201 109 115 126
117 785 200 116 121 132
117 785 201 108 114 124
116 784 202 103 109 120
116 784 203 96 103 113
116 785 202 101 107 117
116 785 203 98 104 114
117 786 200 115 120 131
117 786 201 108 113 124
117 787 200 115 121 132
117 787 201 110 116 127
116 786 202 99 105 115
116 786 203 98 103 113
116 787 202 97 103 114
116 787 203 97 103 114
117 786 202 103 108 118
117 787 202 100 107 119
117 787 203 98 104 116
116 784 204 92 98 109
116 785 204 91 98 108
116 786 204 94 99 109
116 786 205 90 96 106
116 787 204 95 101 110
116 787 205 91 96 106
117 788 200 118 123 134
117 788 201 113 119 131
117 789 200 115 122 134
117 789 201 117 123 135
116 788 203 99 106 117
117 788 202 107 114 127
117 788 203 102 109 120
117 789 202 113 121 133
117 789 203 104 111 123
117 790 200 118 124 135
117 790 201 118 124 136
117 791 201 116 122 133
117 790 202 114 121 133
117 790 203 106 113 124
117 791 202 111 118 130
117 791 203 105 111 122
118 789 200 119 125 136
118 790 200 123 128 139
118 791 200 123 128 139
118 791 201 117 122 134
116 788 204 95 101 111
116 788 205 91 96 106
116 789 204 93 100 111
116 789 205 91 97 107
117 789 204 96 104 115
116 790 204 93 100 111
116 790 205 91 97 107
116 791 204 94 100 110
116 791 205 90 96 105
117 790 204 97 103 114
117 791 204 99 105 115
116 790 206 91 97 107
116 791 206 91 97 107
119 792 197 112 120 132
119 793 197 120 127 139
118 792 198 126 131 141
118 792 199 121 126 136
118 793 198 123 128 139
118 793 199 115 120 131
119 792 198 124 129 140
119 793 198 124 129 141
119 794 197 124 130 143
119 795 197 124 130 143
118 794 199 109 115 126
118 795 199 108 114 125
119 794 198 124 129 141
119 794 199 112 117 129
119 795 198 120 126 138
119 795 199 111 117 128
119 796 198 116 121 134
119 796 199 113 118 129
119 797 198 116 121 133
119 797 199 113 118 129
119 798 199 111 117 129
119 799 199 108 115 127
115 792 206 92 98 109
115 792 207 95 102 113
115 793 207 95 102 113
115 794 207 95 102 114
115 795 207 100 106 118
115 796 207 97 104 115
115 797 207 97 104 115
115 798 207 97 104 115
117 792 201 105 112 124
117 793 201 96 103 115
117 792 202 104 111 123
117 792 203 96 102 114
117 793 202 93 99 111
117 793 203 89 96 107
117 794 201 94 100 110
117 794 202 90 96 106
117 794 203 89 95 105
117 795 202 94 100 109
117 795 203 90 95 105
118 792 200 113 119 130
118 792 201 109 115 127
118 793 200 106 111 123
118 793 201 100 106 118
118 794 200 101 107 118
118 794 201 97 103 113
118 795 200 103 109 120
118 795 201 99 104 114
116 792 205 89 95 105
116 793 204 86 92 102
116 793 205 90 96 107
117 792 204 92 98 109
117 793 204 87 93 104
116 792 206 92 98 108
116 793 206 93 99 110
116 794 204 86 93 103
116 794 205 89 95 106
116 795 205 89 96 107
117 794 204 86 93 103
117 795 204 88 94 104
116 794 206 93 100 111
116 795 206 94 101 112
116 795 207 98 104 115
117 796 202 95 101 111
117 796 203 91 97 106
117 797 202 94 101 111
117 797 203 94 101 111
117 798 203 103 109 120
118 796 200 106 111 122
118 796 201 102 107 117
118 797 200 108 113 124
118 797 201 105 110 121
119 796 200 108 113 124
119 797 200 109 114 125
118 796 202 98 104 114
118 797 202 98 104 115
118 798 201 104 110 121
118 799 201 106 113 124
119 798 200 107 113 123
119 798 201 106 111 122
119 799 200 104 110 122
119 799 201 106 111 122
118 798 202 102 108 119
118 798 203 103 109 120
118 799 202 105 111 122
118 799 203 105 111 122
116 796 205 91 98 109
116 797 205 96 103 114
117 796 204 90 97 108
117 796 205 91 98 109
117 797 204 95 101 112
117 797 205 96 103 114
116 796 206 94 101 113
116 796 207 97 104 115
116 797 206 95 102 114
116 797 207 96 103 114
116 798 205 97 104 115
117 798 204 99 106 116
117 798 205 97 104 115
117 799 204 101 107 118
117 799 205 96 103 114
116 798 206 94 101 112
116 798 207 95 102 113
116 799 206 92 99 110
116 799 207 95 102 113
121 784 195 76 83 93
121 785 195 76 83 93
120 786 195 83 90 100
120 787 195 82 88 98
121 786 195 76 83 92
121 787 195 78 84 92
122 784 195 66 73 82
122 785 195 66 73 82
123 784 195 62 68 76
123 785 194 60 66 74
123 785 195 62 68 76
123 787 193 62 67 74
122 786 194 63 70 78
122 786 195 67 74 83
122 787 194 64 70 78
122 787 195 69 76 84
123 786 194 61 66 74
123 787 194 60 66 74
120 784 196 83 90 100
120 785 196 84 92 101
121 784 196 79 86 96
121 785 196 78 85 95
120 786 196 85 92 102
120 787 196 84 91 101
122 784 196 72 79 88
120 788 195 75 82 92
120 789 195 77 85 95
121 788 194 70 75 84
121 788 195 74 80 88
121 789 194 70 77 86
121 789 195 73 80 89
120 790 195 83 91 102
120 791 195 90 98 110
121 790 194 76 83 92
121 790 195 78 86 95
121 791 194 85 92 101
121 791 195 88 96 106
122 789 193 65 71 79
123 788 193 62 68 75
123 789 193 65 71 78
122 788 194 63 69 77
122 789 194 64 70 79
122 790 193 71 77 85
122 791 193 75 81 90
123 790 193 71 76 84
123 791 193 73 79 87
122 790 194 74 80 89
122 791 194 81 88 97
120 788 196 82 90 102
120 789 196 84 93 105
120 790 196 90 99 111
120 791 196 97 105 118
124 784 195 60 65 72
124 785 194 60 65 72
125 784 194 62 67 74
125 784 195 61 66 73
125 785 194 61 66 73
124 787 193 61 66 73
125 786 193 61 66 72
125 787 193 60 65 72
124 786 194 60 65 72
125 786 194 60 65 72
126 785 193 63 68 75
127 784 193 64 69 76
127 785 193 65 70 77
126 784 194 64 69 75
126 785 194 63 68 75
127 784 194 65 70 77
126 786 193 62 66 73
126 787 192 62 67 74
126 787 193 61 66 73
127 786 192 66 71 78
127 786 193 65 70 77
127 787 192 66 71 78
124 788 193 64 69 76
124 789 193 66 71 78
125 788 192 62 67 74
125 788 193 62 67 74
125 789 192 63 68 76
125 789 193 64 69 76
124 790 192 66 72 79
124 790 193 68 73 81
124 791 192 67 73 81
124 791 193 69 75 83
125 790 192 65 70 77
125 791 192 65 71 79
126 788 192 64 69 76
126 789 192 64 69 77
127 788 192 68 73 81
127 789 192 67 72 80
126 790 192 64 70 77
126 791 192 65 70 78
120 792 195 93 101 113
120 793 195 92 100 112
121 792 194 85 92 102
121 792 195 89 96 107
121 793 194 83 89 99
121 793 195 89 96 107
121 794 194 86 93 103
121 794 195 91 99 110
121 795 195 94 101 112
122 792 193 75 81 90
122 793 193 77 84 93
123 792 193 74 80 89
123 793 193 81 87 96
122 792 194 78 85 95
122 793 194 78 85 94
122 794 193 81 88 97
123 794 193 85 90 100
123 795 193 81 87 97
122 794 194 83 89 99
122 795 194 85 92 102
120 792 196 100 108 121
120 793 196 100 109 121
120 793 197 112 120 132
120 794 196 102 111 123
120 794 197 115 123 136
120 795 196 102 110 123
120 795 197 112 120 133
121 795 196 98 107 119
121 796 195 96 103 114
121 797 195 99 106 118
123 796 193 82 89 99
123 797 193 86 93 103
122 796 194 90 97 108
122 796 195 95 102 114
122 797 194 95 102 113
122 797 195 98 105 117
123 796 194 86 93 103
123 797 194 92 99 110
122 798 194 99 107 118
122 798 195 104 112 124
122 799 195 112 120 133
123 798 194 100 107 118
123 799 194 108 115 127
123 799 195 111 118 131
120 796 197 110 118 131
120 797 197 116 122 134
121 796 196 101 109 121
121 797 196 103 111 124
121 797 197 111 118 131
120 796 198 115 121 133
120 797 198 117 123 135
120 798 197 120 127 139
121 798 196 112 120 133
121 798 197 117 125 138
121 799 197 124 132 147
120 798 198 120 127 139
120 798 199 115 122 134
120 799 198 125 131 144
120 799 199 112 120 132
121 799 198 126 134 148
122 798 196 112 121 134
122 799 196 120 129 143
124 792 192 70 76 84
124 792 193 73 79 87
124 793 192 78 83 91
124 793 193 81 86 94
125 792 192 67 73 81
125 793 192 71 77 85
124 794 192 87 92 100
124 794 193 87 93 102
124 795 192 81 87 97
124 795 193 81 88 97
125 794 192 77 83 91
125 795 192 78 84 93
124 796 192 77 84 94
124 796 193 79 86 96
124 797 192 84 91 101
124 797 193 85 92 102
125 796 192 76 83 91
125 797 192 81 87 97
124 798 193 89 97 108
124 799 193 98 106 118
125 798 192 86 93 103
125 799 192 93 99 110
125 799 193 95 102 114
124 799 194 100 108 121
126 799 192 87 93 102
112 784 209 86 92 102
112 785 209 88 94 104
113 784 208 90 96 106
113 784 209 87 93 103
113 785 208 90 96 106
113 785 209 89 95 105
112 784 210 87 93 102
112 785 210 89 96 106
112 785 211 91 97 107
113 786 209 91 97 107
113 787 209 93 100 110
112 786 210 93 100 110
112 786 211 93 100 111
112 787 210 98 105 116
112 787 211 102 109 120
113 787 210 99 106 117
114 784 208 95 101 111
114 785 208 92 98 107
114 786 208 90 96 106
114 787 208 89 96 106
113 788 209 97 104 116
113 789 209 102 109 121
112 788 210 112 118 130
112 788 211 112 118 130
112 789 210 115 121 133
112 789 211 112 119 130
113 788 210 108 115 126
113 789 210 111 118 129
113 790 209 106 113 125
113 791 209 105 113 125
112 790 211 106 114 125
112 791 211 111 118 130
113 790 210 107 114 126
113 791 210 105 113 125
113 791 211 109 116 127
114 788 208 87 95 106
114 788 209 90 97 108
114 789 208 91 99 110
114 790 208 95 103 114
114 790 209 103 110 122
114 791 208 99 107 119
114 791 209 103 111 123
115 791 208 97 104 116
112 789 212 105 112 123
112 790 212 104 112 123
112 791 212 111 118 130
112 792 211 107 114 127
113 792 210 100 108 120
113 792 211 104 112 124
113 793 210 98 106 119
113 793 211 100 109 121
112 795 211 105 113 126
113 794 210 98 106 118
113 794 211 104 111 124
113 795 210 103 110 122
113 795 211 108 116 128
114 792 208 105 112 123
114 792 209 102 109 121
114 793 208 101 108 120
114 793 209 98 106 118
115 792 208 103 110 121
115 793 208 99 106 118
114 794 208 97 104 115
114 794 209 95 103 114
114 795 208 98 105 116
114 795 209 95 103 114
115 794 208 96 103 114
115 795 208 99 106 117
114 794 210 95 103 115
114 795 210 97 105 116
112 792 212 109 116 129
112 793 212 106 114 127
112 794 212 108 116 129
112 794 213 102 110 122
112 795 212 104 111 124
112 795 213 100 107 119
113 796 210 104 111 123
113 796 211 105 112 125
113 797 210 100 108 120
113 797 211 101 109 122
113 798 211 107 114 127
113 799 211 111 118 130
114 796 209 96 104 116
114 797 209 99 107 119
115 796 208 97 104 116
115 797 208 98 105 117
114 796 210 100 108 119
114 797 210 101 108 120
114 798 209 101 109 121
114 799 209 108 115 127
115 798 208 100 107 118
115 799 208 100 107 119
115 799 209 105 113 125
114 798 210 104 112 124
114 799 210 116 123 134
114 799 211 118 124 136
112 796 212 102 110 122
112 796 213 102 109 120
112 797 212 103 110 122
112 797 213 105 111 122
112 798 212 105 112 124
112 798 213 105 112 123
112 799 212 107 114 125
112 799 213 107 113 125
113 798 212 107 115 127
113 799 212 107 114 126
112 799 214 106 113 125
96 773 227 90 96 105
97 772 227 85 91 100
97 773 226 90 96 106
97 773 227 93 99 109
97 774 227 104 110 121
97 775 227 106 113 123
98 773 225 90 96 106
99 772 225 87 93 103
99 773 225 91 97 107
98 772 226 86 92 101
98 773 226 91 97 107
99 774 225 87 93 103
99 775 225 85 91 101
98 774 226 91 98 108
98 775 226 90 97 107
96 772 228 91 98 108
96 772 229 96 104 115
96 773 228 92 99 110
96 773 229 97 104 115
96 773 230 96 103 115
96 774 228 97 104 114
96 774 229 98 104 115
96 775 228 99 106 116
96 775 229 98 104 115
97 775 228 103 110 121
96 774 230 95 103 114
96 775 230 97 105 116
96 775 231 100 107 119
100 772 224 90 97 107
100 773 224 94 101 111
100 774 224 89 96 107
100 775 224 83 90 100
97 776 227 102 109 120
97 777 227 93 101 112
99 776 224 86 92 102
99 776 225 85 91 101
99 777 225 84 91 100
98 776 226 87 94 104
98 776 227 94 101 111
98 777 226 84 91 102
98 777 227 88 95 107
99 778 225 88 94 103
99 779 225 90 96 106
98 778 226 87 94 104
98 778 227 86 94 105
98 779 227 88 95 106
99 778 226 88 95 104
99 779 226 88 94 104
96 776 229 97 104 115
97 776 228 100 107 118
97 776 229 98 104 115
97 777 228 95 102 113
97 777 229 97 103 114
96 776 230 99 105 116
96 776 231 101 108 119
96 777 230 99 106 117
96 777 231 102 108 119
97 777 230 96 103 114
97 778 228 93 100 112
97 778 229 98 105 115
97 779 228 94 101 112
97 779 229 98 105 116
96 778 230 102 108 119
96 778 231 105 112 124
96 779 231 114 121 134
97 778 230 101 108 119
97 779 230 109 116 128
97 779 231 119 126 139
98 779 228 91 98 110
99 780 225 88 95 105
98 780 227 92 99 109
98 781 227 92 99 111
99 780 226 87 93 103
99 780 227 89 95 106
99 781 226 88 95 105
99 781 227 89 95 106
99 782 226 93 99 110
99 782 227 93 100 112
99 783 226 93 100 111
99 783 227 95 102 113
97 780 229 101 108 119
97 780 230 115 123 136
97 780 231 126 134 148
97 781 230 119 128 141
97 781 231 118 127 141
97 782 231 120 129 143
97 783 231 124 132 146
98 780 228 98 105 116
98 780 229 103 110 122
98 781 228 99 106 117
98 781 229 108 115 128
98 781 230 117 125 138
98 782 228 100 107 119
98 782 229 107 116 129
98 783 228 107 114 126
98 783 229 118 125 138
99 783 228 105 112 124
99 783 229 116 123 136
98 782 230 119 127 140
98 783 230 123 130 143
98 783 231 119 127 141
100 776 224 84 91 100
100 777 224 87 92 102
100 778 224 89 95 104
100 779 224 94 100 110
100 779 225 91 97 106
100 780 224 103 109 120
100 780 225 93 100 111
100 781 224 108 115 127
100 781 225 95 103 114
101 780 224 109 116 127
101 781 224 112 120 131
100 782 224 112 119 131
100 782 225 100 108 119
100 783 225 100 107 118
101 782 224 113 121 132
101 783 224 108 115 127
100 782 226 92 99 110
100 783 226 92 99 110
96 776 232 105 111 122
96 777 232 104 111 122
96 777 233 108 114 125
96 778 232 105 112 125
96 778 233 109 115 127
96 779 232 116 123 136
96 779 233 113 119 131
96 778 234 109 116 127
96 778 235 109 115 127
96 779 234 109 115 127
96 779 235 107 114 126
96 778 236 109 114 125
96 779 236 105 112 124
96 779 237 104 112 124
96 779 238 105 112 124
96 779 239 109 116 128
96 780 233 116 123 135
97 780 232 127 134 148
97 780 233 119 127 140
97 781 232 117 127 142
97 781 233 113 123 138
96 780 234 110 117 131
96 780 235 108 116 129
96 781 234 110 120 135
96 781 235 110 119 134
97 781 234 111 121 136
97 782 232 125 135 150
97 782 233 123 132 147
97 783 232 126 135 150
97 783 233 127 137 152
96 782 235 118 128 142
97 782 234 125 134 149
97 782 235 127 135 150
97 783 234 128 137 151
97 783 235 128 136 150
98 783 232 117 127 141
96 780 236 106 114 127
96 780 237 108 116 128
96 781 236 110 118 131
96 781 237 112 119 132
96 780 238 112 119 132
96 780 239 115 122 135
96 781 238 112 119 132
96 781 239 112 120 133
96 782 236 115 123 137
96 782 237 110 118 130
96 783 236 120 127 140
96 783 237 111 119 131
97 783 236 126 134 147
97 783 237 117 125 137
96 782 238 108 115 127
96 782 239 107 115 127
96 783 238 107 114 126
96 783 239 105 112 124
96 775 255 116 122 134
96 780 240 116 124 138
96 780 241 122 130 143
96 781 240 115 124 137
96 781 241 120 128 140
96 780 242 123 130 143
96 780 243 110 117 128
96 781 242 118 125 137
96 781 243 109 116 128
96 782 240 107 115 127
96 782 241 106 114 127
96 783 240 103 111 123
96 783 241 103 111 123
96 782 242 104 112 124
96 782 243 102 110 123
96 783 242 104 112 124
96 783 243 105 113 126
96 780 244 104 111 122
96 780 245 105 112 124
96 781 244 103 110 122
96 781 245 109 116 128
96 780 246 112 120 133
96 780 247 121 129 142
96 781 246 118 126 140
96 781 247 126 135 149
96 782 244 105 112 125
96 782 245 111 118 130
96 783 244 107 114 127
96 783 245 114 121 134
96 782 246 120 127 140
96 782 247 126 134 148
96 783 246 120 128 141
96 783 247 125 132 147
97 783 247 124 132 147
96 779 248 111 118 132
96 779 249 112 120 134
96 778 250 123 129 142
96 778 251 120 127 141
96 779 250 119 125 139
96 779 251 118 124 138
96 776 253 116 124 138
96 777 252 118 126 140
96 777 253 116 124 138
96 776 254 117 124 137
96 776 255 118 125 138
96 777 254 118 126 139
96 777 255 121 128 140
96 778 252 117 124 137
96 778 253 116 123 137
96 779 252 117 124 137
96 779 253 117 124 138
97 779 253 117 125 139
96 778 254 119 126 139
96 778 255 120 126 139
96 779 254 118 126 139
97 778 255 120 127 139
97 779 254 119 126 140
97 779 255 121 128 140
96 780 248 120 128 142
96 780 249 119 126 141
96 781 248 129 138 153
96 781 249 124 133 147
96 780 250 119 126 140
96 780 251 118 126 139
96 781 250 122 129 143
97 780 251 121 128 141
97 781 250 122 130 143
97 781 251 125 132 145
96 782 248 130 139 154
97 782 248 128 137 152
97 782 249 124 133 148
97 783 248 126 134 149
97 783 249 126 134 150
97 782 250 124 132 146
97 782 251 130 137 152
97 783 250 128 136 151
97 783 251 133 141 157
98 783 249 129 137 153
98 783 250 133 141 157
98 783 251 143 152 169
96 780 252 119 126 140
97 780 252 123 131 145
97 780 253 123 131 146
97 781 252 129 136 150
97 781 253 130 138 153
97 780 254 125 133 147
97 780 255 127 135 149
97 781 254 131 140 155
97 782 252 133 142 157
98 781 253 132 141 156
98 780 255 134 141 155
98 781 254 135 144 159
98 781 255 138 146 162
98 782 252 136 146 162
98 782 253 139 149 165
98 783 252 156 165 183
98 783 253 156 166 184
99 783 252 175 184 202
99 783 253 162 172 191
98 782 254 142 152 169
98 782 255 143 152 169
98 783 254 147 158 177
99 782 255 145 154 171
99 783 254 146 157 176
99 783 255 143 152 170
100 783 255 140 150 168
99 784 227 97 104 114
99 785 227 99 106 117
98 784 229 113 120 133
99 784 228 102 109 122
99 784 229 108 116 128
99 785 228 100 107 119
99 785 229 102 110 121
98 784 230 111 118 132
98 784 231 112 121 135
98 785 230 104 112 126
98 785 231 108 116 130
99 785 230 105 112 124
99 786 228 101 107 118
99 786 229 104 110 121
99 787 229 103 110 122
98 786 231 110 117 129
99 786 230 109 115 126
99 786 231 110 116 129
99 787 230 107 114 126
99 787 231 111 118 130
99 788 230 106 113 124
99 788 231 109 115 127
99 789 231 108 114 126
100 784 225 94 101 112
100 785 225 96 103 114
101 784 224 98 105 117
101 784 225 94 101 112
101 785 224 97 104 115
101 785 225 97 103 114
100 784 226 94 100 111
100 784 227 97 104 115
100 785 226 97 104 115
100 785 227 99 105 117
101 786 224 99 106 117
101 786 225 99 106 117
101 787 224 99 106 117
101 787 225 101 108 120
100 786 226 100 107 118
100 786 227 99 106 117
100 787 226 101 108 120
100 787 227 101 109 121
101 786 226 100 107 118
101 787 226 103 111 122
101 787 227 103 111 123
102 787 224 100 107 118
100 786 228 102 108 119
100 787 228 103 110 122
100 787 229 103 110 121
