ply
format ascii 1.0
comment PCL generated
element vertex 2228
property float x
property float y
property float z
property uchar red
property uchar green
property uchar blue
element camera 0
property float view_px
property float view_py
property float view_pz
property float x_axisx
property float x_axisy
property float x_axisz
property float y_axisx
property float y_axisy
property float y_axisz
property float z_axisx
property float z_axisy
property float z_axisz
property float focal
property float scalex
property float scaley
property float centerx
property float centery
property int viewportx
property int viewporty
property float k1
property float k2
end_header
309 582 197 80 84 92
308 582 198 80 84 91
308 582 199 81 85 92
308 583 198 80 84 92
308 583 199 80 85 93
309 582 198 79 83 91
309 582 199 81 84 92
310 580 196 79 85 95
310 580 197 87 92 102
310 581 196 77 83 92
310 581 197 79 85 94
310 580 198 105 109 119
310 580 199 99 103 113
310 581 198 82 88 97
310 581 199 83 88 97
307 583 200 82 86 94
307 583 201 80 85 94
307 583 202 77 83 91
307 583 203 78 83 92
307 583 204 77 82 91
307 583 205 77 83 93
307 583 206 88 94 103
307 583 207 97 102 111
311 579 200 84 91 100
311 579 201 78 84 94
311 579 202 81 86 95
311 579 203 85 90 99
311 579 204 91 96 105
311 579 205 91 96 105
311 579 206 85 89 100
311 579 207 80 84 95
309 581 200 80 85 92
309 581 201 79 83 91
309 581 202 78 83 92
309 581 203 78 83 93
308 582 200 80 84 92
308 582 201 80 84 92
308 583 200 81 85 93
309 582 200 80 84 92
309 582 201 80 85 93
308 582 202 81 86 94
308 582 203 80 85 94
308 583 202 81 86 94
308 583 203 80 85 94
309 582 202 81 86 94
309 582 203 79 85 94
310 580 200 84 90 99
310 580 201 78 83 92
310 581 201 79 83 92
311 580 201 79 85 94
310 580 202 78 83 92
310 580 203 78 84 93
310 581 202 79 84 92
310 581 203 78 83 93
311 580 202 77 83 92
311 580 203 78 84 94
309 581 204 78 84 93
309 581 205 83 89 98
309 581 206 86 91 101
308 582 204 78 83 92
308 582 205 78 83 92
308 583 204 77 83 93
308 583 205 77 83 92
309 582 204 78 83 92
309 582 205 78 84 94
308 583 206 83 89 98
308 583 207 91 96 106
309 582 206 79 85 95
309 582 207 80 86 95
310 580 204 91 97 106
310 580 205 102 107 116
310 581 204 84 90 99
310 581 205 95 100 110
311 580 204 92 97 107
311 580 205 101 106 115
310 580 206 98 102 112
310 580 207 88 93 102
310 581 206 95 100 109
310 581 207 85 90 99
311 580 206 92 97 107
311 580 207 83 89 99
305 587 194 96 102 113
305 587 195 95 102 113
306 585 193 98 105 116
307 584 192 86 91 100
307 584 193 83 89 99
307 585 192 109 114 125
307 585 193 100 106 117
306 585 194 98 105 116
306 585 195 90 97 108
307 584 194 83 90 100
307 584 195 81 87 97
307 585 194 91 98 109
306 586 192 111 117 127
306 586 193 107 113 124
306 587 192 103 109 120
306 587 193 101 107 117
307 586 192 111 116 126
306 586 194 101 108 119
306 586 195 96 104 116
306 587 194 100 107 118
306 587 195 107 113 125
305 585 199 84 90 99
305 586 196 91 98 108
305 586 197 86 92 102
305 587 196 86 93 103
305 587 197 85 92 102
304 587 198 88 94 105
304 587 199 89 96 108
305 586 198 87 93 103
305 586 199 85 91 101
305 587 198 86 93 103
305 587 199 84 91 102
306 584 197 80 85 95
306 585 196 84 90 101
306 585 197 83 89 99
307 584 196 80 86 96
307 584 197 80 86 95
306 584 198 81 87 96
306 584 199 81 86 95
306 585 198 85 91 100
306 585 199 84 89 99
307 584 198 80 85 94
307 584 199 80 85 94
306 586 196 90 97 108
306 586 197 88 94 103
305 588 193 87 93 104
305 589 192 87 94 104
305 589 193 86 92 102
304 589 195 83 89 99
305 588 194 86 94 104
305 588 195 84 92 102
305 589 194 83 90 100
305 589 195 82 89 99
304 591 193 84 91 101
305 590 192 87 93 103
305 590 193 86 92 101
305 591 192 89 95 105
305 591 193 86 92 102
304 590 194 85 91 100
304 590 195 84 90 100
304 591 194 85 91 101
304 591 195 84 89 99
305 590 194 85 92 101
305 591 194 85 91 101
306 588 192 90 96 107
306 588 193 87 94 105
306 589 192 87 94 105
304 588 196 86 92 102
304 588 197 88 94 104
304 589 196 86 92 102
304 589 197 93 99 109
305 588 196 84 90 101
305 588 197 86 93 103
304 588 198 94 101 111
304 588 199 107 113 125
304 589 198 109 114 125
304 589 199 107 113 124
304 590 196 85 91 101
304 590 197 89 95 105
304 591 196 82 88 97
304 591 197 83 89 98
304 590 198 100 106 117
308 584 192 81 86 94
305 585 200 85 91 101
305 585 201 93 99 109
305 585 202 96 102 113
305 585 203 87 93 104
304 586 201 99 105 117
304 587 200 92 101 112
304 587 201 100 108 120
305 586 200 86 94 104
305 586 201 98 105 115
304 586 202 110 117 129
304 586 203 104 110 122
304 587 202 99 108 119
304 587 203 100 107 118
305 586 202 111 117 128
305 586 203 104 110 121
306 584 200 81 86 96
306 584 201 79 85 94
306 585 200 84 90 99
306 585 201 85 91 101
307 584 200 81 86 94
306 584 202 78 84 94
306 584 203 79 84 94
306 585 202 80 87 97
306 585 203 81 87 97
307 584 202 78 83 92
307 584 203 78 83 92
305 585 204 85 91 101
305 585 205 83 89 98
305 585 206 82 88 97
304 586 204 91 97 107
304 586 205 83 89 99
304 587 204 95 102 112
304 587 205 84 90 100
305 586 204 90 96 107
305 586 205 83 88 98
304 587 206 81 87 97
304 587 207 80 86 96
305 586 206 82 87 96
305 586 207 81 86 96
305 587 207 81 87 97
306 584 204 78 84 94
306 584 205 78 84 94
306 585 204 82 87 97
306 585 205 81 87 96
307 584 204 77 82 92
307 584 205 78 85 94
306 584 206 83 89 98
306 584 207 89 95 105
306 585 206 84 89 99
306 585 207 84 90 100
307 584 206 86 92 102
307 584 207 94 100 109
304 588 200 104 112 124
312 577 192 82 88 98
312 577 193 81 86 95
313 576 192 86 91 101
313 576 193 87 91 100
313 577 192 82 88 97
313 577 193 82 86 94
312 577 194 82 88 97
312 577 195 83 88 98
313 576 194 86 91 100
313 576 195 85 90 100
313 577 194 82 88 96
313 577 195 83 88 97
312 578 192 80 86 95
312 578 193 79 84 93
312 579 192 78 83 91
312 579 193 78 83 91
312 578 194 80 85 94
312 578 195 80 85 94
312 579 194 79 84 92
312 579 195 81 85 93
312 577 196 85 89 96
312 577 197 85 89 96
313 576 196 88 93 103
313 576 197 101 106 116
313 577 196 85 89 96
313 577 197 88 93 101
312 577 198 89 94 104
312 577 199 85 92 103
313 576 198 107 114 126
313 576 199 92 101 114
313 577 198 94 100 109
313 577 199 88 96 109
312 578 196 83 87 95
312 578 197 83 87 96
312 579 196 82 86 94
312 579 197 80 85 94
312 578 198 83 89 98
312 578 199 82 88 98
312 577 200 80 88 99
312 577 201 83 89 98
313 576 200 84 93 106
313 576 201 87 93 103
313 577 201 84 90 99
312 577 202 84 89 97
312 577 203 85 89 98
313 576 202 88 93 103
313 576 203 89 94 103
313 577 202 85 89 98
312 578 200 80 85 94
312 578 201 82 87 96
312 578 202 84 89 98
312 578 203 85 90 99
312 576 205 90 93 101
312 577 204 87 92 100
312 577 205 86 91 100
313 576 204 90 94 102
313 576 205 91 94 102
312 576 206 94 98 106
312 576 207 104 108 118
312 577 206 85 90 99
312 577 207 86 91 100
313 576 206 96 99 107
312 578 204 85 91 100
312 578 205 81 88 97
312 578 206 81 87 96
312 578 207 83 87 96
311 577 209 83 89 99
311 576 211 91 96 105
311 577 210 82 87 96
311 577 211 83 88 96
311 578 208 84 88 97
311 578 209 83 88 97
311 579 208 79 84 94
311 579 209 81 85 94
311 578 210 83 87 95
311 578 211 86 90 99
311 579 210 82 86 93
311 579 211 84 89 97
311 576 212 86 91 99
311 576 213 88 91 98
311 577 212 84 88 96
311 577 213 86 90 98
310 576 215 88 92 100
310 577 215 87 91 100
311 576 214 89 93 100
311 576 215 90 95 103
311 577 214 87 92 100
311 577 215 88 93 101
310 579 212 102 106 115
310 579 213 108 112 122
311 578 212 96 100 108
311 578 213 100 105 113
311 579 212 96 101 110
311 579 213 109 114 123
310 578 214 95 100 110
310 578 215 86 91 100
310 579 214 102 107 117
310 579 215 92 97 106
311 578 214 92 97 106
308 583 208 96 101 110
308 583 209 89 94 104
309 582 208 80 85 93
309 582 209 78 83 92
309 583 209 85 90 99
308 583 210 82 87 97
308 583 211 81 87 96
309 582 210 78 83 91
309 582 211 79 84 92
309 583 210 80 86 95
309 583 211 79 85 94
310 580 208 81 86 95
310 580 209 80 84 92
310 581 208 80 84 93
310 581 209 77 81 89
311 580 208 79 84 95
311 580 209 81 85 93
310 580 210 80 85 92
310 580 211 80 85 93
310 581 210 78 83 91
310 581 211 78 83 91
311 580 210 81 85 92
311 580 211 79 84 92
309 581 213 80 86 94
309 580 215 81 86 95
309 581 214 82 86 94
309 581 215 82 86 95
308 583 212 85 90 99
308 583 213 94 100 110
309 582 212 78 83 92
309 582 213 81 86 95
309 583 212 80 85 93
309 583 213 88 93 103
308 583 214 101 106 116
308 583 215 92 98 109
309 582 214 84 89 97
309 582 215 83 88 97
309 583 214 93 98 107
309 583 215 85 91 101
310 580 212 82 87 95
310 580 213 88 93 102
310 581 212 77 82 91
310 581 213 78 84 94
310 580 214 86 92 101
310 580 215 86 92 101
310 581 214 81 87 96
306 576 219 85 89 96
306 577 219 86 91 98
307 576 218 90 95 103
307 576 219 85 89 97
307 577 219 89 93 101
307 578 219 85 89 97
307 579 219 83 88 96
304 576 221 90 93 100
304 577 221 97 100 108
305 576 220 86 90 97
305 576 221 88 92 99
305 577 220 85 89 97
305 577 221 86 90 98
304 577 222 103 106 113
304 578 221 96 100 107
305 578 221 85 90 98
305 579 221 86 91 99
304 578 222 99 102 109
304 579 222 90 94 102
305 579 222 86 91 99
306 576 220 84 88 95
306 577 220 84 88 96
306 578 220 84 88 96
306 578 221 85 90 98
306 579 220 85 90 98
306 579 221 86 91 99
307 579 220 84 89 98
304 580 222 86 91 99
304 580 223 85 90 98
304 581 223 85 90 98
305 580 222 86 91 99
305 581 222 85 90 99
305 581 223 84 89 98
305 582 223 85 90 99
306 580 221 85 90 98
307 580 220 84 89 98
307 580 221 85 90 98
307 581 221 86 91 99
306 580 222 85 90 99
306 581 222 85 90 99
307 581 222 86 91 99
307 582 221 88 93 101
307 583 221 87 92 101
306 582 222 86 91 100
306 582 223 85 91 100
306 583 223 86 93 103
307 582 222 87 92 100
307 583 222 88 93 102
307 583 223 86 92 102
308 576 217 98 103 112
309 576 216 89 94 102
309 576 217 103 107 115
309 577 216 90 95 103
309 577 217 95 100 108
308 576 218 103 107 116
308 577 218 98 101 109
309 578 216 84 89 97
309 578 217 86 91 100
309 579 216 82 88 96
309 579 217 84 89 98
308 578 218 90 94 101
308 578 219 88 92 100
308 579 218 84 89 98
308 579 219 83 88 96
309 578 218 88 93 102
309 579 218 83 89 98
310 576 216 85 90 98
310 577 216 86 90 98
310 578 216 84 89 97
310 579 216 84 89 98
309 580 216 82 87 96
309 580 217 81 86 95
309 581 216 83 88 97
309 581 217 82 87 96
308 580 219 83 88 97
308 581 219 83 88 97
309 580 218 82 87 96
309 580 219 82 87 96
309 581 218 81 86 95
309 581 219 82 87 96
308 583 216 90 96 106
308 583 217 86 91 101
309 582 216 84 90 98
309 582 217 82 88 97
309 583 216 87 93 102
309 583 217 84 89 98
308 582 219 82 87 96
308 583 218 81 86 95
308 583 219 82 87 97
309 582 218 81 86 94
309 582 219 80 86 95
309 583 218 81 86 95
310 580 216 85 91 100
308 580 220 84 89 97
308 581 220 86 90 99
308 582 220 86 91 100
308 582 221 88 93 102
308 583 220 85 90 99
308 583 221 87 92 100
304 587 208 79 86 96
304 587 209 79 86 95
305 586 208 79 85 95
305 586 209 77 83 93
305 587 208 80 86 95
304 587 210 77 83 93
304 587 211 75 82 92
305 586 210 77 82 91
305 586 211 78 83 92
305 587 210 75 81 90
305 587 211 75 81 90
306 585 208 83 89 99
306 585 209 79 85 94
307 584 208 92 98 107
307 584 209 84 90 99
307 585 209 79 85 94
306 585 210 77 83 91
306 585 211 77 83 92
307 584 210 80 86 95
307 584 211 78 85 94
307 585 210 78 84 93
307 585 211 78 84 94
306 586 209 78 83 92
306 586 210 77 83 92
306 586 211 77 82 91
304 587 212 77 83 93
304 587 213 81 87 96
305 586 212 76 82 91
305 586 213 76 82 91
305 587 212 76 82 91
305 587 213 78 84 93
305 586 214 78 84 93
305 587 214 78 83 92
305 587 215 78 84 93
306 585 212 78 84 94
306 585 213 78 85 94
307 584 212 82 89 98
307 584 213 91 97 107
307 585 212 79 86 96
307 585 213 84 91 101
306 585 214 80 88 98
307 584 214 94 100 110
307 584 215 92 99 109
307 585 214 88 95 105
307 585 215 91 97 107
306 586 212 77 83 92
306 586 213 76 83 92
306 586 214 78 85 94
306 586 215 78 85 95
304 588 209 85 91 101
304 588 210 89 95 105
304 588 211 84 91 101
304 588 212 82 88 98
304 588 213 82 87 96
304 588 214 77 82 91
304 588 215 76 81 89
308 584 211 80 86 95
308 584 212 86 92 102
308 584 213 95 101 111
308 584 214 98 104 114
308 584 215 96 102 112
305 587 216 80 85 94
305 587 217 78 84 93
305 587 218 79 85 95
305 587 219 87 94 104
307 584 216 93 98 108
307 584 217 87 93 103
307 585 216 87 93 103
307 585 217 82 88 98
307 584 218 82 88 98
307 584 219 82 88 97
307 585 218 79 85 95
307 585 219 80 87 97
306 586 216 81 87 97
306 586 217 79 86 96
306 586 218 76 83 93
306 586 219 77 84 94
306 587 219 82 89 100
305 587 220 91 98 108
305 587 221 89 96 106
305 587 222 90 97 107
305 587 223 92 98 109
307 584 220 82 88 97
307 584 221 83 89 99
307 585 220 81 87 97
307 585 221 83 90 99
306 584 223 99 106 116
306 585 223 98 105 116
307 584 222 86 93 102
307 584 223 90 97 107
307 585 222 87 94 105
306 586 220 85 92 102
306 586 221 88 94 104
306 587 220 88 95 105
306 587 221 94 100 109
306 586 222 91 97 108
306 586 223 94 102 113
306 587 222 93 99 109
306 587 223 97 103 113
304 588 216 76 81 90
304 588 217 76 82 91
305 588 216 79 84 93
305 588 217 78 84 93
304 588 218 74 81 91
304 588 219 74 82 92
304 589 218 72 78 87
304 589 219 69 76 86
305 588 218 76 83 93
305 588 219 81 88 99
304 588 221 86 92 102
304 589 220 77 84 94
304 589 221 83 89 99
305 588 220 88 94 105
305 588 221 89 95 105
304 588 222 83 89 99
304 588 223 79 86 97
304 589 222 83 89 99
304 589 223 76 83 92
305 588 222 84 91 101
305 588 223 84 91 101
308 584 216 94 100 110
308 584 217 86 92 102
308 584 218 80 87 96
308 584 219 81 87 96
308 584 220 81 87 96
308 584 221 83 89 98
312 576 208 113 118 128
312 576 209 105 112 123
312 577 208 89 94 103
312 577 209 87 93 103
312 576 210 97 106 118
312 576 211 96 103 114
312 577 210 84 91 102
312 578 208 86 91 98
312 578 209 85 90 99
312 576 212 90 95 105
304 592 193 83 90 100
304 593 193 82 90 100
305 592 192 93 100 110
305 592 193 85 92 102
305 593 192 93 101 112
304 592 194 84 90 99
304 592 195 82 87 96
304 593 194 80 86 96
304 593 195 78 84 93
304 594 193 89 96 107
304 595 193 96 101 110
305 594 192 101 108 120
305 595 192 107 114 124
305 595 193 104 109 119
304 594 194 79 86 96
304 594 195 81 86 95
304 595 194 84 90 99
304 595 195 82 87 96
304 592 196 80 86 94
304 593 196 79 85 93
304 594 196 81 87 96
304 594 197 82 87 96
304 595 196 80 86 94
304 595 197 77 83 92
304 596 193 88 93 101
305 596 192 89 96 105
305 596 193 86 91 100
305 597 192 80 86 95
305 597 193 82 87 95
304 596 194 81 87 95
304 596 195 81 87 95
304 597 194 82 87 96
304 597 195 83 88 97
305 598 192 81 86 94
305 598 193 82 87 95
305 599 192 81 86 94
305 599 193 80 85 93
304 598 194 86 91 100
304 598 195 94 99 107
304 599 195 94 99 107
305 598 194 82 87 96
305 599 194 83 89 97
305 599 195 88 94 102
304 596 196 80 85 94
304 596 197 77 83 92
304 597 196 82 88 97
304 597 197 79 85 94
304 596 198 78 84 92
304 597 198 78 83 92
304 598 196 95 100 109
304 598 197 85 91 100
304 599 196 90 95 104
304 599 197 82 88 97
304 598 198 76 82 91
304 598 199 74 80 88
304 599 198 76 82 91
304 599 199 73 79 88
304 599 200 74 80 88
305 600 192 79 84 92
305 600 193 78 83 91
305 601 192 77 82 90
305 601 193 77 82 90
305 600 194 78 83 91
305 600 195 81 87 95
305 601 194 77 82 90
305 601 195 76 82 91
305 602 192 77 82 90
305 602 193 78 83 91
305 602 194 76 81 89
305 602 195 76 82 91
305 603 194 74 79 88
305 603 195 80 85 94
306 602 192 77 82 90
306 603 192 76 82 90
306 603 193 75 81 89
306 603 194 75 80 88
304 600 196 80 86 94
304 600 197 76 82 91
304 601 197 74 80 89
305 600 196 78 84 93
305 601 196 75 81 89
305 601 197 73 80 88
304 600 198 76 82 90
304 600 199 74 80 89
304 601 198 75 81 89
304 601 199 74 80 88
305 602 196 77 83 92
305 602 197 75 82 90
305 603 196 87 92 101
305 603 197 86 91 100
304 602 198 76 82 91
304 602 199 73 79 87
304 603 199 78 84 91
305 602 198 76 83 91
305 603 198 81 87 96
305 603 199 83 88 96
306 604 192 78 84 92
306 604 193 75 80 88
306 605 192 82 87 95
306 605 193 76 81 89
306 604 194 75 81 88
306 604 195 84 89 98
306 605 194 72 78 85
306 605 195 77 83 91
306 606 192 77 83 91
306 606 193 71 77 85
307 606 192 74 80 88
307 606 193 71 76 84
307 607 192 72 77 85
307 607 193 70 75 83
306 606 194 70 75 82
306 606 195 69 74 81
306 607 194 68 73 80
306 607 195 68 73 80
307 607 194 69 73 81
305 604 196 92 97 106
305 604 197 94 99 108
305 605 197 88 94 102
305 604 198 87 92 101
305 604 199 83 88 96
305 605 198 82 88 96
305 605 199 77 83 90
305 606 198 70 76 84
305 606 199 71 77 84
305 607 198 65 70 78
305 607 199 66 71 78
306 604 196 91 96 104
306 605 196 85 91 99
306 605 197 84 90 98
306 606 196 71 77 84
306 606 197 72 78 85
306 607 196 69 74 81
306 607 197 70 75 82
306 606 198 69 75 82
306 607 198 67 72 79
304 600 200 73 79 87
304 601 200 73 78 87
304 601 201 72 77 85
304 602 200 72 77 85
304 602 201 72 77 85
304 603 200 73 78 86
304 603 201 70 75 83
304 603 202 69 74 81
304 604 200 77 81 89
304 604 201 70 75 83
304 605 200 75 80 87
304 605 201 67 72 80
305 605 200 74 79 86
304 604 202 69 74 81
304 605 202 68 73 80
304 606 201 68 72 79
304 607 201 71 75 82
305 606 200 70 74 81
305 607 200 67 71 78
305 607 201 68 73 79
304 606 202 70 75 82
304 607 202 75 79 85
304 607 203 78 82 88
288 576 230 86 91 100
288 576 231 84 89 98
288 577 231 85 90 98
289 576 230 93 99 108
289 577 230 90 95 104
289 577 231 88 93 102
288 578 231 82 87 95
289 578 231 84 89 97
289 579 231 80 85 93
290 576 229 94 99 109
291 576 229 88 94 103
291 577 229 82 88 98
290 576 230 94 99 108
290 577 230 86 92 101
291 577 230 81 87 96
290 578 230 83 89 97
290 578 231 81 87 95
290 579 231 80 85 93
291 578 230 81 87 96
291 579 230 80 85 94
291 579 231 80 85 93
290 580 231 80 84 91
291 580 231 79 84 91
291 581 231 76 81 89
294 576 227 86 92 102
295 576 227 88 94 104
295 577 227 94 100 109
292 576 229 84 90 99
292 577 229 81 87 96
293 576 228 85 91 100
293 577 228 85 91 100
293 577 229 84 89 98
292 578 229 81 87 96
293 578 229 84 89 98
293 579 229 83 88 96
292 578 230 81 86 95
292 579 230 79 85 93
293 579 230 81 87 95
294 576 228 87 93 102
294 577 228 88 94 103
295 577 228 92 98 108
294 578 228 87 93 102
294 578 229 86 91 100
294 579 229 84 89 98
295 578 228 89 95 104
295 579 228 85 91 100
295 579 229 83 89 97
292 580 230 79 85 93
292 580 231 79 84 92
292 581 231 77 82 90
293 580 230 80 85 94
293 580 231 79 85 93
293 581 230 80 86 94
293 581 231 78 84 92
292 582 231 75 81 89
293 582 231 79 84 92
293 583 231 76 82 90
294 580 229 82 87 96
295 580 228 81 87 95
295 580 229 82 88 97
295 581 229 87 93 102
294 580 230 83 88 97
294 581 230 87 92 101
295 582 229 90 95 104
294 582 230 87 91 99
294 583 230 82 87 95
294 583 231 78 83 91
295 582 230 89 95 103
295 583 230 81 86 95
295 583 231 76 82 90
288 578 232 81 86 94
288 579 232 79 84 91
289 579 232 80 85 93
288 580 232 78 83 90
288 580 233 76 81 89
288 581 233 75 80 88
289 580 232 79 84 91
289 580 233 78 83 90
289 581 233 76 81 89
288 581 234 76 81 89
289 582 233 75 81 89
288 582 234 84 88 96
288 583 234 90 95 103
288 583 235 85 91 99
289 582 234 80 86 94
289 583 234 84 90 98
289 583 235 83 89 98
290 580 232 79 84 91
290 581 232 77 82 89
290 581 233 76 81 89
291 581 232 76 81 89
290 582 233 75 81 89
290 583 233 76 83 91
291 582 232 76 82 90
291 582 233 75 81 89
291 583 233 81 87 95
290 583 234 83 89 98
292 582 232 76 81 89
292 583 232 77 83 91
292 583 233 83 89 97
293 583 232 76 82 90
294 584 231 74 80 88
295 584 231 75 80 88
295 585 231 74 80 88
288 584 235 86 91 99
289 584 235 85 91 100
289 585 235 81 87 95
291 584 233 90 95 103
290 584 234 89 94 102
290 584 235 88 93 101
290 585 234 86 92 99
290 585 235 83 88 96
291 584 234 88 94 102
291 585 234 87 92 99
290 586 235 80 85 92
291 586 234 85 90 98
291 586 235 84 89 97
291 587 235 85 89 96
288 584 236 87 92 99
288 585 236 84 89 96
289 585 236 80 86 93
288 586 236 79 84 92
288 586 237 80 85 92
288 587 237 74 78 85
289 586 236 75 80 88
289 587 236 73 78 85
289 587 237 73 78 84
290 586 236 76 81 89
290 587 236 77 82 89
290 587 237 74 78 85
291 587 236 80 85 92
289 588 237 72 76 83
288 588 238 72 76 83
289 588 238 73 77 83
289 589 238 73 77 82
290 588 237 72 77 84
290 589 237 71 76 83
291 588 236 74 79 86
291 588 237 73 78 85
291 589 237 72 77 84
290 589 238 71 76 82
291 589 238 74 79 85
290 590 238 72 76 82
291 590 238 75 79 85
292 584 233 88 93 101
292 585 233 89 94 102
293 584 232 79 85 93
293 584 233 88 93 101
293 585 232 77 83 91
293 585 233 80 85 93
292 585 234 86 91 99
293 586 233 74 80 88
292 586 234 84 88 96
292 587 235 81 85 92
293 586 234 77 82 90
293 587 234 77 81 89
293 587 235 77 81 88
294 584 232 76 82 90
294 585 232 75 80 88
295 585 232 74 80 88
294 586 233 73 79 86
295 586 232 73 78 86
295 586 233 73 78 86
295 587 233 75 79 86
294 586 234 75 79 87
294 587 234 74 78 85
295 587 234 74 79 86
292 587 236 79 83 90
293 588 235 75 79 85
294 588 235 74 77 83
294 589 235 74 78 84
295 588 234 74 78 84
295 588 235 74 78 84
295 589 235 74 78 84
292 588 236 76 81 87
292 588 237 74 79 86
292 589 237 76 80 87
293 588 236 74 78 85
293 589 236 76 80 86
293 589 237 77 81 88
293 590 237 80 84 90
292 590 238 80 84 90
292 591 238 78 82 88
293 590 238 83 87 94
293 591 238 74 78 85
294 589 236 75 79 85
295 589 236 74 78 83
294 590 236 76 79 85
294 590 237 76 79 85
294 591 237 73 77 83
295 590 236 73 77 82
295 590 237 72 76 82
295 591 237 70 74 79
294 591 238 69 74 80
296 576 226 87 93 102
296 576 227 89 95 104
296 577 226 94 99 108
296 577 227 94 100 109
297 576 226 85 91 100
297 577 226 90 95 104
296 578 227 86 91 100
296 579 227 80 86 94
297 578 226 85 91 99
297 578 227 86 92 100
297 579 227 81 86 95
298 576 225 84 89 98
298 577 225 83 88 96
299 576 224 84 88 96
299 576 225 84 88 96
299 577 225 85 89 96
298 577 226 85 90 98
299 578 225 83 88 96
299 579 225 82 87 95
298 578 226 84 89 98
298 579 226 81 87 95
298 579 227 81 86 95
299 578 226 83 88 97
299 579 226 81 87 96
296 578 228 88 94 103
296 579 228 82 88 96
297 580 227 83 89 97
298 580 226 79 85 94
298 580 227 81 87 96
298 581 227 86 91 100
299 580 226 81 87 95
299 580 227 81 87 95
299 581 226 80 86 94
299 581 227 82 87 96
299 582 227 80 86 94
296 580 228 86 91 99
296 580 229 89 94 102
296 581 228 97 102 110
296 581 229 93 98 107
297 580 228 89 93 101
297 581 228 95 100 108
296 582 229 90 96 104
296 583 229 80 86 95
297 582 228 89 94 103
297 582 229 85 91 100
297 583 229 78 84 93
296 583 230 78 84 92
298 581 228 90 96 105
298 582 228 85 91 100
298 583 228 80 86 95
298 583 229 78 84 92
299 583 228 80 86 95
300 576 224 84 88 95
300 577 224 84 87 94
300 577 225 84 88 94
301 577 224 83 86 93
300 578 224 82 87 94
300 578 225 82 87 94
300 579 225 82 88 96
301 578 224 83 87 94
301 579 224 84 90 98
302 579 224 90 94 102
300 580 225 83 89 98
301 580 224 87 94 103
301 580 225 90 96 106
301 581 225 92 98 108
300 580 226 82 88 97
300 581 226 84 90 99
301 581 226 89 95 104
300 582 226 80 86 95
300 582 227 80 86 94
300 583 227 81 87 95
301 582 226 86 92 102
301 583 226 84 90 99
301 583 227 84 90 98
302 580 224 91 97 106
302 581 224 94 100 109
302 581 225 93 99 109
303 580 224 88 94 103
303 581 224 89 95 104
302 582 225 89 96 106
303 582 224 88 94 103
303 582 225 88 94 103
303 583 225 86 92 102
302 582 226 86 93 103
302 583 226 85 92 101
302 583 227 83 89 98
303 583 226 85 91 100
300 583 228 81 86 94
297 584 229 76 82 90
296 584 230 74 80 88
296 584 231 74 80 88
296 585 231 74 80 88
297 584 230 75 81 89
297 585 230 76 82 90
297 585 231 75 81 90
296 586 231 73 79 88
297 586 231 75 81 89
298 584 229 79 84 91
299 584 229 81 86 94
299 585 229 80 85 94
298 584 230 77 82 90
298 585 230 77 83 91
298 585 231 77 83 91
299 585 230 79 85 93
298 586 231 79 85 94
299 586 230 82 88 97
299 586 231 83 89 98
299 587 231 86 93 102
301 584 227 82 87 96
302 584 227 82 88 96
303 584 226 83 89 97
303 584 227 81 87 96
303 585 227 82 86 95
303 586 227 80 85 93
303 587 227 78 83 92
300 584 228 80 85 94
300 584 229 80 86 94
300 585 229 79 85 95
301 584 228 81 86 95
301 585 228 80 86 94
301 585 229 80 86 96
300 585 230 80 86 95
300 586 229 85 92 101
301 586 229 84 91 100
301 587 229 84 92 101
300 586 230 88 95 104
300 587 230 92 99 109
300 587 231 91 98 108
301 587 230 91 97 107
302 585 228 80 86 94
303 585 228 81 86 94
302 586 228 80 86 94
302 586 229 82 88 97
302 587 229 80 86 95
303 586 228 79 85 93
303 587 228 78 83 91
303 587 229 78 83 92
302 587 230 84 91 101
303 589 225 71 78 87
303 588 227 77 83 91
303 589 226 73 79 88
303 589 227 74 80 88
302 591 224 64 69 76
302 591 225 63 68 76
303 590 224 69 75 84
303 590 225 67 73 82
303 591 224 66 72 80
303 591 225 65 71 79
302 591 226 63 68 75
302 591 227 64 69 75
303 590 226 67 73 81
303 590 227 68 73 81
300 588 231 92 99 108
300 589 231 89 95 104
301 588 230 92 98 108
301 588 231 93 99 108
301 589 230 83 88 97
301 589 231 84 90 99
301 590 230 69 74 81
301 590 231 72 78 85
301 591 230 64 69 75
301 591 231 64 69 77
302 588 229 77 83 92
302 589 229 74 79 86
303 588 228 76 81 89
303 588 229 76 81 89
303 589 228 72 78 85
302 588 230 83 89 98
302 589 230 78 83 92
302 590 228 67 71 78
302 590 229 68 72 79
302 591 228 64 68 75
302 591 229 64 68 75
303 590 228 69 74 81
302 590 230 70 75 82
302 591 230 65 69 76
296 586 232 73 79 87
296 586 233 74 79 87
296 587 233 74 79 86
297 586 232 75 81 89
297 587 232 75 80 88
297 587 233 75 81 88
298 586 232 78 84 92
298 587 232 79 84 93
299 587 232 84 91 100
296 588 233 74 79 86
297 588 233 74 79 87
296 588 234 73 77 84
296 589 234 73 77 84
296 589 235 73 77 83
297 588 234 74 79 86
297 589 234 73 78 84
296 590 235 71 75 82
297 590 234 71 75 82
297 590 235 69 74 80
297 591 235 71 75 82
298 588 233 80 85 92
298 589 233 80 83 89
299 588 232 88 92 100
299 588 233 86 90 97
299 589 233 81 85 92
298 589 234 74 79 85
299 590 233 71 75 82
299 591 233 67 72 79
298 590 234 70 75 82
298 590 235 70 74 81
298 591 234 71 75 82
298 591 235 72 77 83
299 590 234 71 74 80
299 591 234 68 73 79
296 590 236 70 75 81
296 591 236 70 75 81
296 591 237 69 73 79
297 591 236 73 77 84
300 588 232 91 97 106
300 589 232 82 88 96
300 590 232 72 78 86
300 590 233 70 75 82
300 591 232 65 70 77
300 591 233 66 70 77
301 590 232 70 76 83
301 591 232 65 70 78
295 592 238 68 72 78
295 601 224 56 61 66
295 602 224 56 60 66
295 602 225 54 58 63
295 603 224 54 58 64
295 603 225 53 57 62
295 602 226 52 56 61
295 602 227 51 55 60
295 603 226 53 56 61
295 603 227 53 56 61
295 604 224 52 56 62
295 604 225 52 56 61
295 605 224 52 56 61
295 605 225 50 54 59
295 604 226 53 56 60
295 604 227 53 56 60
295 605 226 50 53 57
295 605 227 48 51 56
295 606 224 50 54 59
295 606 225 49 53 57
295 607 224 49 53 57
295 607 225 50 53 58
295 606 226 49 52 57
295 606 227 48 51 56
295 607 226 51 54 58
295 607 227 51 54 58
295 604 228 51 54 59
295 605 228 47 51 56
295 606 228 47 51 56
295 607 228 50 53 58
299 595 224 53 57 63
299 595 225 52 56 62
299 595 226 51 55 60
299 595 227 51 55 61
299 595 228 52 57 62
299 595 229 55 60 66
299 594 230 55 60 66
299 594 231 54 58 64
299 595 230 53 57 63
299 595 231 52 56 60
297 598 224 52 55 61
297 598 225 51 54 60
297 599 224 54 58 63
297 599 225 54 57 62
297 598 226 48 53 58
297 598 227 47 51 56
297 599 226 52 56 62
297 599 227 49 53 58
298 597 224 52 55 60
298 597 225 50 54 59
299 596 224 53 56 62
299 596 225 51 54 60
299 597 225 50 54 59
298 597 226 48 52 58
298 597 227 48 52 58
299 596 226 50 54 59
299 596 227 50 54 59
298 598 224 51 55 60
298 598 225 50 54 59
298 598 226 49 53 59
298 598 227 47 51 56
297 599 228 45 50 55
297 599 229 45 50 55
297 598 231 51 53 57
297 599 230 47 51 56
297 599 231 48 51 55
298 597 228 48 52 57
298 597 229 48 53 58
299 596 228 50 54 59
299 596 229 51 55 61
298 596 230 50 54 59
298 596 231 52 55 59
298 597 230 51 55 60
298 597 231 54 57 61
299 596 230 51 55 61
299 596 231 52 55 59
298 598 228 48 52 57
298 598 229 48 51 57
298 598 230 51 54 59
298 598 231 53 55 59
301 592 224 63 67 74
301 592 225 60 64 71
301 593 224 61 65 71
301 593 225 59 63 69
301 592 226 60 64 71
301 592 227 63 67 73
301 593 226 59 63 69
301 593 227 60 64 70
300 594 224 57 61 67
300 594 225 56 60 65
300 595 224 54 58 63
300 595 225 53 57 62
300 594 226 55 59 65
300 594 227 57 61 67
300 595 226 52 56 62
300 595 227 53 58 64
301 594 226 58 61 67
301 594 227 59 63 69
302 592 224 63 68 75
302 592 225 61 66 72
302 592 226 62 66 72
302 592 227 63 67 74
301 592 228 62 67 73
301 592 229 61 66 73
301 593 228 65 69 75
301 593 229 62 68 75
300 592 231 61 65 72
300 593 230 57 62 69
300 593 231 55 60 66
301 592 230 60 65 72
301 592 231 61 66 73
301 593 230 59 64 71
300 594 228 63 67 73
300 594 229 61 66 72
300 595 228 56 60 66
300 594 230 58 62 68
300 594 231 54 59 65
302 592 228 62 67 73
299 592 233 64 68 74
299 593 233 60 64 69
298 592 235 72 76 82
298 593 235 64 68 75
299 592 234 65 70 76
299 593 234 62 66 72
299 594 232 54 57 63
299 594 233 56 59 65
299 595 232 52 55 59
299 595 233 52 55 60
298 594 235 58 62 68
298 595 234 52 55 60
298 595 235 54 57 62
299 594 234 58 62 68
299 595 234 54 58 63
296 592 237 68 72 78
296 593 237 64 68 74
297 592 236 74 78 84
297 593 236 67 72 78
297 593 237 64 69 75
296 592 238 67 71 76
297 594 237 61 65 70
298 592 236 73 77 84
298 593 236 64 69 75
298 594 236 59 63 68
298 595 236 57 61 66
297 598 232 47 50 55
297 598 233 46 49 54
297 599 232 46 49 53
297 599 233 45 49 54
297 598 234 45 48 53
298 596 232 51 54 58
298 596 233 48 51 55
298 597 232 54 56 60
298 597 233 50 52 57
299 596 232 51 54 58
298 596 234 48 51 55
298 596 235 52 55 60
298 597 234 49 52 56
298 597 235 53 56 61
298 598 232 50 53 57
298 598 233 46 49 53
298 598 234 46 49 54
300 592 232 61 66 73
300 592 233 63 67 73
300 593 232 57 61 67
300 593 233 60 64 70
300 594 232 57 61 66
296 600 224 56 60 65
296 600 225 57 60 65
296 601 224 56 60 66
296 601 225 54 58 64
297 600 225 58 62 67
296 600 226 57 60 65
296 600 227 51 55 60
296 601 226 55 58 63
296 601 227 51 55 60
297 600 226 57 61 66
297 600 227 52 56 61
296 602 226 52 56 61
296 602 227 51 55 60
296 603 227 51 54 59
296 600 228 46 50 55
296 601 228 47 51 56
296 601 229 44 48 53
297 600 228 46 50 55
297 600 229 45 49 54
297 600 230 45 49 54
297 600 231 44 48 52
297 601 230 45 49 54
297 601 231 46 49 54
296 602 228 48 52 57
296 602 229 43 48 53
296 603 228 49 52 57
296 603 229 44 48 53
296 602 230 45 48 53
296 602 231 46 50 55
296 603 230 45 48 53
296 603 231 45 49 54
297 602 230 45 49 53
297 602 231 46 49 54
296 604 228 48 52 57
296 604 229 45 49 54
296 605 228 48 52 57
296 605 229 47 51 56
296 604 230 46 50 55
296 606 229 48 51 56
296 607 228 51 55 59
297 600 232 44 47 52
297 600 233 43 47 52
297 601 232 45 48 53
304 581 224 85 90 99
304 582 224 85 90 99
304 583 224 84 90 99
304 583 225 86 92 102
305 582 224 84 90 99
305 583 224 86 93 103
304 583 226 86 92 101
306 583 224 91 98 109
304 584 225 87 94 104
305 584 224 100 106 116
305 584 225 91 97 107
305 585 225 92 99 109
304 584 226 84 90 99
304 585 226 82 88 98
304 585 227 81 87 96
305 585 226 84 91 101
305 586 224 91 99 110
305 586 225 89 96 107
305 587 224 91 98 109
305 587 225 91 97 108
304 586 226 86 92 102
304 586 227 81 87 96
304 587 226 87 93 102
304 587 227 81 87 96
305 586 226 87 94 104
305 587 226 86 93 103
306 584 224 106 112 123
306 585 224 101 108 119
306 586 224 93 100 111
304 588 224 78 85 95
304 588 225 85 91 101
304 589 224 71 78 87
304 589 225 74 81 90
305 588 224 84 90 100
304 588 226 89 94 103
304 588 227 84 89 98
304 589 226 79 85 94
303 608 203 77 80 87
303 609 203 69 73 80
303 610 202 62 66 73
303 610 203 66 70 77
303 611 202 62 67 73
303 611 203 62 67 73
300 609 207 60 65 72
301 608 206 66 72 80
301 608 207 65 71 78
301 609 206 62 67 75
301 609 207 60 66 73
301 611 205 61 66 72
300 610 207 60 65 71
300 611 207 58 62 69
301 610 206 62 67 74
301 610 207 61 66 72
301 611 206 60 65 71
301 611 207 58 63 69
302 608 205 68 73 81
302 609 205 70 75 82
303 608 204 74 79 86
303 609 204 72 77 83
302 608 206 66 72 80
302 609 206 65 70 78
302 610 204 68 72 78
302 610 205 72 76 82
302 611 204 64 68 74
302 611 205 65 69 75
303 610 204 70 74 81
303 611 204 62 66 72
303 612 202 62 67 73
303 612 203 62 66 72
303 613 202 62 66 73
303 613 203 63 67 73
302 614 203 65 69 75
302 615 203 66 70 76
303 614 202 62 67 73
303 614 203 64 68 74
303 615 202 62 67 73
303 615 203 64 68 74
301 612 205 60 65 71
301 613 205 62 66 73
300 612 207 59 63 69
300 613 207 59 63 69
301 612 206 59 64 70
301 612 207 59 63 70
301 613 206 61 65 71
301 613 207 59 64 70
301 614 205 70 73 79
301 615 205 67 70 77
300 614 207 56 61 67
301 614 206 63 67 74
301 614 207 57 62 68
301 615 206 60 64 70
301 615 207 57 61 67
302 612 204 61 65 71
302 612 205 61 65 71
302 613 204 63 67 73
302 613 205 62 67 73
303 612 204 61 65 71
302 614 204 66 70 77
302 614 205 68 73 79
302 615 204 67 71 78
302 615 205 69 72 78
303 617 201 64 68 74
302 616 203 62 66 72
302 617 203 63 67 73
303 616 202 63 67 73
303 617 202 62 66 72
303 618 201 62 67 73
303 619 201 62 67 73
302 618 203 62 66 71
302 619 202 62 66 71
302 619 203 62 66 71
303 618 202 61 65 71
303 619 202 62 66 72
301 616 205 61 65 71
301 616 206 60 64 69
301 616 207 59 63 68
301 617 206 61 64 69
301 617 207 60 63 69
301 618 207 59 62 68
302 616 204 63 67 73
302 616 205 62 66 72
302 617 204 62 66 72
302 617 205 62 65 71
302 618 204 62 66 71
302 618 205 61 65 70
302 619 204 61 65 70
302 619 205 61 64 69
302 618 206 60 63 68
302 618 207 59 63 68
302 619 206 60 63 68
302 619 207 59 62 67
303 620 201 62 67 73
303 621 201 66 71 77
302 620 202 62 66 72
302 620 203 61 65 71
302 621 203 61 66 72
303 620 202 62 66 72
303 621 202 62 67 74
303 622 200 72 76 82
303 622 201 70 75 81
303 623 200 76 80 86
303 623 201 72 76 83
302 622 203 61 65 71
302 623 203 61 65 71
303 622 202 66 71 78
303 622 203 64 68 75
303 623 202 68 73 80
303 623 203 63 68 74
301 622 206 62 65 71
301 622 207 63 67 72
301 623 206 62 66 71
301 623 207 67 71 76
302 620 204 61 64 69
302 620 205 60 63 68
302 621 204 61 64 69
302 621 205 61 65 70
302 620 206 59 62 67
302 620 207 58 62 67
302 621 206 59 63 69
302 621 207 60 64 69
302 622 204 61 65 70
302 622 205 62 65 70
302 623 204 61 64 69
302 623 205 60 64 69
302 622 206 60 64 69
302 622 207 65 68 73
302 623 206 61 65 70
302 623 207 64 68 74
295 608 216 59 63 68
295 608 217 56 60 65
295 609 216 55 59 64
295 609 217 54 58 63
295 608 218 55 58 62
295 608 219 53 56 61
295 609 218 54 57 62
295 609 219 53 56 61
295 610 218 54 58 63
295 610 219 55 59 64
295 608 220 52 55 59
295 608 221 51 54 59
295 609 220 52 55 60
295 609 221 50 54 59
295 608 222 50 54 59
295 608 223 51 54 59
295 609 222 51 55 60
295 609 223 52 56 61
295 610 220 54 58 63
295 610 221 52 56 61
295 610 222 52 56 61
295 610 223 53 57 62
299 608 209 61 65 72
299 609 209 56 61 67
298 608 210 59 64 70
298 608 211 59 63 69
298 609 210 58 62 68
298 609 211 58 62 68
299 608 210 59 63 70
299 609 210 57 62 68
299 610 209 56 61 66
299 611 209 56 60 66
298 610 210 56 60 65
298 610 211 57 61 66
298 611 210 57 60 65
298 611 211 57 60 65
299 610 210 56 60 65
299 611 210 57 60 65
297 608 212 65 69 75
297 608 213 70 74 80
297 609 212 56 60 66
297 609 213 58 62 68
296 608 214 68 72 78
296 608 215 66 69 75
296 609 214 61 64 70
296 609 215 59 63 69
297 608 214 70 74 80
297 609 214 61 65 71
297 610 212 55 59 64
297 610 213 53 57 63
297 611 212 55 59 64
297 611 213 54 58 63
296 610 214 53 57 62
296 610 215 55 58 63
296 611 215 54 57 62
297 610 214 52 56 61
297 611 214 54 57 62
297 611 215 54 57 62
298 608 212 59 64 70
298 609 212 57 61 67
298 610 212 56 60 65
298 611 212 57 60 65
299 612 209 58 62 68
299 613 209 59 63 69
298 612 210 60 64 68
298 612 211 61 64 69
298 613 210 63 66 71
298 613 211 65 68 73
299 612 210 60 63 68
299 613 210 62 66 71
299 614 209 60 64 70
299 615 209 61 65 70
298 614 211 64 67 73
299 614 210 64 67 72
299 614 211 63 66 72
299 615 210 62 66 71
299 615 211 61 65 71
297 612 212 57 61 66
297 612 213 54 58 64
297 613 213 55 59 65
297 612 214 55 59 64
297 612 215 55 58 63
297 613 214 55 59 64
297 613 215 55 59 64
298 612 212 58 62 67
298 613 212 60 64 69
298 613 213 57 61 67
298 613 214 56 59 65
298 613 215 55 59 64
298 614 212 60 64 70
298 614 213 58 62 67
299 615 212 58 62 68
299 615 213 58 62 67
298 614 214 57 60 65
298 614 215 57 61 66
298 615 214 56 60 65
298 615 215 57 60 65
299 615 214 56 60 65
299 615 215 57 60 64
300 608 208 68 73 80
300 608 209 65 69 76
300 609 208 59 64 71
300 609 209 58 63 69
300 610 208 58 63 69
300 611 208 57 62 68
300 612 208 58 62 68
300 613 208 57 62 68
300 613 209 58 62 68
300 614 208 57 61 68
300 614 209 58 62 68
300 615 208 57 61 67
300 615 209 58 62 68
300 615 210 61 65 70
296 608 216 64 68 73
296 609 216 56 60 66
296 610 216 55 58 64
296 610 217 54 58 64
296 611 216 55 58 63
296 611 217 56 59 64
296 610 218 56 60 65
296 611 218 55 59 65
296 611 219 56 60 64
296 609 223 53 56 61
296 610 221 53 56 61
296 611 220 56 59 64
296 611 221 54 57 62
296 610 222 54 58 62
296 610 223 55 59 63
296 611 222 54 57 62
296 611 223 55 58 62
297 611 223 53 56 60
296 612 217 57 60 65
297 612 216 55 58 63
297 612 217 56 59 64
297 613 216 55 58 63
297 613 217 57 60 65
296 612 218 56 60 65
296 612 219 54 58 63
297 612 218 57 61 66
297 612 219 54 58 63
297 613 218 57 61 66
297 613 219 55 59 64
298 613 216 54 58 63
298 613 217 56 59 64
298 613 218 57 60 64
298 613 219 56 59 63
298 614 216 56 60 64
298 614 217 55 58 63
299 615 216 57 60 65
299 615 217 56 60 64
298 614 218 55 58 63
298 614 219 54 57 61
299 614 218 53 56 61
299 614 219 53 56 60
299 615 218 55 58 63
299 615 219 56 59 64
296 612 220 54 57 62
296 612 221 53 56 61
297 612 220 53 57 61
297 612 221 53 57 62
297 613 220 54 57 62
297 613 221 53 57 62
297 612 222 54 57 62
297 612 223 53 56 60
298 613 220 54 58 62
298 613 221 54 57 62
298 613 222 53 56 61
298 613 223 53 57 61
299 613 223 56 60 66
298 614 220 55 58 63
298 614 221 55 58 64
299 614 220 54 57 62
299 614 221 55 60 66
299 615 220 54 57 63
299 615 221 59 63 69
298 614 222 56 60 65
298 614 223 57 61 67
299 614 222 59 63 69
299 614 223 60 65 71
299 615 222 60 64 71
300 615 220 55 59 64
300 615 221 58 63 69
300 615 222 61 66 72
300 615 223 62 67 73
299 616 211 61 65 71
299 616 212 57 61 67
299 616 213 58 62 67
299 616 214 56 60 65
299 616 215 58 62 66
300 616 208 58 62 67
300 616 209 60 63 68
301 616 208 58 63 68
301 616 209 61 64 69
301 617 208 60 63 68
301 617 209 59 63 67
300 616 210 60 63 68
300 616 211 59 63 68
300 617 210 58 61 66
300 617 211 59 63 68
301 617 210 58 61 66
301 617 211 60 64 69
301 618 208 60 63 68
301 618 209 59 63 67
301 618 210 60 63 68
301 618 211 62 65 70
302 618 208 59 63 68
302 619 208 58 62 67
302 619 209 59 62 67
302 619 210 61 64 68
302 619 211 61 65 70
300 616 212 57 61 67
300 616 213 57 61 66
300 617 212 58 62 68
300 617 213 58 62 67
301 617 212 59 63 69
301 617 213 60 64 69
300 616 214 56 60 65
300 616 215 59 62 67
300 617 214 57 61 66
300 617 215 59 62 67
301 617 214 57 61 67
301 617 215 58 62 67
301 618 212 63 66 72
301 618 213 63 66 71
301 618 214 57 61 67
301 618 215 58 62 68
302 618 213 63 66 72
302 619 212 65 69 74
302 619 213 65 68 73
302 618 214 58 63 68
302 618 215 59 63 69
302 619 214 59 63 69
302 619 215 59 64 70
301 623 208 72 75 80
302 620 208 58 61 66
302 620 209 58 62 67
302 621 208 61 65 70
302 621 209 60 64 70
302 620 210 59 62 67
302 620 211 60 63 68
302 621 210 59 63 68
302 621 211 59 63 68
302 622 208 70 73 79
302 622 209 69 73 79
302 623 208 73 76 81
302 623 209 73 76 82
302 622 210 63 67 73
302 622 211 60 63 69
302 623 210 68 72 78
303 622 211 60 63 68
303 623 211 61 65 70
302 620 212 63 66 71
302 620 213 65 68 74
303 620 212 61 65 70
303 620 213 63 67 73
303 621 212 61 64 69
303 621 213 63 66 71
303 620 214 60 64 70
303 620 215 60 65 71
303 621 214 59 64 69
303 622 212 61 64 69
303 622 213 61 64 68
303 623 212 62 64 68
303 622 214 63 66 70
299 616 216 59 62 66
300 616 216 59 62 66
300 616 217 58 61 67
300 617 216 59 62 67
300 617 217 61 65 70
301 617 216 59 63 68
301 617 217 63 67 73
300 616 218 59 63 68
300 616 219 58 63 68
300 617 218 60 65 70
301 617 218 63 67 73
301 617 219 62 67 73
301 618 216 63 67 72
301 618 217 66 70 76
302 618 216 64 68 73
302 618 217 65 70 76
302 619 216 62 67 73
302 619 217 66 70 77
303 619 217 66 71 78
302 618 218 65 70 77
302 618 219 66 71 78
302 619 218 66 71 78
302 619 219 68 73 81
303 619 218 68 73 80
303 619 219 70 75 83
300 616 220 58 62 68
300 616 221 61 65 72
301 616 221 62 67 74
301 617 220 63 68 75
301 617 221 65 70 77
300 616 222 62 68 74
300 616 223 63 69 76
301 616 222 64 69 77
301 616 223 64 70 77
301 617 222 66 72 80
302 617 220 67 72 79
302 617 221 68 74 81
302 618 220 68 73 81
302 618 221 70 75 83
302 619 220 70 75 83
303 619 220 71 77 85
303 619 221 71 77 85
303 620 216 63 68 75
303 620 217 67 72 79
303 621 217 68 74 82
303 620 218 68 73 81
303 620 219 70 76 84
303 621 218 70 75 83
303 620 220 72 77 86
303 624 201 67 72 79
303 625 201 63 68 75
302 624 203 60 64 70
303 624 202 65 70 76
303 624 203 60 65 71
303 625 202 62 67 73
303 625 203 61 65 70
303 626 202 62 66 71
303 626 203 62 66 71
302 624 204 60 64 70
302 624 205 63 66 71
302 625 204 61 65 71
302 625 205 65 69 74
303 625 204 63 67 72
303 625 205 69 72 77
302 624 206 66 69 75
302 624 207 66 70 75
302 625 206 73 76 82
302 625 207 72 75 81
303 625 206 71 75 81
303 626 204 67 70 75
303 626 205 70 73 79
303 627 204 66 69 75
303 627 205 67 71 77
302 626 207 71 75 80
303 626 206 72 76 82
303 626 207 70 74 80
303 627 206 69 73 79
303 627 207 71 74 80
301 624 208 69 73 78
302 624 208 72 76 81
302 624 209 71 76 81
302 625 208 75 78 83
302 625 209 72 76 82
303 625 209 70 75 81
302 624 210 69 73 80
302 625 210 70 74 81
303 624 210 68 72 78
303 624 211 62 66 71
303 625 210 70 74 80
303 625 211 68 72 77
302 626 208 71 75 80
303 626 208 67 71 76
303 626 209 68 72 78
303 627 208 67 71 76
303 627 209 63 68 74
303 626 210 69 73 79
307 608 192 69 74 82
307 608 193 70 74 81
307 609 192 69 74 81
307 609 193 69 74 81
306 608 195 67 72 78
307 608 194 68 73 80
307 608 195 68 72 79
307 609 194 69 73 80
307 609 195 69 73 80
307 610 193 70 75 81
307 610 194 73 78 85
307 610 195 73 78 85
307 611 194 76 82 90
307 611 195 79 84 92
305 608 198 65 70 77
305 608 199 65 70 76
305 609 199 63 68 75
305 610 199 62 67 74
305 611 199 63 68 75
306 608 196 68 72 79
306 608 197 67 71 78
306 609 196 67 72 78
306 609 197 69 73 80
307 609 196 69 73 80
306 608 198 65 70 77
306 609 198 65 69 76
306 610 197 68 73 81
306 611 197 70 76 83
307 610 196 70 76 83
307 610 197 69 75 82
307 611 196 76 82 90
307 611 197 73 79 86
306 610 198 65 70 77
306 611 198 64 70 77
307 612 194 83 88 96
307 612 195 84 90 98
307 613 194 85 90 97
307 613 195 85 90 98
307 614 194 82 87 94
307 614 195 79 84 91
307 615 194 69 74 81
307 615 195 70 75 82
305 612 199 62 67 74
305 613 199 64 69 76
305 614 198 65 70 77
305 614 199 61 66 73
305 615 198 62 66 73
305 615 199 62 66 73
306 612 197 74 79 86
306 613 197 79 84 91
307 612 196 80 86 93
307 612 197 76 82 89
307 613 196 82 87 95
307 613 197 81 86 93
306 612 198 68 73 80
306 613 198 75 79 86
306 614 196 73 78 86
306 614 197 72 77 84
306 615 196 66 70 77
306 615 197 63 68 75
307 614 196 79 84 91
307 615 196 70 75 81
306 614 198 70 74 81
306 615 198 63 68 74
308 610 192 69 73 80
308 610 193 71 76 83
308 611 192 68 73 80
308 611 193 69 75 82
308 610 194 72 77 84
308 611 194 73 78 86
308 612 192 67 72 78
308 612 193 71 76 83
308 613 192 67 72 79
308 613 193 72 77 84
308 612 194 77 82 90
308 613 194 80 85 92
308 614 192 67 72 78
308 614 193 69 74 80
308 615 193 65 70 77
309 614 192 66 71 78
309 615 192 66 71 77
309 615 193 65 69 75
308 614 194 75 80 87
308 615 194 68 72 79
304 608 201 69 73 80
304 609 201 64 68 74
305 608 200 64 69 76
305 608 201 67 71 78
305 609 200 64 68 75
305 609 201 64 69 75
304 608 202 76 79 86
304 608 203 81 85 91
304 609 202 64 69 75
304 610 201 62 67 73
304 611 201 62 66 73
305 610 200 62 67 74
305 611 200 63 67 74
304 610 202 63 67 74
304 611 202 62 66 73
304 612 201 62 66 73
304 613 201 62 66 73
305 612 200 61 66 73
305 613 200 63 67 74
304 612 202 63 67 73
304 613 202 62 67 73
304 614 200 63 67 74
304 614 201 62 67 73
304 615 200 61 66 73
304 615 201 61 66 73
305 614 200 62 67 74
305 615 200 62 67 74
304 614 202 62 67 73
304 615 202 61 66 72
307 616 194 66 70 76
307 616 195 66 70 76
307 617 194 67 70 76
307 617 195 66 69 75
306 619 195 65 68 74
307 618 194 67 70 76
307 618 195 67 70 75
307 619 194 67 70 76
307 619 195 67 70 75
305 617 197 62 66 72
305 616 198 63 68 74
305 616 199 66 71 77
305 617 198 66 70 77
305 617 199 70 74 80
305 618 197 61 66 72
305 619 197 63 67 73
304 619 199 63 67 74
305 618 198 63 67 73
305 618 199 65 69 76
305 619 198 63 67 73
305 619 199 62 66 72
306 616 196 65 69 75
306 616 197 63 67 74
306 617 196 65 68 74
306 617 197 63 67 73
306 618 196 64 68 74
306 618 197 62 66 73
306 619 196 64 68 74
306 619 197 63 67 73
306 620 195 62 67 73
306 621 195 61 66 73
307 620 194 72 75 81
307 620 195 67 70 76
307 621 194 66 69 76
307 621 195 63 67 74
307 623 193 72 76 83
306 622 195 65 70 77
306 623 195 69 74 81
307 622 194 66 71 77
307 622 195 66 71 78
307 623 194 74 78 85
307 623 195 74 79 86
305 620 197 63 67 73
305 621 197 62 66 73
304 620 199 62 67 74
304 621 198 66 70 77
304 621 199 66 71 77
305 620 198 63 67 73
305 620 199 62 66 72
305 621 198 63 67 74
305 621 199 64 68 75
305 622 196 63 67 74
305 622 197 63 67 74
305 623 196 59 64 71
305 623 197 60 65 72
304 622 198 68 72 79
304 622 199 76 79 86
304 623 198 69 73 80
304 623 199 80 83 89
305 622 198 65 69 76
305 623 198 63 68 75
306 620 196 63 67 74
306 620 197 62 66 73
306 621 196 62 66 73
306 622 196 63 68 74
306 623 196 62 67 74
308 616 193 64 68 74
308 617 193 67 70 76
309 616 192 65 70 76
309 616 193 65 69 75
309 617 192 66 71 77
309 617 193 66 70 76
308 616 194 65 69 76
308 617 194 67 71 77
308 618 193 70 73 79
308 619 193 72 76 82
309 618 192 71 75 82
309 618 193 70 74 81
309 619 192 73 77 84
309 619 193 75 79 85
308 618 194 68 71 77
308 619 194 72 75 81
308 620 193 76 79 86
308 621 192 66 71 78
308 621 193 70 75 81
309 620 192 75 79 86
309 620 193 79 82 89
309 621 192 69 74 81
308 620 194 75 78 85
308 621 194 69 73 79
308 622 192 64 69 77
308 622 193 67 71 78
308 623 192 67 71 78
308 623 193 70 73 80
309 622 192 64 69 77
309 623 192 66 70 77
304 616 200 67 72 78
304 616 201 66 70 77
304 617 200 71 75 82
304 617 201 68 72 78
304 618 200 66 71 77
304 618 201 64 68 74
304 619 200 63 67 74
304 619 201 62 67 73
304 620 200 62 67 74
304 621 200 67 71 78
304 622 200 75 78 85
304 623 200 79 82 88
304 621 214 59 64 69
304 621 215 61 66 72
304 623 212 61 64 68
304 623 213 61 64 68
304 622 214 61 65 70
304 622 215 65 69 75
304 623 214 61 65 69
304 623 215 67 71 77
305 623 214 61 66 71
305 623 215 66 71 77
304 621 216 66 71 78
304 621 217 69 74 81
304 621 218 72 77 85
304 621 219 73 78 87
304 622 216 67 72 79
304 622 217 71 76 83
305 622 216 69 74 80
305 622 217 71 76 83
305 623 216 69 74 80
305 623 217 72 77 84
304 622 218 72 78 86
305 622 218 73 78 86
305 622 219 74 80 88
305 623 218 74 79 87
305 623 219 75 81 89
304 621 220 73 79 88
306 624 195 62 67 74
306 625 195 58 63 70
307 624 194 74 78 84
307 624 195 70 75 81
307 625 194 70 73 79
307 625 195 64 68 74
307 626 194 65 68 74
307 626 195 62 66 71
307 627 195 62 65 69
305 624 197 61 65 72
305 625 197 59 64 70
304 624 198 66 71 77
304 624 199 74 77 83
304 625 199 63 67 73
305 624 198 64 68 75
305 625 198 60 65 71
305 625 199 60 65 70
304 626 199 62 66 71
305 626 198 60 64 70
305 626 199 61 65 70
305 627 199 63 65 70
306 624 196 59 64 70
306 625 196 59 63 69
306 625 197 59 64 70
306 626 196 60 63 68
306 626 197 61 65 70
306 627 197 61 65 71
307 626 196 61 64 69
307 627 196 62 65 69
307 627 197 61 65 70
306 626 198 61 65 71
306 627 198 63 66 72
306 627 199 62 66 71
307 628 195 61 64 68
305 628 199 64 67 72
306 628 197 62 66 71
307 628 196 63 65 70
307 628 197 62 66 71
307 629 196 63 66 71
307 629 197 69 72 77
306 628 198 66 69 74
306 628 199 65 68 73
306 629 198 71 74 80
306 629 199 71 74 80
307 629 198 72 75 81
307 630 197 75 78 83
306 630 199 73 77 83
307 630 198 79 83 89
307 630 199 75 80 87
307 631 198 81 85 91
307 631 199 78 83 90
308 624 192 68 72 79
308 624 193 73 76 82
308 625 192 67 71 77
308 625 193 70 73 79
309 624 192 66 71 77
309 625 192 66 70 76
308 625 194 70 73 79
308 626 193 64 67 73
308 627 193 62 65 71
309 626 192 61 65 72
309 627 192 59 64 70
309 627 193 58 62 68
308 626 194 66 70 75
308 627 194 63 66 71
308 628 193 62 65 71
309 628 192 64 69 76
309 628 193 60 64 70
309 629 192 71 75 82
309 629 193 62 67 73
308 628 194 63 66 71
308 628 195 63 66 70
