ply
format ascii 1.0
comment PCL generated
element vertex 2403
property float x
property float y
property float z
property uchar red
property uchar green
property uchar blue
element camera 0
property float view_px
property float view_py
property float view_pz
property float x_axisx
property float x_axisy
property float x_axisz
property float y_axisx
property float y_axisy
property float y_axisz
property float z_axisx
property float z_axisy
property float z_axisz
property float focal
property float scalex
property float scaley
property float centerx
property float centery
property int viewportx
property int viewporty
property float k1
property float k2
end_header
66 54 252 93 75 65
66 55 252 91 74 65
67 54 252 94 76 66
67 55 252 93 75 66
68 53 253 98 78 68
68 52 254 101 79 69
68 52 255 103 80 70
68 53 254 101 80 70
69 52 255 106 82 72
69 53 254 104 82 72
69 53 255 106 83 72
68 54 252 95 76 67
68 54 253 98 78 68
68 55 252 96 77 67
68 55 253 98 79 68
69 54 253 102 81 71
69 55 252 99 80 69
69 55 253 101 81 71
69 54 254 103 82 72
70 53 254 107 84 74
70 53 255 109 85 74
71 53 255 111 87 75
70 54 253 104 83 73
70 55 253 105 84 73
71 55 253 108 86 74
70 54 254 106 84 73
71 54 254 110 86 75
71 54 255 112 87 75
71 55 254 110 87 76
64 56 251 84 71 64
64 57 251 78 66 58
65 56 251 85 71 63
65 57 251 80 67 60
64 58 251 71 60 54
64 59 251 71 62 56
65 58 251 73 61 54
65 59 251 70 60 54
66 56 251 87 72 64
66 57 251 83 69 61
67 56 251 90 73 64
67 57 251 87 71 63
66 58 251 76 63 55
66 59 251 69 57 50
67 58 251 80 66 58
67 59 251 71 59 52
67 56 252 92 75 65
64 60 251 78 70 65
64 61 250 82 74 70
64 61 251 82 75 71
65 60 251 75 66 61
65 61 251 81 73 68
64 63 249 69 61 64
65 63 249 67 59 60
64 62 250 74 65 62
64 63 250 67 58 56
65 62 250 82 75 72
65 62 251 85 77 73
65 63 250 75 68 67
66 60 251 72 61 55
66 61 251 74 65 60
67 60 251 71 60 53
67 61 251 74 65 60
66 62 250 85 78 75
66 62 251 79 71 67
66 63 250 85 80 79
67 62 250 77 68 65
67 62 251 76 67 63
67 63 250 81 75 75
68 57 251 91 75 66
69 57 251 96 78 69
68 58 251 86 72 63
68 59 251 75 63 56
69 58 251 92 76 67
69 59 251 79 67 59
70 58 251 95 79 69
70 59 251 85 72 64
71 58 251 99 81 71
71 59 251 90 75 66
68 56 252 95 77 67
68 57 252 95 77 68
69 56 252 99 80 70
69 57 252 98 80 70
70 56 252 103 82 71
70 56 253 104 83 73
70 57 252 102 82 72
71 56 252 107 86 75
71 56 253 108 86 75
71 57 252 105 85 74
70 58 252 99 81 72
71 58 252 102 83 73
68 60 251 73 62 55
68 61 251 79 69 64
69 60 251 75 63 56
69 61 251 81 72 67
68 62 250 75 66 64
68 62 251 80 72 68
68 63 250 73 66 67
69 62 250 79 72 70
69 62 251 83 75 73
69 63 250 74 68 69
70 60 251 77 65 57
70 61 251 81 71 65
71 60 251 79 67 59
71 61 251 81 71 64
70 62 251 84 76 73
70 63 250 75 70 70
71 62 251 84 76 74
71 63 250 78 73 73
72 53 255 114 88 76
72 55 253 111 88 76
72 54 254 114 89 77
72 54 255 114 89 77
72 55 254 113 89 78
73 54 255 117 91 79
73 55 254 115 91 80
74 54 255 119 93 81
74 55 254 117 93 81
75 54 255 120 93 81
75 55 254 118 93 81
75 55 255 119 93 81
76 54 255 120 94 81
76 55 254 119 93 81
76 55 255 119 93 81
77 54 255 120 94 81
77 55 254 116 91 79
77 55 255 118 92 80
79 53 255 115 90 77
78 54 255 118 92 79
78 55 254 111 87 73
78 55 255 115 90 77
79 54 255 113 88 75
79 55 254 110 86 73
79 55 255 108 84 69
72 59 251 93 77 68
73 59 251 96 79 69
74 59 251 99 81 71
75 59 251 106 87 76
72 56 253 111 88 76
72 57 252 107 86 75
73 56 253 113 90 78
73 57 252 109 87 75
73 57 253 110 88 76
72 58 252 102 83 73
72 59 252 99 81 71
73 58 252 104 83 72
73 59 252 101 81 71
74 56 253 114 90 79
74 57 252 110 87 75
74 57 253 111 88 77
75 56 253 113 89 77
75 57 253 111 87 75
74 56 254 117 92 81
75 56 254 117 93 81
74 58 252 106 84 73
74 59 252 102 82 72
75 58 252 110 86 75
75 59 252 109 88 78
72 60 251 83 69 59
72 61 251 83 72 64
73 60 251 87 72 61
73 61 251 85 72 63
72 62 251 86 77 73
72 63 250 82 77 77
73 62 251 89 80 74
73 63 250 85 79 78
73 63 251 89 80 75
74 60 251 92 76 66
74 61 251 89 75 66
75 60 251 102 85 75
75 61 251 98 84 76
74 62 251 94 83 78
74 63 250 88 81 78
74 63 251 93 84 79
75 62 250 108 99 94
75 62 251 102 91 86
75 63 250 99 91 88
76 59 251 115 95 85
77 59 251 113 91 82
78 59 251 105 83 70
79 59 251 103 82 70
76 56 253 113 87 75
76 57 253 110 85 73
77 57 253 110 84 73
76 56 254 117 92 80
77 56 254 112 88 76
76 58 252 112 88 77
76 58 253 113 88 77
76 59 252 114 92 83
77 58 252 113 88 78
77 58 253 113 88 78
77 59 252 114 91 81
78 56 253 110 86 75
78 57 253 110 85 75
79 56 253 110 86 75
79 57 252 104 78 67
79 57 253 108 83 73
78 56 254 109 84 73
79 56 254 110 86 74
78 58 252 107 80 70
78 58 253 109 83 73
78 59 252 108 83 72
79 58 252 105 80 69
79 59 252 106 82 71
76 60 251 110 92 83
76 61 251 105 91 82
77 60 251 109 91 80
77 61 251 104 89 79
77 63 249 93 86 85
76 62 250 104 94 88
76 62 251 105 93 87
76 63 250 104 97 94
77 62 250 99 89 83
77 63 250 97 90 87
78 60 251 103 83 71
78 61 250 98 83 74
78 61 251 102 85 75
79 60 250 97 79 68
79 60 251 100 80 69
79 61 250 92 78 70
78 62 249 98 93 92
78 63 249 91 86 86
79 62 249 96 90 88
79 63 248 85 85 88
79 63 249 88 86 88
78 62 250 98 89 85
79 62 250 96 86 82
87 32 226 60 54 50
87 32 227 60 54 50
87 32 228 59 54 50
87 32 229 59 53 49
87 32 230 58 52 48
88 32 224 63 57 53
88 32 225 62 56 52
89 33 224 64 57 53
89 33 225 64 57 53
88 32 226 62 56 52
88 32 227 60 54 50
88 33 227 62 56 51
89 33 226 64 58 53
89 33 227 64 57 53
89 34 227 65 58 54
90 33 224 67 60 55
90 33 225 66 58 53
90 34 224 68 61 56
90 34 225 68 60 55
91 35 224 72 64 57
91 35 225 72 64 58
90 34 226 67 60 55
90 34 227 69 61 56
90 35 226 69 61 57
90 35 227 70 62 57
91 35 226 74 65 59
91 35 227 75 65 59
88 32 229 60 54 50
88 33 228 61 55 50
88 33 229 61 55 50
89 33 228 62 56 52
88 32 230 59 53 50
88 32 231 60 54 51
88 33 230 60 54 50
88 33 231 60 54 50
89 33 230 60 55 51
89 33 231 60 54 51
89 34 228 65 58 54
89 34 229 64 58 54
89 34 230 64 57 52
89 34 231 63 58 53
90 34 228 69 61 55
90 34 229 69 61 55
90 35 228 69 61 56
90 35 229 70 62 56
91 35 228 73 65 59
91 35 229 72 63 57
90 34 230 66 59 54
90 34 231 66 58 54
90 35 230 68 60 55
90 35 231 69 61 54
91 35 230 71 63 56
91 35 231 70 61 55
91 36 224 74 65 58
91 36 225 75 66 58
91 36 226 76 66 59
91 36 227 76 66 59
91 36 228 76 66 59
91 36 229 75 65 57
91 36 230 75 65 57
91 36 231 74 64 56
92 36 224 75 66 58
92 36 225 77 67 59
92 37 224 79 68 59
92 37 225 80 69 60
92 36 226 78 67 59
92 36 227 78 67 59
92 37 226 81 69 60
92 37 227 80 69 59
92 38 224 82 70 60
92 38 225 84 70 61
93 39 224 84 71 61
93 39 225 85 71 62
92 38 226 85 72 62
92 38 227 84 71 60
93 39 226 86 72 62
93 39 227 87 73 62
92 36 228 78 67 59
92 36 229 76 65 58
92 37 228 80 68 59
92 37 229 80 67 58
92 36 230 76 65 57
92 36 231 76 65 57
92 37 230 78 66 57
92 37 231 78 66 58
92 38 228 84 71 60
92 38 229 83 70 58
92 39 228 85 72 61
92 39 229 84 72 60
93 39 228 86 73 62
93 39 229 85 72 61
92 38 230 80 68 57
92 38 231 80 68 58
92 39 230 83 70 59
92 39 231 83 70 60
88 32 232 60 55 51
88 32 233 62 56 52
89 33 232 61 55 52
89 33 233 60 55 52
88 32 234 60 55 52
88 32 235 61 55 52
89 32 234 62 56 52
89 32 235 62 56 52
89 33 234 63 57 52
89 33 235 64 57 53
89 34 232 63 56 52
90 33 234 64 57 52
90 33 235 64 57 53
90 34 232 65 58 54
90 34 233 66 59 54
91 35 232 71 62 55
91 35 233 72 63 55
90 34 234 68 60 54
90 34 235 69 60 53
91 34 235 71 61 54
91 35 234 73 64 56
91 35 235 75 64 56
88 32 236 61 56 52
88 32 237 63 56 53
89 32 236 63 56 53
89 33 236 63 56 52
89 33 237 65 58 53
88 32 238 64 57 52
88 32 239 64 57 53
89 33 238 65 58 53
89 33 239 66 58 53
89 34 238 71 62 55
89 34 239 70 61 55
90 33 236 68 59 54
90 33 237 69 60 54
90 33 238 68 60 54
90 34 236 70 61 55
90 34 237 72 62 55
90 35 237 75 64 56
91 34 236 73 63 55
91 35 236 76 64 56
91 35 237 75 64 56
90 34 238 72 62 55
90 34 239 72 62 56
90 35 238 75 64 56
90 35 239 74 64 56
91 36 232 75 64 56
91 36 233 76 64 57
91 36 234 76 65 56
91 36 235 78 66 57
91 37 234 78 66 57
91 37 235 79 66 57
91 38 235 81 68 59
91 39 235 84 71 62
91 36 236 78 66 57
91 36 237 77 65 56
91 37 236 80 66 57
91 37 237 80 66 58
90 36 238 77 65 57
90 36 239 76 65 57
91 36 238 78 66 57
91 37 238 80 67 58
91 37 239 79 67 58
91 38 236 83 68 60
91 38 237 83 68 60
91 39 236 85 72 63
91 39 237 85 71 62
91 38 238 83 70 60
91 38 239 84 70 60
91 39 238 87 73 64
91 39 239 87 72 63
92 36 232 76 65 56
92 36 233 77 65 57
92 37 232 79 66 58
92 37 233 79 66 58
92 37 234 80 67 58
92 38 232 82 69 59
92 38 233 81 68 59
92 39 232 84 71 62
92 39 233 84 71 61
92 38 234 81 68 59
92 39 234 83 70 61
92 39 235 83 70 60
93 40 224 84 72 63
93 40 225 86 72 63
93 41 224 82 71 61
93 41 225 84 71 62
93 40 226 87 73 64
93 40 227 88 74 64
93 41 226 84 71 62
93 41 227 85 71 62
93 42 224 81 69 61
93 42 225 83 71 62
93 43 224 81 71 62
93 43 225 82 71 63
93 42 226 84 71 63
93 42 227 83 70 61
93 43 226 84 71 63
93 43 227 84 71 62
92 40 229 86 73 61
92 41 229 84 72 61
93 40 228 87 73 63
93 40 229 86 73 62
93 41 228 84 71 60
93 41 229 84 71 60
92 40 230 85 72 61
92 40 231 84 72 62
92 41 230 84 71 61
92 41 231 84 71 61
92 42 229 83 71 61
92 43 228 84 71 62
92 43 229 84 71 63
93 42 228 83 69 60
93 42 229 83 71 60
93 43 228 83 70 62
93 43 229 84 71 62
92 42 230 85 73 64
92 42 231 86 73 64
92 43 230 85 72 64
92 43 231 86 73 64
93 44 224 79 68 60
93 44 225 81 69 61
93 45 224 77 65 56
93 45 225 78 66 58
93 44 226 81 69 61
93 44 227 82 68 60
93 45 226 80 67 58
93 45 227 82 67 59
93 46 224 77 65 57
93 46 225 79 66 58
93 47 224 78 66 58
93 47 225 80 67 58
93 46 226 81 67 59
93 46 227 83 67 58
93 47 226 82 68 59
93 47 227 84 69 60
92 44 228 83 69 61
92 44 229 83 69 61
92 45 228 82 67 59
92 45 229 83 68 60
93 44 228 83 69 60
93 45 228 82 67 59
92 44 230 84 71 62
92 44 231 84 70 61
92 45 230 83 68 58
92 45 231 83 68 58
92 46 229 84 69 59
92 47 229 86 70 60
93 46 228 84 68 60
93 47 228 85 69 60
92 46 230 84 68 57
92 46 231 85 69 58
92 47 230 86 69 58
92 47 231 85 69 57
91 40 236 86 73 64
91 40 237 86 73 64
91 40 238 87 72 63
91 47 238 96 77 66
91 47 239 94 76 64
92 40 232 85 73 63
92 40 233 85 72 62
92 41 232 84 71 61
92 41 233 84 71 61
92 40 234 84 71 61
92 40 235 84 71 62
92 41 234 84 71 60
92 41 235 84 70 60
92 42 232 85 73 63
92 42 233 86 73 63
92 43 232 85 73 63
92 43 233 87 74 65
92 42 234 86 73 63
92 42 235 86 72 62
92 43 234 88 75 66
92 43 235 88 74 65
92 40 237 87 73 64
92 41 236 86 71 62
92 41 237 87 72 63
92 40 238 87 73 64
92 40 239 89 74 65
92 41 238 87 72 62
92 41 239 88 73 63
92 42 236 86 72 62
92 42 237 88 73 63
92 43 236 88 74 64
92 43 237 90 75 66
92 42 238 88 73 62
92 42 239 89 74 63
92 43 238 89 74 64
92 43 239 92 77 66
92 44 232 84 70 60
92 44 233 85 71 61
92 45 232 83 68 57
92 45 233 84 69 57
92 44 234 87 73 63
92 44 235 88 74 64
92 45 234 85 70 59
92 45 235 85 70 59
92 46 232 86 70 59
92 46 233 86 70 58
92 47 232 89 72 61
92 47 233 90 73 63
92 46 234 87 71 60
92 46 235 88 72 61
92 47 234 91 75 63
92 47 235 91 75 63
92 44 236 88 72 62
92 44 237 90 73 63
92 45 236 87 70 59
92 45 237 89 71 60
92 44 238 90 73 62
92 44 239 91 75 64
92 45 238 91 73 61
92 45 239 90 72 60
92 46 236 90 72 61
92 46 237 92 73 62
92 47 236 94 76 65
92 47 237 94 76 65
92 46 238 93 74 62
92 46 239 92 73 61
92 47 238 94 76 64
92 47 239 94 75 63
88 32 240 64 58 52
88 32 241 64 57 52
89 32 240 65 58 52
89 32 241 66 58 53
89 33 240 66 59 53
89 33 241 67 59 52
89 32 242 65 58 52
89 32 243 66 58 52
89 33 242 67 58 52
89 34 240 69 61 55
90 33 241 69 60 54
90 32 243 66 58 52
90 33 242 68 59 52
90 33 243 68 59 52
90 34 240 70 62 56
90 34 241 70 61 55
90 35 240 74 64 57
90 35 241 75 64 57
90 34 242 72 62 55
90 34 243 70 61 53
90 35 242 74 64 56
91 34 243 71 61 53
91 35 242 76 64 56
91 35 243 74 62 54
90 32 244 66 58 51
90 33 244 68 59 51
91 32 244 67 58 51
91 32 245 67 58 50
91 33 244 68 58 50
91 33 245 69 59 50
91 32 246 67 58 51
91 32 247 67 58 51
91 33 246 70 60 51
91 33 247 70 60 51
91 34 244 72 61 52
91 34 245 71 60 51
91 35 244 75 63 54
90 36 240 75 64 57
90 36 241 76 65 58
91 36 241 78 66 58
91 37 240 79 66 58
91 37 241 81 68 59
91 36 242 78 66 57
91 36 243 78 65 56
91 37 242 82 68 59
91 37 243 83 68 58
91 38 240 84 70 60
91 38 241 86 71 60
91 39 240 88 74 63
91 39 241 89 73 62
91 38 242 87 72 60
91 38 243 86 70 60
91 39 242 89 73 62
91 36 244 79 66 57
91 37 244 82 67 58
92 33 247 72 61 52
92 34 245 73 61 52
92 35 244 77 65 56
92 35 245 76 64 55
92 34 246 73 62 52
92 34 247 74 63 53
92 35 246 76 64 54
92 35 247 78 66 56
92 39 241 90 74 63
92 38 243 86 70 59
92 39 242 90 74 62
92 39 243 89 73 61
92 36 244 79 65 56
92 36 245 79 66 57
92 37 244 82 67 58
92 37 245 81 66 56
92 36 246 80 67 57
92 36 247 80 67 57
92 37 246 80 66 56
92 37 247 81 67 57
92 38 244 85 69 59
92 38 245 84 68 58
92 39 244 87 71 61
92 39 245 86 69 59
92 38 246 83 67 58
92 38 247 83 68 58
92 39 246 84 68 58
92 39 247 84 68 58
91 32 248 69 59 51
91 32 249 71 60 52
91 33 248 71 60 52
91 33 249 73 62 53
91 32 250 72 61 52
91 32 251 74 62 53
91 33 250 74 63 53
91 33 251 75 63 53
91 34 248 74 62 53
91 34 249 76 64 55
91 34 250 78 66 56
91 34 251 78 66 56
91 39 255 86 69 61
92 34 248 76 64 54
92 34 249 78 66 56
92 35 248 79 67 57
92 35 249 80 68 58
92 34 251 80 67 57
92 35 250 81 68 59
92 35 251 82 69 59
92 32 252 75 63 53
92 32 253 75 63 52
92 33 252 76 64 55
92 33 253 77 64 54
92 32 254 75 63 52
92 32 255 76 64 53
92 33 254 77 65 54
92 33 255 77 65 54
92 34 252 79 67 57
92 34 253 80 67 57
92 35 252 80 67 58
92 35 253 81 68 58
92 34 254 80 67 57
92 34 255 80 66 56
92 35 254 81 67 57
92 35 255 81 67 57
92 36 248 81 68 58
92 36 249 81 68 58
92 37 248 81 68 58
92 37 249 82 68 58
92 36 250 81 68 58
92 36 251 82 68 58
92 37 250 81 67 57
92 37 251 81 66 56
92 38 248 83 68 59
92 38 249 82 68 58
92 39 248 83 68 58
92 39 249 83 68 58
92 38 250 82 67 57
92 38 251 81 65 56
92 39 250 83 68 59
92 39 251 82 67 58
92 36 252 80 66 57
92 36 253 80 66 56
92 37 252 81 66 56
92 37 253 81 66 56
92 36 254 80 65 55
92 36 255 81 66 56
92 37 254 82 66 56
92 37 255 82 66 57
92 38 252 81 66 56
92 38 253 81 66 56
92 39 252 81 65 56
92 39 253 81 66 56
92 38 254 83 67 58
92 38 255 84 67 59
92 39 254 83 67 58
92 39 255 86 69 60
91 45 242 92 74 61
91 45 243 92 74 62
91 46 240 92 73 61
91 46 241 93 74 62
91 47 240 94 75 63
91 47 241 95 76 64
90 47 243 95 77 65
91 46 242 93 75 62
91 46 243 93 75 63
91 47 242 95 77 64
91 47 243 94 76 64
91 45 244 93 74 63
91 45 245 94 76 64
91 44 246 96 81 70
91 44 247 96 81 70
91 45 246 96 80 68
91 45 247 99 83 73
90 47 244 95 77 63
90 47 245 95 78 65
91 46 244 93 74 61
91 46 245 93 74 60
91 47 244 94 76 64
90 46 246 96 79 66
90 46 247 100 85 74
90 47 246 96 79 67
90 47 247 99 83 72
91 46 246 96 78 66
91 46 247 100 84 74
92 40 240 90 76 66
92 40 241 91 76 64
92 41 240 90 75 64
92 41 241 92 77 65
92 40 242 91 75 64
92 40 243 91 75 64
92 41 242 92 75 63
92 41 243 92 75 63
92 42 240 90 75 64
92 42 241 92 77 66
92 43 240 93 78 68
92 43 241 95 80 70
92 42 242 93 76 65
92 42 243 92 74 63
92 43 242 97 81 70
92 43 243 95 78 68
92 40 244 91 75 64
92 40 245 89 72 62
92 41 244 92 76 65
92 41 245 90 73 62
92 40 246 86 70 60
92 40 247 86 71 61
92 41 246 88 71 60
92 41 247 88 73 62
92 42 244 91 73 63
92 42 245 90 73 61
92 43 244 94 77 68
92 43 245 93 76 66
92 42 246 89 72 60
92 42 247 89 73 60
92 43 246 93 77 66
92 43 247 92 77 65
92 44 240 93 77 66
92 44 241 95 79 69
92 45 240 90 72 60
92 45 241 92 73 61
92 44 242 97 81 70
92 44 243 97 80 70
92 45 242 93 75 63
92 45 243 93 75 64
92 46 240 91 72 60
92 46 241 92 73 61
92 44 244 98 81 73
92 44 245 97 81 71
92 45 244 96 79 69
92 44 246 95 80 69
92 44 247 95 80 69
91 40 254 84 67 58
91 40 255 86 69 61
91 41 254 87 71 63
91 41 255 88 71 63
91 42 253 85 69 61
91 43 252 86 71 63
91 43 253 84 68 60
91 42 254 91 74 68
91 42 255 93 76 70
91 43 254 91 75 69
91 43 255 96 79 73
91 44 248 96 82 72
91 44 249 95 82 73
91 45 248 94 79 68
91 45 249 91 76 65
91 44 250 95 81 73
91 44 251 92 79 71
91 45 250 90 74 64
91 45 251 89 74 65
90 46 248 96 80 69
90 46 249 90 73 61
90 47 248 98 82 71
90 47 249 95 79 68
91 46 248 100 84 74
90 46 250 88 71 59
90 46 251 88 72 60
90 47 250 93 77 66
90 47 251 91 75 63
89 45 255 105 88 78
89 47 252 95 80 70
89 47 253 101 87 78
88 47 255 94 75 63
89 46 254 96 81 71
89 46 255 95 79 68
89 47 254 98 84 74
89 47 255 92 76 64
90 45 252 92 77 68
90 45 253 95 78 73
91 44 252 91 77 70
91 44 253 86 69 62
91 45 252 91 76 68
91 45 253 90 73 68
90 44 255 99 81 73
90 45 254 93 73 66
90 45 255 99 80 71
91 44 254 89 70 64
91 44 255 96 78 71
91 45 254 89 68 62
90 46 252 91 76 66
90 46 253 99 85 77
90 47 252 92 77 66
90 47 253 100 86 77
90 46 254 94 78 68
92 40 248 86 72 62
92 40 249 85 71 61
92 41 248 89 75 66
92 41 249 88 74 65
92 40 250 85 70 61
92 40 251 84 69 60
92 41 250 86 73 62
92 41 251 86 71 62
92 42 248 89 75 64
92 42 249 88 74 63
92 43 248 92 78 67
92 43 249 92 79 68
92 42 250 87 72 61
92 42 251 86 72 61
92 43 250 92 78 69
92 43 251 89 76 67
92 40 252 83 67 58
92 40 253 82 66 56
92 41 252 83 68 58
92 41 253 84 69 59
92 40 254 83 66 57
92 41 254 85 69 60
92 42 252 83 69 59
92 42 253 84 69 60
92 43 252 86 72 63
92 43 253 83 67 57
92 44 248 95 81 70
92 44 250 95 82 74
92 44 251 94 81 73
93 48 224 81 68 59
93 48 225 82 68 59
93 49 224 82 69 58
93 49 225 83 69 60
93 48 226 83 68 60
93 48 227 86 70 61
93 49 226 85 69 60
93 49 227 86 69 59
93 50 224 83 69 58
93 50 225 84 70 60
93 51 224 83 69 59
93 51 225 84 70 60
93 50 226 86 69 60
93 50 227 87 69 60
93 51 226 86 70 61
93 51 227 88 69 61
94 51 224 82 69 59
92 48 229 87 71 61
92 49 229 87 70 58
93 48 228 87 71 61
93 49 228 86 69 58
92 48 230 88 71 60
92 48 231 89 73 61
92 49 230 88 71 60
92 49 231 91 74 63
92 50 229 87 70 57
92 51 229 88 71 58
93 50 228 87 69 58
93 51 228 88 70 60
93 51 229 89 70 59
92 50 230 88 71 58
92 50 231 90 73 59
92 51 230 89 72 58
92 51 231 90 73 58
93 52 225 83 69 60
93 52 226 84 70 61
93 52 227 86 69 62
93 53 227 84 69 62
94 52 224 81 70 61
94 52 225 82 70 60
94 53 224 80 70 63
94 53 225 81 70 63
95 53 224 79 70 64
94 52 226 83 70 61
94 53 226 82 70 62
94 53 227 82 69 62
94 54 225 79 70 64
95 54 224 77 70 66
95 54 225 78 70 66
95 55 224 76 72 71
95 55 225 76 72 72
94 54 226 79 69 63
94 54 227 79 69 63
94 55 227 76 68 63
95 54 226 78 70 65
95 55 226 76 71 70
95 55 227 74 69 68
93 52 228 87 70 62
93 52 229 88 70 61
93 53 228 84 69 63
93 53 229 86 69 62
92 52 230 90 73 60
92 52 231 91 74 60
92 53 230 89 73 61
92 53 231 90 74 61
93 52 230 90 72 61
93 53 230 87 71 60
93 54 229 82 69 63
92 54 231 87 73 62
93 54 230 84 70 61
93 54 231 86 73 62
93 55 230 80 69 63
93 55 231 81 70 64
94 54 228 80 69 63
94 54 229 80 69 63
94 55 228 76 69 65
94 55 229 77 70 67
95 55 228 74 69 68
94 55 230 78 70 66
91 50 234 94 77 61
91 50 235 95 78 62
91 51 234 95 78 63
91 51 235 95 79 63
91 48 237 97 79 67
91 49 236 95 78 64
91 49 237 96 79 66
90 49 239 96 78 65
91 48 238 97 79 67
91 48 239 98 79 68
91 49 238 96 78 64
91 49 239 98 79 67
90 51 237 95 79 66
91 50 236 95 78 63
91 50 237 96 79 65
91 51 236 96 78 64
91 51 237 96 79 66
90 50 238 95 78 64
90 50 239 95 78 64
90 51 238 94 77 64
90 51 239 94 77 63
91 50 238 95 77 63
91 52 233 94 77 61
91 53 233 92 77 62
90 52 235 95 79 64
90 53 235 95 79 65
91 52 234 94 78 62
91 52 235 95 79 63
91 53 234 94 78 63
91 53 235 95 79 64
91 54 233 91 75 63
91 54 234 92 76 64
91 54 235 94 78 65
91 55 234 89 75 63
91 55 235 89 74 63
89 52 239 92 75 64
89 53 239 91 75 62
89 54 239 89 73 59
89 55 239 88 71 56
90 52 236 95 78 64
90 52 237 93 77 63
90 53 236 94 78 64
90 53 237 92 76 62
91 52 236 95 78 64
90 52 238 92 76 63
90 52 239 92 75 63
90 53 238 91 75 61
90 54 236 92 77 64
90 54 237 90 75 61
90 55 236 90 75 62
90 55 237 88 73 60
91 55 236 88 74 62
91 55 237 86 71 60
90 54 238 89 72 58
90 55 238 87 70 57
92 48 232 91 74 62
92 48 233 93 75 63
92 49 232 92 75 64
92 49 233 93 75 63
92 48 234 94 76 64
92 48 235 94 77 64
92 49 234 94 77 63
92 49 235 95 78 64
92 50 232 91 74 60
92 50 233 93 75 61
92 51 232 92 75 59
92 51 233 94 76 61
92 50 234 94 76 61
92 51 234 94 77 62
92 48 236 96 78 66
92 48 237 96 79 67
92 49 236 95 78 63
92 52 232 92 75 60
92 52 233 93 76 60
92 53 232 90 73 60
92 53 233 91 75 61
92 54 232 87 72 61
92 54 233 88 73 61
92 55 232 84 71 63
92 55 233 84 71 63
93 55 232 81 70 64
92 55 234 86 73 63
95 56 226 79 78 81
95 56 227 77 75 77
95 57 227 81 82 86
93 56 231 76 69 66
95 56 228 76 74 76
95 56 229 79 76 77
95 57 228 83 85 90
95 57 229 85 86 90
94 56 230 78 74 74
94 56 231 77 72 71
94 57 230 83 82 85
94 57 231 82 81 84
95 56 230 80 78 80
95 57 230 87 87 91
95 58 228 88 91 98
95 58 229 91 95 102
95 59 229 91 97 106
94 58 231 86 88 93
95 58 230 92 95 102
95 58 231 90 92 98
95 59 230 93 98 108
95 59 231 91 96 105
95 60 230 93 100 110
95 60 231 91 98 109
95 61 230 93 100 111
95 61 231 90 98 110
95 62 230 91 98 109
95 62 231 89 97 108
95 63 230 90 97 108
95 63 231 89 96 106
91 56 235 85 71 62
89 56 239 88 71 59
89 57 239 87 70 61
90 56 237 84 69 58
91 56 236 84 70 62
91 56 237 83 69 59
91 57 236 80 68 61
91 57 237 79 68 60
90 56 238 85 69 58
90 56 239 86 70 58
90 57 238 83 69 61
90 57 239 85 70 62
91 58 237 76 69 65
91 59 237 78 76 77
90 58 238 81 70 65
90 58 239 83 70 64
90 59 238 78 74 74
90 59 239 77 71 70
91 58 238 79 70 65
91 59 238 78 75 76
89 63 239 95 103 114
91 60 237 91 93 100
91 61 237 94 99 108
90 60 238 86 88 93
90 60 239 82 82 86
90 61 238 91 95 103
90 61 239 88 92 99
91 60 238 89 91 97
91 61 238 93 97 106
91 62 237 96 103 113
91 63 236 94 102 113
91 63 237 95 103 115
90 62 238 94 100 111
90 62 239 93 99 109
90 63 238 94 102 114
90 63 239 96 103 114
91 62 238 94 101 111
91 63 238 95 102 114
93 56 232 77 70 67
93 56 233 78 69 65
93 57 232 77 73 73
93 57 233 78 74 74
92 56 234 82 70 63
92 56 235 83 70 63
92 57 234 78 70 66
92 57 235 78 69 65
93 56 234 78 69 64
93 57 234 77 72 70
93 58 233 82 81 84
92 58 235 78 74 74
92 59 235 84 84 87
93 58 234 82 81 84
93 58 235 82 80 82
93 59 234 90 93 100
93 59 235 90 92 98
94 57 232 79 77 79
94 58 232 85 86 92
94 58 233 84 85 89
94 59 232 89 93 102
94 59 233 87 91 100
94 59 234 90 95 103
92 57 236 78 67 63
92 58 236 76 71 71
92 58 237 75 69 67
92 59 236 86 86 91
92 59 237 84 83 87
92 61 235 95 102 113
93 60 234 93 100 110
93 60 235 94 99 108
93 61 234 94 102 113
93 61 235 95 102 113
92 62 235 95 102 114
92 63 235 93 100 111
93 62 234 91 99 111
93 62 235 94 102 114
93 63 234 89 96 108
94 60 232 90 97 108
94 60 233 90 97 107
94 61 232 90 98 110
94 61 233 91 99 111
95 60 232 90 98 109
95 61 232 90 98 109
94 60 234 92 98 109
94 61 234 93 101 112
94 62 232 88 96 108
94 62 233 88 97 108
94 63 232 87 94 105
94 63 233 86 94 106
95 62 232 89 97 108
92 60 236 93 97 106
92 60 237 92 95 103
92 61 236 96 101 112
92 61 237 95 101 111
92 62 236 95 102 114
92 62 237 96 103 114
92 63 236 94 101 113
87 51 247 90 74 61
87 53 243 94 77 63
87 54 243 96 78 65
87 55 242 95 77 64
87 55 243 98 79 66
85 55 245 101 83 73
85 54 247 101 83 71
85 55 246 101 82 71
85 55 247 102 83 72
87 52 244 91 73 63
87 52 245 93 76 67
87 53 244 95 77 65
87 53 245 96 79 67
86 53 246 98 80 69
86 53 247 98 81 69
87 52 246 93 75 65
87 52 247 94 78 66
87 53 246 95 78 68
87 53 247 96 79 67
86 54 244 98 79 68
86 54 245 99 79 68
86 55 244 100 82 70
86 55 245 101 82 71
87 54 244 98 79 67
87 55 244 99 80 68
86 54 246 99 80 70
86 54 247 100 82 70
86 55 246 100 80 70
83 51 255 106 83 72
83 55 251 104 82 72
80 53 255 112 86 72
81 53 255 110 87 73
81 55 253 108 86 75
80 54 255 109 84 70
80 55 254 110 88 75
81 54 254 110 89 78
81 54 255 112 90 78
81 55 254 111 89 78
82 52 255 107 83 70
82 53 254 109 87 76
82 53 255 108 86 73
83 52 254 108 87 75
83 52 255 107 85 73
83 53 254 107 85 74
82 55 252 107 84 72
82 55 253 107 84 73
83 54 252 103 82 72
83 54 253 104 83 72
83 55 252 106 83 73
82 54 254 111 90 79
82 55 254 109 88 78
83 54 254 107 85 74
87 51 248 93 78 64
87 51 249 94 78 64
86 51 251 95 77 66
87 50 250 94 77 64
87 50 251 94 77 65
87 51 250 95 79 66
87 51 251 95 78 66
84 50 255 105 82 74
84 51 255 106 84 74
85 50 255 104 83 74
85 51 254 104 84 73
85 51 255 105 84 74
87 49 253 93 76 65
86 49 255 100 78 70
87 48 255 97 76 67
87 49 254 100 82 74
87 49 255 99 77 70
86 51 252 96 77 67
86 51 253 96 76 68
87 50 252 94 76 65
87 50 253 94 75 65
87 51 252 95 76 66
86 50 254 101 81 75
86 50 255 103 82 74
86 51 254 102 82 74
87 50 254 97 77 69
85 53 249 99 81 69
85 52 251 98 79 69
85 53 250 99 81 70
85 53 251 99 80 69
84 55 248 103 83 73
84 55 249 102 83 71
85 54 248 100 82 70
85 54 249 101 82 70
85 55 248 101 83 72
85 55 249 101 82 71
84 54 251 101 82 71
84 55 250 102 82 71
84 55 251 103 83 72
85 54 250 101 82 71
85 54 251 100 82 70
86 52 248 97 80 68
86 52 249 97 80 67
86 53 248 98 81 69
86 53 249 98 80 69
87 52 248 95 79 66
87 52 249 95 78 66
86 52 250 97 80 68
86 52 251 97 79 68
86 53 250 99 81 69
86 53 251 98 80 69
87 52 250 96 79 67
86 54 248 100 82 71
84 53 252 101 81 71
84 53 253 103 81 70
85 52 252 98 79 69
85 52 253 99 79 69
85 53 252 101 81 71
84 52 254 105 84 73
84 52 255 108 87 76
84 53 254 105 83 71
85 52 254 103 82 71
84 54 252 102 82 72
84 55 252 104 83 72
86 52 252 97 78 68
86 52 253 97 76 68
83 58 247 103 85 74
83 59 247 97 82 70
81 63 247 86 88 95
82 61 247 66 56 48
83 60 246 89 77 67
83 60 247 82 69 56
83 61 246 82 71 65
83 61 247 70 59 49
82 62 247 70 67 69
82 63 246 91 93 101
82 63 247 80 82 87
83 62 246 77 74 76
83 62 247 69 62 59
83 63 246 91 94 101
86 57 243 99 82 69
87 56 242 97 79 66
87 56 243 99 81 68
87 57 242 95 78 66
87 57 243 98 80 67
86 58 243 98 81 68
86 59 243 96 79 71
87 58 242 95 78 69
87 58 243 97 79 68
87 59 242 92 78 71
87 59 243 94 79 72
85 56 245 102 84 73
85 57 244 101 84 71
85 57 245 101 84 72
84 56 247 104 85 75
84 57 246 106 88 77
84 57 247 105 87 76
85 56 246 103 85 74
85 56 247 103 84 73
85 57 246 105 86 75
84 59 245 101 85 73
85 58 244 101 84 71
85 58 245 101 84 71
85 59 244 99 81 71
85 59 245 100 83 72
84 58 246 103 86 74
84 58 247 103 86 74
84 59 246 100 85 73
84 59 247 102 85 74
86 56 244 101 83 70
86 57 244 100 84 70
86 58 244 100 83 70
86 59 244 97 80 70
86 60 243 92 82 79
86 61 243 92 87 88
87 60 242 87 79 76
87 60 243 91 81 78
87 61 242 90 88 89
87 61 243 92 88 90
86 62 243 95 98 104
86 63 243 97 103 113
87 62 242 97 100 107
87 62 243 95 95 99
87 63 242 100 106 116
84 60 245 96 83 74
84 61 245 89 80 75
85 60 244 95 80 74
85 60 245 95 81 74
85 61 244 87 79 76
85 61 245 88 79 75
84 60 246 95 82 72
84 61 246 88 79 75
84 62 245 87 84 86
84 63 245 96 98 106
85 62 244 92 91 95
85 63 244 100 104 112
84 62 246 83 79 79
86 60 244 93 81 77
86 61 244 88 82 81
86 62 244 93 94 99
86 63 244 98 103 113
81 57 251 106 84 74
81 59 249 97 82 72
80 58 251 105 82 72
80 59 250 101 82 71
80 59 251 103 82 71
81 58 250 105 84 75
81 58 251 105 84 74
81 59 250 102 83 73
83 56 249 103 82 71
83 57 248 103 83 72
83 57 249 103 82 71
82 56 251 106 83 73
82 57 250 103 81 71
82 57 251 105 82 73
83 56 250 102 81 70
83 56 251 104 82 72
83 57 250 102 81 70
82 58 249 102 83 72
82 59 248 94 79 68
82 59 249 98 82 72
83 58 248 102 84 72
83 58 249 103 83 72
83 59 248 95 78 67
82 58 250 102 83 72
80 56 253 107 84 72
80 57 252 104 80 68
80 57 253 105 80 69
81 56 252 106 83 72
81 56 253 106 82 71
81 57 252 105 82 72
80 58 252 105 81 70
82 56 252 107 83 73
83 56 252 107 83 73
80 61 249 85 73 65
81 60 249 89 76 66
81 61 248 78 68 61
81 61 249 81 70 62
80 60 250 95 78 68
80 61 250 87 72 62
81 60 250 94 79 69
80 62 248 87 84 86
80 62 249 91 85 83
80 63 248 87 86 90
81 62 248 81 76 76
81 62 249 84 77 75
81 63 248 82 82 87
82 60 248 80 66 55
82 61 248 72 61 53
82 62 248 74 70 72
84 56 248 104 84 73
84 56 249 103 82 72
84 57 248 104 84 73
84 56 250 102 81 71
89 49 242 94 78 65
89 49 243 94 78 66
89 50 241 95 79 66
89 51 240 94 78 65
89 51 241 94 78 64
88 51 243 91 75 62
89 50 242 94 77 65
89 50 243 93 77 65
89 51 242 92 76 63
89 51 243 92 76 63
90 48 240 99 80 70
90 48 241 97 79 67
90 49 240 98 80 68
90 49 241 97 80 68
91 48 240 97 79 68
91 48 241 96 78 66
90 48 242 96 79 67
90 48 243 96 79 67
90 49 242 95 78 65
90 49 243 95 78 66
90 50 240 96 79 66
90 50 241 96 80 66
90 51 240 95 78 65
89 48 244 95 79 67
89 49 244 95 80 68
89 49 245 95 79 68
88 49 247 94 78 66
89 48 246 96 80 68
89 48 247 96 80 68
89 49 246 95 79 67
89 49 247 95 78 67
88 50 244 90 73 62
88 50 245 90 73 61
88 51 244 88 70 58
88 51 245 85 66 53
89 50 244 93 78 66
89 50 245 93 77 66
88 50 246 89 71 59
88 50 247 90 73 60
88 51 246 86 67 55
88 51 247 87 70 55
90 48 244 96 79 67
90 48 245 96 80 67
90 48 246 96 80 68
90 48 247 97 81 69
88 52 241 92 76 62
88 53 241 92 76 62
89 52 240 93 76 64
89 52 241 93 76 62
89 53 240 92 76 63
89 53 241 92 76 62
88 52 242 92 76 63
88 52 243 91 74 61
88 53 242 93 77 63
88 53 243 93 76 62
89 52 242 92 76 63
88 54 241 93 75 62
88 55 241 93 75 62
89 54 240 91 75 60
89 54 241 91 75 60
89 55 240 91 73 59
89 55 241 92 74 60
88 54 242 95 77 64
88 55 242 95 77 64
88 52 244 89 70 59
88 52 245 89 71 61
88 49 248 95 79 67
88 49 249 95 80 67
89 48 248 97 81 69
89 48 249 96 80 68
89 49 248 96 80 68
89 49 249 95 79 67
88 49 250 94 78 65
88 49 251 94 78 65
89 48 250 95 79 68
89 48 251 93 77 65
89 49 250 94 77 65
89 49 251 92 76 63
88 50 248 93 77 63
88 50 249 93 78 64
88 51 248 91 76 61
88 50 250 93 77 64
88 50 251 94 77 65
88 48 253 95 79 68
88 49 252 93 76 64
88 49 253 93 76 65
89 48 252 94 78 66
89 48 253 96 81 71
88 48 254 99 83 73
88 48 255 96 79 68
88 49 254 99 82 73
89 48 254 100 85 76
88 56 241 94 76 64
88 57 241 93 75 65
89 56 240 91 73 60
89 56 241 91 73 61
89 57 240 89 73 63
89 57 241 91 74 64
88 56 242 96 78 66
88 58 241 93 76 68
88 59 241 89 76 71
89 58 240 86 72 65
89 58 241 89 75 68
89 59 240 80 72 68
89 59 241 85 75 71
88 60 241 84 78 76
88 61 241 93 91 95
89 60 240 80 77 80
89 60 241 82 79 79
89 61 240 90 91 97
89 61 241 93 94 99
88 62 241 99 103 110
88 63 241 103 109 119
89 62 240 94 99 108
89 62 241 97 100 107
89 63 240 98 105 115
96 43 201 87 74 61
96 44 201 87 73 61
96 45 201 86 74 63
96 44 202 84 71 59
96 44 203 82 69 58
96 45 202 83 71 60
96 45 203 82 70 59
96 46 201 84 72 63
96 47 201 81 70 63
97 47 201 79 70 63
96 46 202 82 70 60
96 46 203 82 70 60
96 47 202 81 70 62
96 47 203 81 70 62
96 45 204 81 68 57
96 45 205 81 68 58
96 44 206 82 70 60
96 44 207 83 70 60
96 45 206 83 71 60
96 45 207 84 71 61
96 46 204 82 70 60
96 46 205 81 70 59
96 47 204 82 71 63
96 47 205 83 71 63
96 46 206 83 71 61
96 46 207 84 72 62
96 47 206 84 73 63
96 47 207 85 73 64
96 44 208 84 71 61
96 45 208 85 72 62
96 45 209 87 73 64
96 45 210 86 73 62
96 46 208 86 73 63
96 46 209 88 76 66
96 47 208 85 74 64
96 47 209 87 75 66
96 46 210 88 75 64
96 46 211 87 74 63
96 47 210 89 76 67
96 47 211 87 75 64
96 46 212 86 73 62
96 47 212 85 72 62
96 47 213 83 71 61
96 47 214 81 70 60
96 47 215 76 65 55
97 48 201 77 70 64
97 49 201 73 68 66
96 48 203 80 70 63
97 48 202 78 70 64
97 48 203 79 70 64
97 49 202 73 67 64
97 49 203 74 67 63
97 50 202 69 65 63
97 50 203 70 64 62
97 51 202 67 63 62
97 51 203 68 64 62
98 51 202 65 63 63
98 51 203 66 63 62
96 48 204 82 72 65
96 48 205 82 72 65
97 48 204 79 70 65
97 48 205 81 71 65
97 49 204 75 69 65
97 49 205 77 69 64
96 48 206 82 71 64
96 48 207 83 72 63
97 48 206 80 70 63
97 48 207 80 69 62
97 49 206 79 70 64
97 49 207 79 70 63
97 50 204 72 66 63
97 50 205 74 68 64
97 51 204 69 64 62
97 51 205 74 69 67
97 50 206 76 69 64
97 50 207 77 69 64
97 51 206 73 66 63
97 51 207 74 67 64
98 51 204 68 64 63
98 51 205 71 66 65
98 51 206 74 69 68
98 51 207 72 67 65
98 52 202 68 67 69
98 52 203 71 70 71
99 52 202 70 69 71
99 52 203 73 73 77
99 53 202 76 76 79
99 53 203 72 73 77
98 52 204 66 64 64
98 52 205 67 65 65
99 52 204 71 70 73
99 53 204 69 71 75
99 53 205 69 70 73
98 52 206 68 66 66
98 52 207 70 67 67
98 53 207 70 69 72
99 53 206 71 71 74
99 53 207 74 74 78
99 54 205 71 75 81
99 54 206 78 82 88
99 54 207 80 82 88
99 55 207 85 89 96
100 53 202 75 76 80
100 54 202 82 82 85
100 54 203 73 75 80
100 55 202 87 87 90
100 55 203 78 80 85
101 55 202 88 88 91
101 55 203 80 81 87
100 54 204 72 75 82
100 54 205 75 79 86
100 55 204 75 78 86
100 55 205 78 82 90
101 55 204 78 82 89
100 55 206 82 87 95
100 55 207 86 91 99
101 56 202 89 88 91
101 56 203 83 84 89
101 57 203 80 83 89
102 57 202 84 84 88
102 57 203 79 81 87
102 58 202 79 81 86
102 58 203 78 82 88
102 59 202 81 82 87
102 59 203 77 81 89
100 56 205 81 86 95
101 56 204 82 85 92
101 56 205 83 88 96
101 57 204 82 86 94
101 57 205 84 89 98
100 56 206 84 90 99
100 56 207 86 92 102
100 57 207 87 94 104
101 56 206 86 91 101
101 57 206 87 93 103
101 57 207 88 94 104
101 58 204 80 85 93
101 58 205 81 88 97
101 59 205 80 87 97
100 58 207 88 95 106
101 58 206 86 92 103
101 58 207 88 95 105
101 59 206 83 90 101
101 59 207 86 93 103
102 58 204 78 83 91
102 59 204 77 83 92
102 59 205 79 85 95
102 60 202 86 87 92
102 60 203 79 83 90
101 60 205 79 86 97
101 61 205 76 84 94
101 60 206 81 88 98
101 60 207 82 89 99
101 61 206 78 85 94
101 61 207 79 85 95
102 60 204 77 83 91
102 60 205 77 84 94
96 48 208 83 72 63
96 48 209 83 71 62
97 48 208 80 70 61
97 49 208 79 69 62
97 49 209 79 69 61
96 48 210 84 72 63
96 48 211 84 72 63
96 49 210 81 69 61
96 49 211 82 70 62
97 49 210 79 68 60
97 49 211 80 69 61
97 50 208 77 68 63
97 50 209 77 68 61
97 51 208 75 68 65
97 51 209 74 67 62
97 50 210 78 68 61
97 50 211 78 68 61
97 51 210 76 67 61
97 51 211 76 67 62
98 51 208 72 67 65
98 51 209 72 66 64
98 51 210 73 66 62
98 51 211 74 67 63
96 48 212 82 71 61
96 48 213 80 68 59
96 49 212 81 70 62
96 49 213 80 69 60
96 48 214 78 67 57
96 48 215 74 63 53
96 49 214 78 67 59
96 49 215 76 66 58
97 50 212 79 68 61
97 50 213 78 69 62
97 51 212 74 66 61
97 51 213 74 65 61
96 50 214 78 68 61
96 50 215 76 67 61
97 50 214 77 68 62
97 50 215 77 68 62
97 51 214 74 65 61
97 51 215 75 67 63
98 52 208 70 67 66
98 52 209 70 67 66
98 53 208 72 71 73
98 53 209 72 71 73
99 53 208 73 74 77
98 52 210 72 67 65
98 52 211 72 66 63
98 53 210 74 72 73
98 53 211 74 72 73
99 54 208 80 82 87
99 54 209 81 83 88
99 55 208 85 89 97
99 55 209 84 89 97
98 54 211 80 80 84
99 54 210 81 82 87
99 54 211 82 83 88
99 55 210 84 89 97
99 55 211 85 89 97
97 52 213 71 64 61
97 52 214 71 64 62
97 52 215 71 65 64
97 53 215 70 67 67
98 52 212 70 64 61
98 52 213 69 64 61
98 53 212 71 69 69
98 53 213 69 66 67
98 52 214 70 64 62
98 53 214 70 67 68
98 53 215 71 69 70
98 54 212 79 80 84
98 54 213 80 81 86
98 55 213 88 91 97
99 54 212 85 87 93
99 55 212 87 90 97
99 55 213 89 92 99
98 54 214 78 79 84
98 54 215 76 77 81
98 55 214 87 90 97
98 55 215 84 88 95
100 55 208 87 93 102
96 48 216 71 61 51
96 48 217 73 63 53
96 49 216 74 64 56
96 49 217 74 65 57
96 49 218 77 67 59
96 50 216 74 66 59
96 50 217 75 66 60
96 51 216 75 67 61
96 51 217 74 66 61
97 51 216 74 67 64
97 51 217 71 65 61
96 50 218 77 67 61
96 50 219 78 68 62
96 51 218 75 66 61
96 51 219 75 66 61
96 51 220 75 65 59
97 52 216 72 66 65
97 52 217 70 64 62
97 53 216 72 69 70
97 53 217 71 68 68
96 52 218 72 65 62
96 52 219 71 65 61
96 53 219 68 63 62
97 52 218 69 64 61
97 52 219 69 64 62
97 53 218 68 65 65
97 53 219 67 64 63
97 54 217 77 75 78
97 54 218 74 73 76
97 54 219 72 71 74
97 55 218 80 81 85
97 55 219 81 83 88
98 54 216 76 76 80
98 54 217 79 79 82
98 55 216 83 86 93
98 55 217 85 86 92
98 55 218 84 86 92
98 55 219 82 85 92
96 52 220 72 64 59
96 52 221 72 65 60
96 53 220 68 64 62
96 53 221 70 64 61
96 53 222 71 64 60
96 54 220 69 66 67
96 54 221 69 66 66
96 55 221 73 72 74
97 54 220 71 70 73
97 55 220 83 84 89
97 55 221 80 81 86
96 54 222 71 66 65
96 54 223 72 67 65
96 55 222 77 76 79
96 55 223 77 75 77
97 55 222 82 84 89
99 56 209 85 92 103
99 56 210 86 93 103
99 56 211 87 93 101
99 57 210 87 94 105
99 57 211 87 94 105
99 58 211 87 95 106
99 56 212 87 92 101
99 56 213 89 94 102
99 57 212 87 94 103
99 57 213 89 94 104
98 56 214 88 94 103
98 56 215 87 93 102
98 57 215 87 94 103
99 56 214 89 94 103
99 57 214 88 95 104
99 57 215 88 95 105
99 58 212 87 95 105
99 58 213 89 95 105
99 59 212 88 96 106
99 59 213 89 97 107
99 58 214 88 94 104
99 58 215 87 94 104
99 59 214 88 96 106
99 59 215 87 94 105
99 60 213 87 95 107
99 60 214 86 95 106
99 60 215 85 93 104
99 61 214 85 93 105
99 61 215 83 92 104
99 62 214 85 93 104
99 62 215 84 92 103
100 56 208 87 94 104
100 56 209 86 93 103
100 57 208 87 95 105
100 57 209 87 95 106
100 57 210 87 95 106
100 58 208 86 94 106
100 58 209 86 95 107
100 59 209 82 91 103
101 58 208 87 95 105
101 59 208 85 93 104
100 58 210 87 96 108
100 58 211 87 95 107
100 59 210 85 94 106
100 59 211 86 95 106
100 58 212 87 95 107
100 59 212 86 95 106
100 60 209 82 91 102
101 60 208 82 90 100
101 60 209 83 91 102
101 61 208 79 86 96
101 61 209 82 90 100
100 60 210 83 92 103
100 60 211 84 93 105
100 61 210 83 91 102
100 61 211 84 92 103
101 61 210 84 92 102
101 62 208 77 84 94
101 62 209 80 87 96
100 62 211 84 91 102
101 62 210 83 90 99
101 62 211 83 90 100
101 63 211 79 86 95
100 60 212 85 93 105
100 60 213 86 95 106
100 61 212 84 92 104
100 61 213 86 95 106
100 61 214 86 94 105
100 62 212 85 92 102
100 62 213 87 94 104
100 63 212 83 89 98
100 63 213 83 89 99
101 62 212 83 89 99
101 63 212 81 88 97
100 62 214 86 94 104
100 62 215 85 93 103
100 63 214 85 91 101
100 63 215 84 91 101
97 56 219 86 90 97
98 56 216 86 92 100
98 56 217 87 92 100
98 57 216 85 91 101
98 57 217 86 92 101
98 56 218 86 90 98
98 56 219 84 89 97
98 57 218 87 93 102
98 57 219 86 92 101
98 58 216 85 92 103
98 58 217 83 90 101
98 59 217 83 90 101
99 58 216 87 94 104
99 59 216 88 95 105
99 59 217 85 92 103
98 58 218 85 93 102
98 58 219 85 92 102
98 59 218 83 91 102
98 59 219 84 92 103
97 56 220 88 93 100
97 56 221 88 91 98
97 57 220 86 92 101
97 57 221 86 92 101
96 56 223 84 86 91
96 57 223 87 90 98
97 56 222 85 89 96
97 56 223 86 89 96
97 57 222 86 91 100
97 57 223 87 91 99
97 58 221 84 91 101
97 59 221 82 90 101
97 58 222 85 92 103
97 58 223 85 92 102
97 59 222 83 91 103
97 59 223 85 93 104
98 57 220 86 92 102
98 58 220 84 91 102
98 59 220 84 92 103
98 59 221 83 91 102
99 60 216 86 94 105
99 60 217 85 93 104
99 61 216 84 93 105
99 61 217 82 91 103
98 60 218 84 91 101
98 60 219 84 92 103
98 61 219 84 92 103
99 60 218 85 92 103
99 61 218 84 93 104
99 61 219 85 93 104
99 62 216 84 93 105
99 62 217 82 91 103
99 63 216 84 92 103
99 63 217 83 91 102
98 62 219 83 91 102
99 62 218 81 90 102
99 62 219 83 92 103
99 63 218 81 90 101
99 63 219 82 91 102
97 60 222 83 92 103
97 60 223 84 93 104
97 61 222 85 93 104
97 61 223 84 92 104
97 62 223 84 92 103
98 60 220 83 92 103
98 60 221 82 91 102
98 61 220 82 90 102
98 61 221 81 90 101
98 61 222 84 92 103
98 62 220 82 90 102
98 62 221 83 91 102
98 63 220 82 91 102
98 63 221 83 92 103
99 63 220 82 91 102
98 62 222 85 93 104
98 62 223 85 93 103
98 63 222 84 92 103
98 63 223 85 92 103
100 63 216 84 91 101
96 55 224 78 76 78
96 55 225 78 76 78
96 56 224 83 84 88
96 56 225 80 81 85
96 57 224 86 90 97
96 57 225 83 86 94
96 56 226 79 80 84
96 57 226 82 85 92
96 57 227 83 85 91
96 58 224 85 91 100
96 58 225 82 89 98
96 59 225 82 89 100
97 58 224 86 91 101
97 59 224 84 92 102
97 59 225 83 91 102
96 58 226 82 89 98
96 58 227 85 90 99
96 59 226 83 91 102
96 59 227 86 93 104
96 58 228 87 92 100
96 58 229 90 95 104
96 59 228 88 95 105
96 59 229 91 97 107
97 60 224 84 93 104
97 60 225 84 92 104
97 61 224 84 93 105
97 61 225 83 92 104
96 60 226 87 95 106
96 60 227 87 95 106
96 61 227 86 94 105
97 60 226 86 94 105
97 61 226 85 93 105
97 62 224 82 91 102
97 62 225 81 91 102
97 63 224 82 90 101
97 63 225 81 90 101
96 62 227 83 91 103
96 63 227 83 91 102
97 62 226 83 91 103
97 62 227 82 91 102
97 63 226 82 90 101
98 63 224 83 91 102
96 60 228 89 97 107
96 60 229 92 99 110
96 61 228 87 96 107
96 61 229 92 99 110
96 62 228 85 93 105
96 62 229 90 98 108
96 63 228 87 94 105
96 63 229 89 96 107
64 65 247 107 113 124
64 66 246 116 126 140
64 66 247 114 122 136
64 67 246 116 126 141
64 67 247 115 125 140
65 66 247 115 124 139
65 67 247 116 127 141
66 67 247 118 128 143
64 68 245 115 126 141
64 69 245 113 123 137
64 68 246 115 126 141
64 69 246 114 125 140
65 68 246 115 125 140
65 68 247 116 126 141
65 69 246 112 122 137
64 70 244 115 124 138
64 70 245 112 121 135
64 71 244 112 121 135
65 70 245 110 120 134
65 71 245 110 120 134
65 70 246 109 119 134
66 68 247 117 127 142
66 69 246 114 124 138
66 69 247 115 125 140
67 68 247 116 127 142
67 69 246 115 125 140
67 69 247 115 125 140
66 70 245 111 121 135
66 71 245 114 124 138
67 71 245 117 127 141
66 70 246 112 122 136
67 70 246 115 125 140
67 71 246 118 127 141
68 68 247 115 126 141
68 69 247 114 124 139
69 69 247 111 122 137
68 70 246 116 126 140
68 70 247 115 125 139
68 71 246 116 126 140
69 70 246 115 125 140
69 70 247 113 123 138
69 71 246 113 123 138
70 70 247 112 123 138
70 71 246 112 123 138
71 70 247 111 121 136
71 71 246 110 121 136
64 64 248 80 80 86
64 64 249 72 68 73
64 65 248 95 100 109
65 64 249 70 67 73
65 65 248 90 93 102
65 65 249 83 85 94
65 64 250 72 67 69
65 66 248 112 120 132
66 65 249 83 86 94
67 65 249 90 94 102
66 64 250 74 71 73
67 64 250 77 75 78
67 65 250 77 78 85
66 66 248 116 124 138
66 66 249 109 115 127
66 67 248 118 128 143
67 66 248 118 127 140
67 66 249 112 118 130
67 67 248 118 128 144
67 68 248 117 128 143
68 64 250 74 71 76
68 65 250 85 87 96
69 64 250 67 65 71
69 65 250 87 91 100
68 66 249 111 118 130
68 67 248 117 127 143
68 67 249 116 126 141
69 66 249 113 121 134
69 67 249 116 126 141
68 66 250 102 107 118
69 66 250 103 108 119
70 64 250 68 66 70
70 65 250 86 89 97
71 64 250 71 70 73
71 65 250 91 94 102
70 66 249 113 122 135
70 67 249 116 126 140
71 66 249 117 125 138
71 67 249 119 129 143
70 66 250 107 113 124
71 66 250 111 117 128
68 68 248 116 127 142
69 68 248 117 128 143
69 69 248 114 124 139
70 68 248 116 127 143
70 68 249 118 129 144
70 69 248 113 124 139
71 68 248 115 126 141
71 68 249 119 129 144
71 69 248 110 121 136
64 73 243 110 120 134
64 74 243 110 119 133
64 75 243 113 122 136
64 72 244 110 119 133
64 73 244 110 119 133
65 72 244 108 118 133
65 72 245 109 119 133
65 73 244 109 120 134
64 74 244 110 120 134
65 74 244 111 121 135
65 75 244 113 123 138
66 72 245 113 123 137
66 73 244 111 121 135
66 73 245 111 121 135
67 72 245 116 126 141
67 73 245 115 125 139
66 74 244 114 124 138
66 75 244 118 127 142
67 74 244 116 126 141
67 75 244 119 129 144
64 76 243 116 125 139
64 77 243 120 129 143
65 76 243 112 122 137
65 77 243 117 127 141
64 78 243 117 126 140
65 78 243 113 123 137
66 78 243 111 121 135
65 76 244 115 125 139
65 77 244 118 127 142
66 76 244 118 128 143
66 77 244 120 130 144
67 76 244 120 130 145
67 77 244 121 131 146
66 78 244 114 124 138
67 78 244 114 124 138
68 72 245 115 125 140
68 73 245 117 127 142
69 72 245 113 124 138
69 73 245 116 127 142
68 72 246 112 123 137
69 72 246 111 122 136
68 74 244 121 131 146
68 74 245 119 129 144
68 75 244 120 130 145
69 74 245 121 132 147
69 75 244 121 131 147
70 73 245 116 127 142
71 73 245 116 127 142
70 72 246 112 123 138
71 72 246 112 123 138
70 74 245 119 130 145
70 75 244 121 131 146
70 75 245 121 131 146
71 74 245 117 128 143
71 75 244 117 127 142
71 75 245 117 127 142
68 76 244 118 129 145
68 77 244 118 129 144
69 76 244 119 130 145
69 77 244 118 129 144
68 78 244 113 124 138
69 78 244 113 123 138
69 79 244 104 115 129
70 76 244 119 129 144
70 77 244 117 127 142
71 76 244 116 126 141
71 77 244 115 125 140
70 78 244 113 123 137
70 79 244 104 115 129
71 78 244 112 122 136
71 79 244 106 116 129
73 69 247 122 131 145
72 70 247 114 124 139
72 71 246 113 123 138
73 70 247 119 128 143
73 71 246 118 127 142
74 69 247 122 131 145
75 68 247 114 124 138
75 69 246 114 123 137
75 69 247 116 125 139
74 70 246 119 128 142
74 70 247 122 130 144
74 71 246 117 126 140
75 70 246 114 123 136
75 71 246 115 123 136
76 67 247 112 122 137
77 67 247 113 123 138
79 65 247 110 116 128
78 66 247 118 125 138
78 67 247 118 127 141
79 66 247 116 123 136
79 67 246 120 128 141
76 68 247 110 121 136
76 69 246 112 121 134
76 69 247 111 121 136
77 68 246 113 123 137
77 68 247 111 121 136
77 69 246 110 119 133
76 71 245 114 122 135
77 70 245 107 116 129
77 71 245 109 118 131
76 70 246 110 119 133
76 71 246 112 120 133
77 70 246 106 116 129
79 69 245 111 120 133
78 68 246 118 127 141
78 68 247 116 125 140
78 69 246 112 121 134
79 68 246 121 129 143
79 69 246 115 123 137
78 70 245 108 117 130
78 71 245 111 119 132
79 70 245 108 117 131
79 71 245 111 120 133
72 64 250 76 75 78
72 65 250 90 92 99
73 64 250 79 77 80
73 65 250 90 92 100
72 66 249 119 126 139
72 67 249 122 131 145
73 66 249 112 120 132
73 67 249 120 129 143
72 66 250 111 116 127
73 66 250 106 111 121
75 65 249 103 105 113
74 64 250 83 81 83
74 65 250 93 95 103
75 64 250 90 88 90
75 65 250 91 92 97
74 66 249 111 118 130
74 67 248 120 129 143
74 67 249 117 126 140
75 66 248 117 126 139
75 66 249 114 120 132
75 67 248 118 127 142
72 68 248 119 129 144
72 68 249 120 130 144
72 69 248 116 126 141
73 68 248 121 130 144
73 69 248 121 130 145
74 68 248 122 130 145
74 69 248 122 131 145
75 68 248 118 128 142
76 64 249 99 97 100
76 65 249 108 111 118
77 64 249 97 95 99
77 65 248 115 119 129
77 65 249 110 114 122
76 64 250 100 96 97
76 66 248 115 122 135
76 66 249 113 119 130
76 67 248 115 124 139
77 66 248 116 123 136
78 64 248 99 102 110
78 64 249 93 93 97
78 65 248 114 119 129
79 64 248 96 98 105
79 65 248 106 112 123
78 66 248 119 126 138
72 73 245 119 129 145
73 73 245 122 131 145
72 72 246 114 124 139
72 73 246 118 128 143
73 72 246 118 127 142
73 73 246 119 128 143
72 74 245 117 128 143
72 75 244 116 127 142
72 75 245 116 127 142
73 74 245 122 132 147
73 75 244 119 129 144
73 75 245 120 130 145
74 73 245 123 131 145
75 72 245 120 128 141
75 73 245 122 130 144
74 72 246 119 128 141
75 72 246 118 126 140
74 74 245 125 134 148
74 75 244 121 131 146
74 75 245 123 133 148
75 74 245 124 132 146
75 75 244 124 133 147
75 79 243 110 119 132
72 76 244 116 126 141
72 77 244 116 126 140
73 76 244 118 128 143
73 77 244 118 127 141
72 78 244 115 124 137
72 79 244 109 118 131
73 78 244 118 126 140
73 79 244 112 120 134
74 76 244 120 130 144
74 77 244 120 129 143
75 76 244 121 130 144
75 77 244 120 129 143
74 78 244 118 127 141
74 79 244 113 121 134
75 78 244 116 125 139
75 79 244 112 121 134
76 72 245 118 126 139
76 73 245 120 128 141
77 72 245 113 122 135
77 73 245 117 125 139
76 74 244 120 128 142
76 74 245 119 127 141
76 75 244 121 130 143
77 74 244 117 125 139
77 75 244 118 127 141
78 72 245 113 121 135
78 73 244 120 128 142
78 73 245 116 125 138
79 72 244 114 122 135
79 72 245 113 122 135
79 73 244 118 126 140
79 73 245 117 125 138
78 74 244 121 129 143
78 75 244 119 128 142
79 74 244 124 132 145
79 75 244 123 131 145
76 79 243 107 116 130
77 79 243 104 113 127
79 76 243 111 120 133
79 77 243 109 118 131
78 78 243 108 117 130
78 79 243 105 114 127
79 78 243 109 117 130
79 79 243 105 114 127
76 76 244 118 127 141
76 77 244 116 125 139
77 76 244 117 126 140
77 77 244 112 122 136
76 78 244 111 121 134
76 79 244 108 118 131
77 78 244 108 118 131
78 76 244 117 126 139
78 77 244 110 120 133
79 76 244 116 124 138
79 77 244 109 118 131
78 78 244 108 118 131
87 76 239 101 109 121
87 77 239 96 104 116
95 64 230 88 96 107
95 64 231 88 96 107
95 65 230 88 96 107
95 65 231 88 96 107
95 66 230 87 95 106
95 66 231 88 96 107
95 67 230 88 96 106
95 67 231 87 95 106
95 68 230 90 97 108
95 68 231 88 96 107
95 69 230 90 97 108
95 69 231 90 97 108
95 70 230 89 97 108
95 70 231 88 96 107
95 71 231 90 98 109
89 64 239 95 102 114
89 65 239 96 104 115
89 66 238 92 99 111
89 66 239 96 103 115
89 67 238 93 101 113
89 67 239 96 104 115
90 64 237 91 100 112
90 65 237 88 97 109
91 64 236 91 100 112
91 64 237 92 101 114
91 65 236 90 99 110
91 65 237 89 98 110
90 64 238 91 99 111
90 64 239 94 101 113
90 65 238 90 99 111
90 66 237 88 97 108
90 67 237 88 97 108
91 66 236 91 99 111
91 66 237 89 97 109
91 67 236 90 98 110
91 67 237 87 96 108
90 66 238 90 98 110
90 67 238 92 100 111
88 68 239 99 107 119
88 69 239 99 107 119
89 68 238 94 101 113
89 68 239 98 106 118
89 69 238 94 102 113
89 69 239 100 108 119
88 70 239 100 108 121
88 71 239 104 112 124
89 70 238 98 106 117
89 70 239 100 108 120
89 71 238 103 110 122
89 71 239 104 112 124
90 68 237 89 97 109
90 69 237 90 98 109
91 68 236 89 98 109
91 68 237 87 96 108
91 69 236 90 98 110
91 69 237 88 96 108
90 68 238 92 100 112
90 70 237 94 101 113
90 71 237 98 106 117
91 70 236 92 100 111
91 70 237 89 98 109
91 71 236 94 102 113
92 64 234 92 99 110
92 64 235 91 99 110
92 65 234 89 98 109
92 65 235 90 98 110
93 64 234 90 97 108
93 65 234 91 99 110
92 66 234 87 96 107
