ply
format ascii 1.0
comment PCL generated
element vertex 1976
property float x
property float y
property float z
property uchar red
property uchar green
property uchar blue
element camera 0
property float view_px
property float view_py
property float view_pz
property float x_axisx
property float x_axisy
property float x_axisz
property float y_axisx
property float y_axisy
property float y_axisz
property float z_axisx
property float z_axisy
property float z_axisz
property float focal
property float scalex
property float scaley
property float centerx
property float centery
property int viewportx
property int viewporty
property float k1
property float k2
end_header
248 823 164 128 138 153
248 823 165 128 137 153
249 823 164 129 138 154
249 823 165 127 136 152
250 823 164 140 149 165
250 823 165 132 141 157
251 822 164 140 149 165
251 823 164 138 147 163
251 823 165 130 139 155
252 816 160 115 125 140
252 817 160 116 125 140
252 817 161 115 124 139
253 816 160 113 123 139
253 817 160 116 125 140
252 818 161 114 124 139
252 819 161 116 125 140
253 818 161 117 126 140
253 819 161 117 127 141
252 819 162 119 128 143
253 819 162 122 130 145
254 816 160 123 132 148
254 817 160 123 132 146
255 816 160 130 140 155
255 817 160 129 137 152
254 818 161 121 130 144
254 819 161 119 128 143
255 818 161 123 131 146
255 819 161 120 129 144
254 819 162 126 134 149
255 819 162 125 134 149
252 820 162 122 131 146
252 821 163 124 133 149
253 820 162 125 134 149
253 821 163 125 134 150
252 822 163 130 139 155
253 822 163 127 136 152
254 820 162 128 137 152
254 821 163 125 135 150
255 820 162 129 139 154
255 821 163 132 142 157
254 822 163 127 136 151
255 822 163 129 138 153
252 822 164 135 144 159
252 823 164 134 143 160
252 823 165 129 138 154
253 822 164 130 139 154
253 823 164 130 139 155
253 823 165 130 139 154
254 822 164 129 137 153
254 823 164 128 136 152
254 823 165 127 136 151
255 822 164 126 134 150
255 823 164 125 134 149
255 823 165 122 131 147
248 824 165 125 135 150
249 824 165 125 134 150
248 825 166 126 135 150
248 825 167 127 136 152
249 825 166 126 135 150
249 825 167 128 137 152
248 826 167 126 135 151
249 826 167 129 139 155
250 824 165 129 137 152
251 824 165 129 138 153
250 825 166 127 136 151
250 825 167 130 140 156
251 825 166 128 136 152
251 825 167 135 144 161
250 826 167 139 149 165
251 826 167 148 158 174
252 824 165 129 138 153
253 824 165 131 140 156
252 825 166 125 135 151
252 825 167 130 140 156
253 825 166 129 138 154
253 825 167 128 138 155
252 826 167 142 152 168
253 826 167 136 147 164
254 824 165 129 138 154
255 824 165 125 134 150
254 825 166 132 141 157
254 825 167 133 142 159
255 825 166 129 138 154
255 825 167 131 141 157
254 826 167 134 144 161
255 826 167 131 140 156
248 827 168 127 136 152
249 827 168 132 141 157
250 827 168 145 154 170
251 827 168 146 155 172
248 828 168 127 136 152
248 828 169 128 137 152
248 829 169 129 138 153
249 828 168 130 139 154
249 828 169 130 139 153
249 829 169 130 138 152
248 829 170 125 134 149
249 829 170 125 134 148
248 830 170 122 131 146
248 831 171 124 134 149
249 830 170 124 132 147
249 831 171 126 135 151
250 828 168 136 145 161
250 828 169 129 137 152
250 829 169 125 134 148
251 828 168 138 148 164
251 828 169 126 135 151
251 829 169 122 130 146
250 829 170 124 132 147
251 829 170 122 130 146
250 830 170 124 133 148
250 831 171 127 137 152
251 830 170 124 132 148
251 831 171 129 138 153
252 827 168 144 153 169
253 827 168 140 150 167
254 827 168 137 147 164
255 827 168 131 140 156
252 828 168 137 146 162
252 828 169 124 133 149
252 829 169 122 130 147
253 828 168 136 146 162
253 828 169 127 137 153
253 829 169 122 132 148
252 829 170 123 132 148
253 829 170 124 133 149
252 830 170 123 133 148
252 831 171 123 132 147
253 830 170 125 133 149
253 831 171 121 130 146
254 828 168 133 143 160
254 828 169 130 140 157
254 829 169 127 137 153
255 828 168 126 136 153
255 828 169 125 135 151
255 829 169 125 134 151
254 829 170 127 137 153
255 829 170 127 136 153
254 830 170 127 136 152
254 831 171 124 132 148
255 830 170 127 136 152
255 831 171 127 135 150
215 832 173 127 135 149
215 833 173 124 133 147
216 832 173 124 133 147
216 833 173 122 131 147
217 832 173 121 130 145
217 833 173 120 130 146
216 833 174 122 131 146
217 833 174 126 135 151
217 834 174 133 142 157
218 832 173 120 129 144
218 833 173 122 132 148
219 832 173 119 127 143
219 833 173 123 132 147
218 833 174 137 146 161
219 833 174 132 141 156
218 834 174 145 153 169
218 834 175 140 149 165
219 834 174 137 146 161
219 834 175 136 146 162
219 835 175 135 145 162
220 832 173 118 126 142
220 833 173 120 129 144
221 832 173 122 130 145
221 833 173 122 131 145
220 833 174 122 131 146
221 833 174 121 129 144
220 834 174 124 134 149
220 834 175 127 138 154
220 835 175 130 141 158
221 834 174 118 128 144
221 834 175 119 130 146
221 835 175 123 134 150
222 832 173 126 135 150
222 833 173 123 131 146
223 832 173 127 135 151
223 833 173 120 128 144
222 833 174 120 128 143
223 833 174 117 126 141
222 834 174 117 126 142
222 834 175 117 126 142
222 835 175 118 128 144
223 834 174 117 126 142
223 834 175 118 127 143
223 835 175 118 126 142
220 835 176 133 144 161
221 835 176 128 138 155
222 835 176 119 129 145
223 835 176 116 125 141
221 836 176 132 142 159
222 836 176 121 131 147
223 836 176 116 126 141
224 832 173 122 131 147
225 832 173 123 131 147
224 833 174 119 127 143
225 833 174 123 131 146
224 834 174 118 127 142
224 834 175 121 130 145
224 835 175 120 129 145
225 834 174 122 131 146
225 834 175 125 134 148
225 835 175 123 132 147
226 832 173 124 132 147
227 832 173 123 131 146
226 833 174 123 132 147
227 833 174 124 132 148
226 834 174 124 133 148
226 834 175 127 136 151
226 835 175 130 139 154
227 834 174 123 133 148
227 834 175 128 137 153
227 835 175 136 145 160
228 832 173 122 131 146
229 832 173 123 132 147
228 833 174 122 131 146
229 833 174 123 132 147
228 834 174 123 132 147
228 834 175 127 137 152
228 835 175 136 145 160
229 834 174 125 134 149
229 834 175 128 137 152
229 835 175 130 138 153
230 832 173 121 131 147
230 833 173 121 130 146
231 832 173 122 131 147
231 833 173 123 132 148
230 833 174 123 131 147
231 833 174 123 132 148
230 834 174 124 133 147
230 834 175 124 132 147
230 835 175 122 131 146
231 834 174 123 132 147
231 834 175 121 130 145
231 835 175 118 127 142
231 836 175 117 127 142
232 832 172 125 134 149
232 832 173 124 133 148
232 833 173 126 134 149
233 832 172 124 133 148
233 832 173 124 133 148
233 833 173 127 136 151
232 833 174 125 134 149
233 833 174 125 134 149
232 834 174 123 131 146
232 834 175 121 130 144
232 835 175 120 129 143
233 834 174 122 131 146
233 835 175 122 131 145
234 832 172 124 133 149
234 832 173 125 135 151
234 833 173 126 136 152
235 832 172 124 134 150
235 832 173 128 138 155
235 833 173 131 141 157
234 833 174 125 134 149
235 833 174 127 136 152
234 834 174 123 132 147
234 835 175 123 132 146
235 834 174 125 134 149
235 835 175 124 133 148
232 836 175 117 126 141
233 836 175 121 130 145
234 836 175 123 131 146
235 836 175 123 131 146
236 832 172 132 142 159
236 832 173 136 146 163
236 833 173 139 149 165
237 832 173 139 149 166
237 833 173 135 146 163
236 833 174 132 142 158
237 833 174 136 146 162
236 834 174 126 135 151
236 835 175 124 133 149
237 834 174 133 143 159
237 835 175 125 134 150
238 832 173 136 147 165
238 833 173 133 144 161
239 832 173 138 148 166
239 833 173 131 142 159
238 833 174 130 141 158
239 833 174 126 138 155
238 834 174 134 144 160
238 835 175 129 138 154
239 834 174 128 139 155
239 834 175 125 136 152
239 835 175 126 136 151
236 836 175 121 130 145
237 836 175 118 127 143
238 836 175 122 132 148
239 836 175 123 132 148
224 835 176 118 127 142
225 835 176 121 130 145
226 835 176 131 140 155
227 835 176 136 145 159
224 836 176 117 126 141
224 837 177 119 127 142
225 836 176 119 128 143
225 837 176 122 131 147
225 837 177 117 126 142
225 838 177 116 126 142
226 836 176 133 141 157
226 837 176 136 145 161
226 837 177 130 140 156
227 836 176 139 147 162
227 837 176 141 150 166
227 837 177 134 144 161
226 838 177 120 131 146
227 838 177 126 136 152
228 835 176 137 145 160
229 835 176 133 142 157
228 836 176 136 145 160
228 837 176 136 146 162
228 837 177 135 145 162
229 836 176 131 141 157
229 837 176 133 143 159
228 838 177 130 140 155
228 839 177 118 127 142
229 838 177 122 132 147
229 839 177 115 124 140
228 839 178 118 127 142
229 839 178 114 123 138
230 836 176 124 134 149
230 837 176 130 139 154
231 836 176 119 129 144
231 837 176 123 133 148
230 838 177 119 128 144
230 839 177 113 122 137
231 838 176 121 130 145
231 838 177 117 126 142
231 839 177 114 122 138
230 839 178 114 123 138
229 840 178 115 124 139
230 840 178 116 125 140
231 840 178 116 126 141
231 841 178 121 131 146
232 836 176 117 126 141
232 837 176 120 129 143
233 836 176 119 128 143
233 837 176 122 130 145
232 838 176 120 128 143
232 838 177 117 125 140
232 839 177 118 127 142
233 838 176 122 130 145
233 838 177 119 128 143
233 839 177 119 129 144
234 837 176 123 131 146
235 837 176 123 132 147
234 838 176 122 131 146
234 838 177 120 130 144
234 839 177 120 129 144
235 838 176 123 132 146
235 838 177 121 130 145
235 839 177 120 130 145
236 837 176 121 130 145
237 836 176 116 126 141
237 837 176 118 127 142
236 838 176 120 129 144
236 838 177 118 127 142
236 839 177 117 127 143
237 838 176 120 129 145
237 838 177 120 130 145
237 839 177 121 131 147
238 836 176 118 128 143
238 837 176 119 128 143
239 836 176 119 128 144
239 837 176 120 129 144
238 838 176 123 132 147
238 838 177 127 136 152
238 839 177 133 142 157
239 838 176 126 134 149
239 838 177 132 140 155
239 839 177 135 144 159
233 840 177 127 136 152
232 840 178 126 136 151
232 841 178 132 141 156
232 841 179 128 137 152
233 840 178 135 144 160
233 841 178 138 147 162
233 841 179 131 141 156
233 842 179 127 135 151
234 840 177 124 134 149
235 840 177 122 132 147
234 840 178 129 139 154
234 841 178 129 139 154
234 841 179 128 138 153
235 840 178 124 134 149
235 841 178 127 136 152
235 841 179 129 138 153
234 842 179 126 136 151
235 842 179 127 135 151
236 840 177 121 131 146
237 840 177 124 134 150
236 840 178 125 134 149
236 841 178 128 137 152
236 841 179 129 136 151
237 840 178 126 136 151
237 841 178 128 136 152
237 841 179 127 135 149
236 842 179 126 133 148
237 842 179 125 132 145
238 840 177 131 140 155
239 840 177 130 139 155
238 840 178 128 137 152
238 841 178 128 136 151
238 841 179 126 134 148
239 840 178 128 137 152
239 841 178 126 134 149
239 841 179 124 131 145
238 842 179 124 130 143
238 843 179 112 117 130
239 842 179 121 126 139
239 843 179 107 112 124
236 843 180 111 116 132
237 843 180 107 112 126
238 843 180 96 100 114
239 843 180 90 95 109
237 844 180 90 96 112
238 844 180 93 100 113
238 844 181 117 124 136
239 844 180 94 103 116
239 844 181 115 122 135
240 832 173 132 144 161
240 833 173 128 139 157
241 832 173 134 145 161
241 833 173 135 145 162
240 833 174 125 136 153
241 833 174 132 142 158
240 834 174 122 132 148
240 835 175 119 128 144
241 834 174 124 133 149
241 835 175 121 130 145
242 832 173 129 140 156
242 833 173 136 146 162
243 832 173 125 135 152
243 833 173 130 140 157
242 833 174 136 145 161
243 833 174 132 142 158
242 834 174 124 134 150
242 835 175 119 128 143
243 834 174 123 133 149
243 835 174 119 129 144
243 835 175 119 128 144
240 836 175 117 126 141
241 836 175 121 130 144
242 836 175 121 129 144
243 836 175 119 128 143
243 837 175 118 127 143
244 832 173 122 131 147
244 833 173 124 134 150
245 832 172 122 131 145
245 832 173 122 131 146
245 833 173 123 133 148
244 833 174 125 135 150
244 834 174 126 135 150
244 835 174 126 135 150
244 835 175 125 133 149
245 834 174 126 135 150
245 835 174 126 135 150
246 832 172 123 132 146
246 832 173 122 131 146
246 833 173 121 130 145
247 832 172 124 134 150
247 833 173 126 136 152
246 834 173 123 132 148
247 834 173 129 139 154
246 834 174 124 133 148
246 835 174 124 133 148
247 834 174 128 137 153
247 835 174 124 133 149
244 836 175 122 131 146
245 836 175 122 132 147
246 836 175 123 132 147
247 836 175 122 132 147
248 832 171 130 140 156
249 832 171 132 142 159
250 832 171 134 144 160
251 832 171 130 139 154
248 832 172 132 143 160
248 833 172 135 145 162
248 833 173 138 148 164
249 832 172 136 147 164
249 833 172 136 147 164
249 833 173 137 148 165
248 834 173 139 149 165
249 834 173 138 148 165
248 834 174 135 145 160
248 835 174 124 134 150
248 835 175 120 130 145
249 835 174 127 137 154
250 832 172 137 147 164
250 833 172 134 145 162
250 833 173 135 146 162
251 832 172 127 138 153
251 833 172 130 140 156
251 833 173 136 145 161
250 834 173 136 147 163
251 834 173 138 147 162
250 835 174 126 135 152
251 835 174 126 136 151
248 836 175 119 129 145
249 836 174 120 130 146
249 836 175 119 128 144
249 837 175 121 130 145
250 836 175 120 129 145
250 837 175 122 131 146
251 836 174 123 132 147
251 836 175 124 132 148
251 837 175 127 135 150
252 832 171 121 130 145
253 832 171 118 127 142
254 832 171 121 130 145
255 832 171 124 132 147
252 832 172 119 129 145
252 833 172 122 131 146
252 833 173 125 134 149
253 832 172 117 126 140
253 833 172 115 124 139
253 833 173 114 123 137
252 834 173 128 137 153
252 835 173 121 131 147
253 834 173 115 124 139
253 835 173 116 125 140
252 835 174 121 131 147
253 835 174 115 124 140
254 832 172 120 128 142
254 833 172 116 124 138
254 833 173 113 121 135
255 832 172 120 128 143
255 833 172 116 124 138
255 833 173 116 123 137
254 834 173 113 121 135
254 835 173 114 123 137
255 834 173 116 124 138
255 835 173 119 127 141
254 835 174 115 124 139
255 835 174 119 127 142
252 836 174 120 129 145
252 836 175 124 132 147
252 837 175 127 136 150
253 836 174 119 128 143
253 836 175 124 133 147
253 837 175 128 137 151
254 836 174 117 126 142
254 836 175 127 136 151
254 837 175 136 145 159
255 836 174 118 127 142
255 836 175 126 135 150
255 837 175 135 144 158
240 837 176 116 125 140
241 837 176 119 128 142
240 838 176 117 126 141
240 838 177 120 129 144
240 839 177 125 134 149
241 838 176 118 127 142
241 838 177 118 128 143
241 839 177 119 128 143
242 837 176 121 130 144
243 837 176 120 129 144
242 838 176 122 130 145
242 838 177 121 130 145
242 839 177 121 130 145
243 838 176 121 130 144
243 838 177 120 129 145
243 839 177 120 129 144
244 837 176 124 133 148
245 837 176 125 134 149
244 838 176 123 132 147
244 838 177 123 132 147
244 839 177 125 133 148
245 838 176 129 138 153
245 838 177 132 140 155
245 839 177 135 143 157
246 837 176 126 135 151
247 837 176 126 135 150
246 838 176 132 141 157
246 838 177 135 143 158
246 839 177 139 147 161
247 838 176 128 137 153
247 838 177 130 139 154
247 839 177 135 143 157
240 840 177 124 133 148
241 840 177 121 130 145
240 840 178 124 133 147
240 841 178 124 131 145
240 841 179 122 129 142
241 840 178 121 129 144
241 841 178 119 127 141
241 841 179 117 123 137
240 842 179 115 120 133
240 843 179 100 104 117
241 842 179 108 112 126
241 843 179 92 97 111
242 840 177 122 130 145
243 840 177 121 129 144
242 840 178 121 129 144
242 841 178 117 124 139
242 841 179 112 118 132
243 840 178 122 129 143
243 841 178 116 122 136
243 841 179 107 113 127
242 842 179 100 105 119
242 843 179 86 91 105
243 842 179 96 102 115
243 843 179 86 92 105
240 843 180 85 91 106
241 843 180 82 88 103
242 843 180 82 88 102
243 843 180 85 92 105
240 844 180 94 102 116
240 845 181 109 117 131
241 844 180 90 99 112
241 845 181 103 112 125
242 844 180 93 101 114
242 845 181 99 108 122
243 844 180 98 106 118
243 845 181 101 109 122
242 846 181 99 109 123
242 846 182 105 115 130
243 846 182 106 116 131
244 840 178 123 130 144
244 841 178 112 118 132
244 841 179 104 109 123
245 840 178 123 130 144
245 841 178 108 114 128
245 841 179 100 106 120
244 842 179 92 98 112
244 843 179 86 93 107
245 842 179 90 96 109
245 843 179 87 94 107
246 840 178 123 129 144
246 841 178 104 110 124
246 841 179 95 101 115
247 840 178 122 129 143
247 841 178 104 109 123
247 841 179 94 100 114
246 842 179 85 92 105
246 843 179 87 95 108
247 842 179 85 92 105
247 843 179 92 100 112
244 843 180 89 97 110
245 843 180 92 100 113
246 843 180 94 102 115
247 843 180 96 104 116
244 844 180 102 109 122
244 845 181 103 111 124
245 844 180 105 113 125
245 845 181 106 113 127
244 846 182 112 121 135
245 846 182 115 124 138
245 846 183 120 130 146
245 847 183 122 132 149
246 844 180 104 112 125
246 845 181 107 116 130
247 844 180 102 111 124
247 845 181 107 118 132
246 846 182 114 125 140
246 846 183 126 136 152
246 847 183 130 140 156
247 846 182 116 126 142
247 846 183 132 141 157
247 847 183 138 148 164
245 847 184 127 137 153
246 847 184 128 138 154
247 847 184 137 147 163
248 837 176 121 130 145
249 837 176 122 131 146
248 838 176 120 130 146
248 838 177 121 131 147
248 839 177 125 134 149
249 838 176 124 133 149
249 839 177 124 132 147
250 837 176 123 132 147
251 837 176 128 137 151
250 838 176 125 133 148
250 839 177 125 133 148
251 838 176 128 136 150
251 839 177 127 135 149
252 837 176 129 137 151
253 837 176 130 138 152
252 838 176 129 136 150
252 839 177 128 135 150
253 838 176 128 137 152
253 839 177 129 137 152
254 837 176 137 145 160
255 837 176 132 140 155
254 838 176 130 138 153
254 839 177 126 135 150
255 838 176 125 134 148
255 838 177 123 132 147
255 839 177 125 135 150
249 840 177 118 125 140
248 840 178 113 121 135
248 841 178 98 104 118
248 841 179 92 98 111
249 840 178 109 116 130
249 841 178 94 101 113
248 842 179 87 94 107
248 843 179 95 103 115
249 842 179 87 95 107
249 843 179 95 103 115
250 840 177 121 128 142
251 840 177 123 129 143
250 840 178 112 118 132
250 841 178 98 103 116
250 841 179 89 95 108
251 840 178 114 119 133
251 841 178 99 104 118
251 841 179 86 92 106
250 842 179 86 95 106
250 843 179 98 106 119
251 842 179 84 92 104
251 843 179 96 105 118
251 843 180 100 110 124
248 844 180 101 110 124
248 845 181 110 120 135
249 844 180 102 111 125
249 845 181 111 121 136
248 846 182 119 129 144
248 846 183 133 142 158
248 847 183 140 149 165
249 846 182 118 128 144
249 846 183 130 139 155
249 847 183 135 144 159
250 844 180 110 119 134
250 845 181 115 125 140
251 844 180 121 130 145
251 845 181 121 130 146
250 846 182 119 129 145
250 846 183 129 138 153
250 847 183 131 140 156
251 846 182 121 131 148
251 846 183 129 138 154
252 840 177 126 133 147
253 840 177 127 135 150
252 840 178 117 122 136
252 841 178 99 104 119
252 841 179 86 90 106
253 840 178 119 125 140
253 841 178 100 103 120
253 841 179 91 95 113
252 842 179 80 88 101
252 843 179 90 100 113
253 842 179 74 83 98
253 843 179 84 95 109
254 840 178 126 133 149
254 841 179 105 110 127
255 840 178 132 140 155
255 840 179 140 148 162
255 841 179 122 129 144
254 842 179 79 86 103
254 843 179 77 88 102
255 842 179 92 98 115
252 843 180 100 111 124
253 843 180 100 110 124
254 843 180 79 90 105
255 842 180 86 92 110
255 843 180 76 85 104
252 844 180 124 134 148
252 845 181 124 133 149
253 844 180 119 129 143
253 844 181 126 134 149
253 845 181 122 132 147
253 845 182 127 137 153
252 846 182 123 133 149
252 846 183 128 137 153
253 846 182 130 140 156
253 846 183 132 141 157
254 844 180 106 116 131
254 844 181 119 128 144
254 845 181 120 130 146
255 844 180 97 108 124
255 844 181 113 124 140
255 845 181 118 129 145
254 845 182 126 137 153
255 845 182 125 135 152
254 846 182 131 141 157
254 846 183 136 145 161
255 846 182 129 139 156
255 846 183 136 146 161
248 847 184 139 148 164
248 847 185 134 143 159
249 847 184 134 143 158
249 847 185 134 142 157
250 847 184 135 144 159
250 847 185 133 141 157
251 847 184 135 143 159
251 847 185 136 144 160
252 847 184 131 141 156
252 847 185 134 142 158
253 847 184 134 143 158
253 847 185 132 141 156
254 846 184 138 147 162
254 847 184 137 146 161
254 847 185 136 145 161
255 846 184 139 148 164
255 847 184 138 147 162
255 847 185 140 149 165
248 848 185 132 141 157
249 848 185 133 141 157
249 848 186 131 140 155
250 848 185 131 139 155
251 848 185 134 142 158
250 848 186 130 138 154
250 848 187 130 138 154
251 848 186 130 139 155
251 848 187 129 138 154
251 849 187 131 139 156
252 848 185 134 142 157
253 848 185 132 140 156
252 848 186 132 141 157
252 848 187 132 142 158
252 849 187 133 143 159
253 848 186 132 141 157
253 848 187 135 144 160
253 849 187 137 146 162
254 848 186 139 148 164
254 848 187 144 153 170
254 849 187 143 152 169
255 848 186 153 162 178
255 848 187 160 168 185
255 849 187 154 163 179
252 849 188 134 143 160
253 849 188 137 146 162
253 850 188 136 145 162
254 849 188 141 150 166
255 849 188 146 155 171
254 850 189 141 150 166
255 850 189 144 152 169
255 850 190 144 153 170
256 789 146 117 125 138
257 789 146 116 125 138
256 790 146 109 117 131
256 791 147 107 115 129
257 790 146 110 118 132
257 791 146 110 119 133
257 791 147 110 119 132
258 789 146 110 119 133
258 790 146 108 117 131
258 791 146 114 123 137
258 791 147 122 131 145
259 790 146 112 121 135
259 791 146 120 128 142
259 791 147 127 135 149
260 790 146 110 119 133
260 791 146 116 124 138
260 791 147 121 130 144
261 790 146 107 116 129
261 791 146 112 120 134
261 791 147 112 120 135
262 791 146 109 118 132
262 791 147 110 119 132
263 791 146 113 122 136
263 791 147 110 119 133
256 792 147 108 116 129
256 793 147 107 115 129
257 792 147 111 120 134
257 793 147 114 122 135
258 792 147 123 132 145
258 793 147 119 127 141
259 792 147 125 134 148
259 793 147 122 131 145
256 793 148 107 116 129
257 793 148 113 121 135
256 794 148 107 116 130
256 795 148 111 121 135
256 795 149 114 123 138
257 794 148 111 120 133
257 795 148 109 118 133
257 795 149 110 119 133
258 793 148 118 126 140
259 793 148 119 128 141
258 794 148 115 123 136
258 795 148 113 121 135
258 795 149 113 121 134
259 794 148 113 122 135
259 795 148 109 118 131
259 795 149 110 118 132
256 796 149 119 128 143
256 797 149 125 133 148
257 796 149 113 122 136
257 797 149 117 126 140
256 797 150 124 133 147
256 798 150 128 137 151
256 799 151 125 133 147
257 798 150 119 128 142
257 799 150 122 130 144
257 799 151 118 126 140
258 796 149 113 121 135
258 797 149 114 123 137
259 796 149 112 120 134
259 797 149 114 122 136
259 798 149 114 122 136
258 798 150 114 122 136
258 799 150 112 121 135
259 798 150 113 122 136
259 799 150 114 123 136
260 792 147 118 127 142
260 793 147 114 124 138
261 792 147 111 120 134
261 793 147 111 120 134
262 792 147 110 118 132
262 793 147 110 118 131
263 792 147 110 119 133
263 793 147 110 118 132
260 793 148 112 122 137
261 793 148 111 120 133
260 794 148 110 119 133
260 795 148 105 114 129
260 795 149 105 114 129
261 794 148 111 119 133
261 795 148 109 118 132
261 795 149 105 114 129
262 794 148 112 120 133
262 795 148 111 120 134
263 794 148 111 119 132
263 795 148 111 119 132
260 796 149 108 117 131
260 797 149 112 120 134
261 796 149 108 117 131
261 797 149 113 122 136
260 798 149 112 121 135
261 798 149 114 123 137
260 798 150 112 121 135
260 799 150 113 121 135
261 798 150 114 123 138
261 799 150 117 126 141
262 796 149 110 120 134
262 797 149 121 130 144
263 796 149 112 121 136
263 797 149 123 132 147
262 798 149 126 135 150
263 798 149 128 138 154
262 798 150 131 141 156
262 799 150 135 144 160
263 798 150 129 139 156
263 799 150 133 143 159
264 792 147 120 129 143
264 793 147 110 120 134
265 792 146 132 141 156
265 792 147 127 136 150
265 793 147 110 120 135
265 794 147 106 115 129
266 792 146 129 138 153
266 792 147 124 134 148
266 793 147 109 119 134
267 792 147 121 131 145
267 793 147 113 122 137
266 794 147 103 112 127
267 794 147 105 114 128
264 794 148 110 118 132
264 795 148 110 118 132
265 794 148 107 115 128
265 795 148 109 117 130
266 794 148 105 114 127
266 795 148 107 115 128
267 794 148 106 115 128
267 795 148 109 117 131
264 796 148 111 120 134
264 796 149 112 121 136
264 797 149 120 129 144
265 796 148 111 120 133
265 796 149 113 122 136
265 797 149 115 124 138
264 798 149 126 136 152
265 798 149 114 124 139
264 798 150 125 135 152
264 799 150 128 139 154
265 798 150 116 126 142
265 799 150 128 137 152
266 796 148 109 117 130
266 796 149 109 117 131
266 797 149 109 118 132
267 796 148 112 120 133
267 796 149 110 118 132
267 797 149 106 115 129
266 798 149 108 118 133
267 798 149 109 118 133
266 798 150 111 121 136
266 799 150 119 128 143
267 799 150 111 121 135
268 793 147 115 124 138
269 793 147 106 116 130
268 794 147 110 118 131
269 794 147 108 117 131
270 793 147 107 116 130
270 794 147 108 117 131
271 794 147 108 118 132
268 794 148 107 115 129
268 795 148 109 117 131
269 794 148 108 117 130
269 795 148 108 117 130
270 795 148 111 120 134
271 795 148 123 132 146
268 796 148 111 119 132
268 797 149 108 116 129
269 796 148 108 116 130
269 797 149 109 118 131
268 798 149 110 119 132
269 798 149 110 118 132
268 799 150 111 119 133
269 799 150 109 117 131
270 796 148 111 120 133
270 797 148 111 120 133
270 797 149 110 118 132
271 796 148 117 127 141
271 797 148 114 123 137
271 797 149 113 121 135
270 798 149 110 118 131
270 799 149 109 117 130
271 798 149 112 120 134
271 799 149 111 120 133
270 799 150 108 116 130
271 799 150 109 118 131
272 794 147 116 126 141
273 794 147 122 132 148
272 795 148 126 136 151
273 795 148 121 132 148
274 795 148 113 125 141
275 795 148 114 125 142
272 796 148 123 133 149
272 797 148 117 127 143
272 797 149 117 126 141
273 796 148 128 138 154
273 797 148 129 138 154
273 797 149 128 136 151
272 798 149 111 120 134
272 799 149 108 117 131
273 798 149 114 122 137
273 799 149 103 112 127
272 799 150 106 116 130
273 799 150 103 113 128
274 796 148 117 128 144
274 797 148 125 134 150
274 797 149 128 136 151
275 796 148 114 125 140
275 797 148 115 125 140
275 797 149 114 124 139
274 798 149 121 129 143
274 799 149 104 114 129
275 798 149 116 124 139
275 799 149 112 120 134
274 799 150 103 113 128
275 799 150 109 118 133
276 795 148 114 124 140
277 795 148 121 131 146
276 796 148 113 123 138
276 797 148 110 120 135
276 797 149 108 118 133
277 796 148 118 127 142
277 797 148 111 121 135
276 798 149 108 117 132
276 799 149 110 119 133
277 798 149 107 116 131
277 799 149 112 120 133
276 799 150 112 121 135
278 796 148 124 133 147
278 797 148 115 124 138
279 796 148 121 130 145
279 797 148 115 124 138
279 797 149 110 119 133
278 798 149 110 119 133
278 799 149 115 123 136
279 798 149 111 120 133
279 799 149 116 123 136
280 796 148 112 121 136
280 797 148 111 120 135
280 797 149 110 119 133
281 797 148 111 120 134
281 797 149 110 118 133
280 798 149 111 120 134
280 799 149 113 121 134
281 798 149 112 120 134
281 799 149 112 121 135
282 797 148 111 119 133
282 797 149 110 119 133
283 797 148 112 122 136
283 797 149 110 119 133
282 798 149 110 119 133
282 799 149 111 120 135
283 798 149 110 119 134
283 799 149 112 121 135
282 799 150 113 122 136
283 799 150 113 122 136
284 797 149 115 125 140
284 798 149 111 121 135
284 799 149 112 121 135
285 798 149 114 123 138
285 799 149 113 121 135
284 799 150 113 122 136
285 799 150 114 122 136
286 798 149 114 123 138
286 799 149 113 122 136
287 799 149 113 121 135
286 799 150 115 123 137
287 799 150 114 122 135
256 800 151 114 123 137
256 801 151 115 124 137
257 800 151 113 122 136
257 801 151 113 122 136
258 800 151 109 118 133
258 801 151 110 119 133
259 800 151 113 121 135
259 801 151 111 119 133
260 800 150 115 123 137
260 800 151 115 123 137
260 801 151 113 121 135
261 800 150 117 126 141
261 800 151 115 124 139
261 801 151 112 121 135
261 802 151 108 117 131
262 800 150 128 137 152
262 801 151 114 123 138
263 800 150 133 142 158
263 801 151 121 129 143
262 802 151 109 118 132
263 802 151 111 119 133
256 801 152 116 124 138
257 801 152 117 125 139
256 802 152 115 123 137
256 803 152 116 123 137
256 803 153 114 121 135
257 802 152 118 126 140
257 803 152 117 125 139
257 803 153 114 122 136
258 801 152 112 121 135
258 802 152 114 123 137
258 803 152 117 125 140
259 802 152 111 120 135
259 803 152 112 121 136
256 804 153 111 119 133
256 805 153 111 119 132
257 804 153 111 119 133
257 805 153 112 120 134
256 805 154 111 119 133
257 805 154 110 119 132
256 806 154 108 117 131
256 807 155 110 119 133
257 806 154 109 117 131
257 807 154 109 117 131
257 807 155 109 117 131
258 804 153 115 124 139
258 805 153 118 126 140
259 804 153 120 128 143
259 805 153 128 136 150
258 805 154 115 123 137
259 805 154 124 132 146
258 806 154 110 119 133
258 807 154 110 118 133
258 807 155 111 119 134
259 806 154 114 123 137
259 807 154 110 120 134
259 807 155 112 121 135
260 802 152 114 122 136
260 803 152 113 122 136
261 802 152 111 120 134
261 803 152 111 120 134
262 802 152 109 117 131
262 803 152 106 115 129
263 802 152 109 117 131
263 803 152 106 115 129
260 804 153 119 128 142
260 805 153 123 132 146
261 804 152 112 122 136
261 804 153 117 127 141
261 805 153 122 131 145
260 805 154 125 134 147
260 806 154 118 127 141
260 807 154 113 122 137
260 807 155 113 122 137
261 806 154 120 129 143
261 807 154 117 127 142
261 807 155 116 125 140
262 804 152 109 118 132
262 804 153 114 123 136
262 805 153 118 126 140
263 804 152 111 119 133
263 804 153 114 122 136
263 805 153 113 122 135
262 806 154 118 126 140
262 807 154 117 126 142
263 806 154 113 122 137
263 807 154 119 128 143
256 808 155 117 125 140
257 808 155 116 124 139
258 808 155 116 125 139
259 808 155 117 126 140
256 808 156 118 127 142
256 809 156 118 128 143
257 809 156 120 129 143
256 810 156 117 127 142
256 811 157 123 133 149
257 810 156 118 128 143
257 811 157 127 137 153
258 809 156 119 128 143
259 809 156 121 130 144
258 810 156 120 130 145
258 811 157 129 139 155
259 810 156 120 129 144
259 811 157 124 133 149
256 812 157 125 137 154
257 812 157 137 147 164
256 812 158 126 138 156
256 813 158 127 139 156
257 812 158 133 143 160
257 813 158 127 138 155
256 814 158 134 144 161
256 814 159 136 146 163
256 815 159 122 134 151
257 814 158 131 142 158
257 814 159 130 141 159
257 815 159 120 132 149
258 812 157 139 149 165
259 812 157 131 141 157
258 812 158 136 146 163
258 813 158 128 139 155
259 812 158 132 142 158
259 813 158 128 138 154
258 814 158 125 136 152
258 814 159 125 136 152
258 815 159 122 133 149
259 814 158 126 137 152
259 814 159 126 136 152
259 815 159 128 138 153
260 808 155 115 124 139
261 808 155 118 128 144
261 809 155 122 133 148
262 808 155 128 138 154
262 809 155 134 143 159
263 808 155 131 140 155
263 809 155 135 144 158
260 809 156 121 129 144
261 809 156 122 131 147
260 810 156 119 127 142
260 811 156 118 127 142
260 811 157 118 127 142
261 810 156 121 130 145
261 811 156 118 127 142
261 811 157 117 126 141
262 809 156 133 142 158
263 809 156 132 141 155
262 810 156 127 136 151
262 811 156 120 129 144
262 811 157 117 126 141
263 810 156 125 134 148
263 811 156 120 129 144
263 811 157 116 125 139
260 812 157 122 131 147
261 812 157 119 127 142
260 812 158 125 135 150
260 813 158 125 134 149
261 813 158 117 126 141
260 814 158 125 134 150
260 814 159 123 133 148
260 815 159 133 141 156
261 814 158 118 127 142
261 815 159 123 131 146
262 812 157 116 125 139
263 812 157 114 122 137
263 813 157 113 121 136
262 813 158 113 122 136
263 813 158 112 121 135
262 814 158 115 123 137
262 815 159 114 122 137
263 814 158 113 121 135
263 815 158 110 119 133
263 815 159 112 121 135
264 800 150 129 138 153
264 801 151 117 126 140
265 800 150 132 140 154
265 801 150 121 129 143
265 801 151 115 123 138
264 802 151 110 118 131
265 802 151 110 118 132
266 800 150 126 134 148
266 801 150 120 129 143
266 801 151 112 121 135
267 800 150 114 123 137
267 801 150 116 124 138
267 801 151 113 122 136
266 802 151 111 119 133
267 802 151 114 122 136
268 800 150 112 120 134
268 801 150 112 121 135
268 801 151 113 122 136
269 800 150 112 120 134
269 801 150 114 123 136
269 801 151 113 122 136
268 802 151 117 127 141
269 802 151 117 126 141
270 800 150 113 121 134
270 801 150 115 123 137
270 801 151 113 121 135
271 800 150 112 120 134
271 801 150 116 124 137
271 801 151 111 120 134
270 802 151 113 123 137
271 802 151 109 118 133
264 802 152 107 115 129
264 803 152 107 115 128
265 802 152 108 117 130
265 803 152 108 116 129
266 803 152 110 119 132
267 803 152 117 125 139
264 804 152 112 120 133
264 804 153 116 123 136
264 805 153 113 121 134
265 804 152 113 121 134
265 805 153 113 121 134
264 806 153 110 119 133
265 806 153 112 121 134
264 806 154 111 120 134
264 807 154 113 123 138
265 806 154 113 121 135
265 807 154 112 121 136
266 804 152 113 121 135
266 805 153 112 120 134
267 804 152 116 124 138
267 805 153 113 121 135
266 806 153 113 121 135
267 806 153 111 120 134
266 806 154 114 123 136
266 807 154 113 122 136
267 806 154 112 121 135
267 807 154 112 121 136
268 803 152 129 138 152
269 803 152 128 137 151
270 803 152 121 130 144
271 803 152 113 122 136
268 804 152 124 133 147
268 805 153 114 123 137
269 804 152 122 131 145
269 805 153 115 124 138
268 806 153 113 122 136
269 806 153 115 123 137
268 806 154 112 121 136
268 807 154 121 129 144
269 807 154 127 136 150
270 804 152 118 126 141
270 805 153 114 123 137
271 804 152 113 121 135
271 805 152 112 121 135
271 805 153 114 123 137
270 806 153 116 125 139
271 806 153 118 127 141
270 807 154 122 131 146
271 807 154 121 131 146
264 808 154 112 122 138
264 808 155 122 131 146
264 809 155 120 130 145
265 808 154 111 121 136
265 808 155 114 124 139
265 809 155 115 125 140
266 808 154 114 124 138
266 808 155 114 124 139
266 809 155 116 125 139
267 808 154 118 128 143
267 808 155 119 129 144
267 809 155 115 125 140
264 809 156 123 132 147
264 810 156 121 130 145
264 811 156 120 129 143
264 811 157 115 123 138
265 810 156 118 127 142
265 811 156 120 129 143
265 811 157 118 126 140
266 810 156 116 125 140
266 811 156 118 127 141
266 811 157 119 127 142
267 810 156 113 123 138
267 811 156 114 123 139
267 811 157 117 126 141
264 812 157 113 121 136
264 813 157 113 122 136
265 812 157 116 125 139
265 813 157 115 124 138
264 813 158 113 122 136
265 813 158 117 126 141
264 814 158 111 120 134
264 815 158 109 119 133
264 815 159 110 120 135
265 814 158 116 126 141
265 815 158 117 127 143
265 815 159 120 129 146
266 812 157 116 125 140
266 813 157 117 126 141
267 812 157 117 126 141
267 813 157 116 126 142
266 813 158 122 132 148
267 813 158 121 131 148
266 814 158 126 136 153
266 815 158 131 141 158
266 815 159 135 145 162
267 814 158 130 140 157
267 815 158 134 146 163
268 808 154 131 140 155
268 808 155 134 142 157
268 809 155 125 135 150
269 808 154 140 148 163
269 808 155 139 148 163
269 809 155 131 140 155
269 810 155 119 129 144
270 808 154 136 145 160
270 808 155 136 146 161
270 809 155 131 140 156
271 808 154 131 141 156
271 808 155 132 142 158
271 809 155 129 139 155
270 810 155 120 131 146
271 810 155 123 132 148
268 810 156 116 126 141
268 811 156 117 126 141
269 810 156 117 127 142
269 811 156 120 129 144
270 810 156 117 127 143
270 811 156 119 127 143
271 810 156 119 129 144
271 811 156 119 128 144
268 812 157 119 128 142
268 813 157 119 128 143
269 812 156 121 129 144
269 812 157 121 129 144
269 813 157 121 130 144
268 813 158 120 130 146
268 814 158 129 139 155
268 815 158 130 141 157
268 815 159 133 144 161
269 814 158 116 125 140
269 815 158 116 127 143
270 812 156 119 127 142
270 812 157 118 126 141
270 813 157 119 127 141
271 812 156 120 128 144
271 812 157 118 126 140
271 813 157 118 126 140
270 814 158 112 121 136
270 815 158 109 119 135
271 814 158 115 123 138
271 815 158 109 118 133
259 816 159 125 134 149
260 816 159 131 139 154
261 816 159 122 131 146
262 816 159 111 120 135
263 816 159 114 123 137
264 816 159 114 123 138
265 816 159 125 135 151
266 816 159 137 147 164
266 817 159 132 142 158
267 816 159 138 148 165
267 817 159 140 149 165
268 816 159 136 146 163
268 817 159 131 141 158
269 816 159 134 144 160
269 817 159 131 140 156
270 816 159 126 136 151
270 817 159 130 139 155
271 816 159 118 127 142
271 817 159 124 133 148
272 800 150 109 118 132
272 801 150 116 124 138
272 801 151 114 123 137
273 800 150 107 117 132
273 801 150 117 125 139
273 801 151 120 128 142
272 802 151 112 121 135
273 802 151 116 125 139
274 800 150 108 118 133
274 801 150 117 126 141
274 801 151 125 134 148
275 800 150 114 123 137
275 801 150 123 131 145
275 801 151 128 137 151
274 802 151 124 132 146
275 802 151 125 133 147
275 803 151 114 123 137
276 800 150 115 124 138
276 801 150 117 125 139
276 801 151 118 127 140
277 800 150 114 122 135
277 801 150 112 121 134
277 801 151 111 120 134
276 802 151 116 125 139
276 803 151 112 121 135
277 802 151 112 121 135
277 803 151 111 119 134
278 800 150 114 122 135
278 801 150 111 120 134
278 801 151 113 121 135
279 800 150 117 124 138
279 801 150 114 122 136
279 801 151 113 121 135
278 802 151 111 120 134
278 803 151 109 118 132
279 802 151 112 121 135
279 803 151 110 119 133
272 803 152 111 119 133
273 803 152 113 121 135
274 803 152 113 122 135
275 803 152 113 121 135
272 804 152 111 120 133
272 805 152 112 121 135
272 805 153 113 122 136
273 804 152 115 123 137
273 805 152 116 124 138
273 805 153 115 124 138
272 806 153 115 123 138
273 806 153 114 123 137
272 807 154 118 128 143
273 807 154 115 124 139
274 804 152 115 123 137
274 805 152 115 123 137
274 805 153 115 124 138
275 804 152 114 122 135
275 805 152 113 121 135
275 805 153 113 122 136
274 806 153 116 125 139
275 806 153 116 124 139
275 807 153 117 126 140
274 807 154 117 126 140
275 807 154 118 126 140
276 803 152 114 122 136
277 803 152 111 120 134
278 803 152 110 118 132
279 803 152 109 118 132
276 804 152 115 123 137
276 805 152 115 123 137
276 805 153 112 121 135
277 804 152 114 122 136
277 805 152 114 123 137
277 805 153 112 120 134
276 806 153 114 123 137
276 807 153 118 126 141
277 806 153 113 122 136
277 807 153 117 126 140
276 807 154 119 127 141
277 807 154 118 126 141
278 804 152 113 122 135
278 805 152 115 123 137
278 805 153 113 121 135
279 804 152 112 120 134
279 805 152 113 121 134
279 805 153 112 120 134
278 806 153 113 121 135
278 807 153 116 124 139
279 806 153 113 122 135
278 807 154 114 123 138
279 807 154 112 122 136
272 808 154 124 134 149
272 808 155 126 136 151
272 809 155 122 131 147
273 808 154 115 125 140
273 808 155 117 127 142
273 809 155 118 128 143
272 810 155 117 127 142
273 810 155 115 125 141
274 808 154 117 126 141
274 809 155 118 127 142
275 808 154 120 128 142
275 809 155 118 127 141
274 810 155 118 127 142
275 810 155 117 126 142
272 810 156 119 128 143
272 811 156 122 131 146
273 810 156 116 126 141
273 811 156 121 130 144
274 810 156 117 127 141
274 811 156 122 131 146
275 810 156 118 127 143
275 811 156 126 136 152
272 812 156 124 132 147
272 812 157 119 127 142
272 813 157 117 126 140
273 812 156 123 131 146
273 812 157 118 127 141
273 813 157 115 124 139
273 813 158 115 123 137
272 814 158 116 124 137
272 815 158 114 122 136
273 814 158 115 123 137
273 815 158 114 122 136
274 812 156 125 134 148
274 812 157 121 129 144
274 813 157 118 126 141
275 812 156 136 145 160
275 812 157 128 137 152
275 813 157 119 128 143
274 813 158 116 124 139
275 813 158 117 125 140
274 814 158 115 123 137
274 815 158 113 122 136
275 814 158 116 124 138
275 815 158 116 124 138
276 808 154 120 128 142
276 809 155 121 129 143
277 808 154 117 126 141
277 809 155 119 128 143
276 810 155 125 133 148
277 810 155 123 132 148
278 808 154 115 124 140
278 809 155 119 129 145
279 808 154 119 129 145
279 809 155 129 139 155
278 810 155 121 131 147
279 810 155 125 135 151
276 810 156 129 138 153
276 811 156 133 142 158
277 810 156 133 142 157
277 811 156 135 144 160
278 810 156 126 136 151
278 811 156 130 139 155
279 810 156 127 137 153
279 811 156 128 138 154
276 812 156 135 144 160
276 812 157 130 140 156
276 813 157 120 130 146
277 812 156 127 138 154
277 812 157 127 137 153
277 813 157 127 137 153
276 813 158 115 125 141
277 813 158 125 135 151
276 814 158 114 123 139
276 815 158 113 122 137
277 814 158 120 130 146
277 815 158 115 125 140
278 812 156 121 132 148
278 812 157 116 128 144
278 813 157 121 132 148
279 812 156 120 131 148
279 812 157 114 125 142
279 813 157 115 125 142
278 813 158 127 137 153
279 813 158 118 128 144
278 814 158 128 137 153
278 815 158 119 129 144
279 814 158 121 131 146
279 815 158 118 128 143
280 800 150 118 126 139
280 801 150 117 125 139
280 801 151 114 123 137
281 800 150 117 126 140
281 801 150 124 132 146
281 801 151 122 130 144
280 802 151 113 122 136
280 803 151 111 120 134
281 802 151 119 128 142
282 800 150 118 127 141
282 801 150 127 135 149
282 801 151 125 134 148
283 800 150 118 127 141
283 801 150 123 132 146
283 801 151 123 132 147
282 802 151 125 133 147
283 802 151 121 130 145
284 800 150 115 124 138
284 801 150 117 126 140
284 801 151 116 125 140
285 800 150 114 122 136
285 801 150 115 123 137
285 801 151 114 123 137
284 802 151 116 125 140
285 802 151 112 121 135
286 800 150 116 124 138
286 801 150 115 123 137
286 801 151 114 123 137
287 800 150 114 122 136
287 801 150 114 122 135
287 801 151 113 121 135
286 802 151 113 122 135
287 802 151 115 123 136
280 803 152 111 120 135
281 803 152 113 122 137
282 803 152 119 128 142
283 803 152 118 128 143
280 804 152 115 123 137
280 805 152 116 124 138
280 805 153 116 124 138
281 804 152 113 122 137
281 805 152 116 124 138
281 805 153 116 125 139
280 806 153 116 124 138
281 806 153 117 125 139
280 807 154 113 122 137
281 807 154 113 121 135
282 804 152 115 124 138
282 805 152 115 124 139
282 805 153 115 124 138
283 804 152 120 128 143
283 805 152 121 130 145
283 805 153 120 129 144
282 806 153 115 124 138
283 806 153 119 128 143
282 807 154 112 121 135
283 807 154 115 124 138
284 803 152 113 123 138
285 803 152 111 121 135
286 803 152 114 123 137
287 803 152 116 124 137
284 804 152 116 125 140
284 805 152 125 134 149
284 805 153 129 138 153
285 804 152 117 126 141
285 805 152 127 136 151
285 805 153 133 142 156
284 806 153 128 137 151
285 806 153 131 140 155
284 807 154 121 130 144
285 807 154 124 133 147
286 804 152 118 127 141
286 805 152 125 133 147
286 805 153 129 138 152
287 804 152 115 124 137
287 805 152 117 126 140
287 805 153 118 127 141
286 806 153 125 134 148
287 806 153 118 127 142
286 807 154 120 129 144
287 807 154 119 128 143
280 808 154 121 131 146
280 809 155 134 144 159
281 808 154 116 126 141
281 809 155 130 139 155
280 810 155 129 139 155
281 810 155 129 140 156
282 808 154 112 122 137
282 808 155 116 125 140
282 809 155 119 129 144
283 808 154 113 122 136
283 808 155 114 123 138
283 809 155 115 124 139
282 810 155 123 133 149
283 810 155 117 126 141
280 810 156 128 138 154
280 811 156 126 137 153
281 810 156 128 139 156
281 811 156 127 138 154
282 810 156 125 135 151
282 811 156 124 134 150
283 810 156 119 128 143
283 811 156 122 131 146
280 812 156 120 131 147
280 812 157 116 126 142
280 813 157 115 125 140
281 812 156 128 138 154
281 812 157 124 133 149
281 813 157 116 126 141
280 813 158 115 124 140
281 813 158 114 124 139
280 814 158 114 124 139
280 815 158 114 123 138
281 814 158 116 125 140
281 815 158 116 125 140
282 812 156 128 138 153
282 812 157 130 139 154
282 813 157 122 131 146
283 812 156 126 135 149
283 812 157 125 134 149
283 813 157 123 132 146
282 813 158 116 125 140
283 813 158 118 127 142
282 814 158 116 125 139
282 815 158 118 126 140
283 814 158 115 124 139
283 815 158 115 124 138
284 808 154 113 123 137
284 808 155 112 122 137
284 809 155 114 123 138
285 808 154 114 124 138
285 808 155 112 122 136
285 809 155 114 123 138
284 810 155 117 125 141
285 810 155 116 125 140
286 808 154 117 126 140
286 808 155 113 122 136
286 809 155 114 123 137
287 808 154 121 129 144
287 808 155 118 127 141
287 809 155 117 126 140
286 810 155 116 125 139
287 810 155 118 127 141
284 810 156 118 126 142
284 811 156 118 127 142
285 810 156 117 126 141
285 811 156 117 126 141
286 810 156 116 125 140
286 811 156 116 125 140
287 810 156 119 129 143
287 811 156 120 130 145
284 812 157 119 128 142
284 813 157 120 128 143
285 812 157 117 126 141
285 813 157 118 127 141
284 813 158 119 128 143
285 813 158 119 128 142
284 814 158 119 128 143
284 815 158 118 127 142
285 814 158 122 131 145
285 815 158 123 131 146
286 812 157 114 123 138
286 813 157 116 125 140
287 812 157 120 130 145
287 813 157 124 133 149
286 813 158 118 127 142
287 813 158 123 133 149
286 814 158 122 131 145
286 815 158 124 132 147
287 814 158 123 133 148
287 815 158 124 133 148
272 816 159 118 126 140
272 817 159 123 131 145
273 816 159 117 125 139
273 817 159 119 128 142
274 816 159 116 125 139
274 817 159 119 128 142
275 816 159 117 125 140
275 817 159 119 128 143
276 816 159 114 124 139
276 817 159 118 128 144
277 816 159 117 127 142
277 817 159 123 133 149
278 816 159 119 128 143
278 817 159 130 139 155
279 816 159 115 125 141
279 817 159 131 141 156
280 816 159 114 123 138
280 817 159 123 132 147
281 816 159 118 127 141
281 817 159 121 130 145
282 816 159 121 129 144
282 817 159 121 130 144
283 816 159 120 129 143
283 817 159 120 129 144
284 816 159 124 132 147
284 817 159 123 132 148
285 816 159 125 134 149
285 817 159 132 141 156
286 816 159 123 132 147
286 817 159 132 141 156
287 816 159 124 133 149
287 817 159 125 135 151
256 816 160 123 134 151
256 817 160 131 140 156
257 816 160 116 127 144
257 817 160 120 130 145
256 818 161 128 136 151
256 819 161 119 128 143
257 818 161 122 131 146
257 819 161 121 130 145
256 819 162 124 134 149
257 819 162 127 136 150
258 816 160 117 127 143
258 817 160 118 127 143
259 816 160 119 128 144
259 817 160 120 129 143
258 818 161 118 127 142
258 819 161 123 131 145
259 818 160 118 127 141
259 818 161 119 128 142
259 819 161 122 131 145
258 819 162 126 135 150
259 819 162 123 132 147
256 820 162 133 143 158
256 821 163 139 148 164
257 820 162 138 147 162
257 821 163 137 146 162
256 822 163 131 140 156
257 822 163 126 136 152
258 820 162 128 137 152
258 821 163 128 137 153
259 820 162 123 132 147
259 821 163 120 129 145
258 822 163 125 134 150
259 822 163 120 129 145
256 822 164 125 134 150
256 823 164 125 134 149
256 823 165 125 134 149
257 822 164 124 134 149
257 823 164 127 136 151
257 823 165 128 136 152
258 822 164 124 133 149
258 823 164 126 135 151
258 823 165 128 137 152
259 822 164 123 132 148
259 823 164 126 134 149
259 823 165 127 136 151
260 816 160 124 133 148
260 817 160 119 128 142
261 816 160 118 127 141
261 817 160 116 125 140
260 818 160 117 126 141
260 818 161 119 127 142
260 819 161 121 130 145
261 818 160 116 125 140
261 818 161 117 126 140
261 819 161 120 129 144
260 819 162 122 131 146
261 819 162 125 133 148
262 816 160 111 120 135
262 817 160 114 123 137
263 817 160 118 127 141
262 818 160 118 126 140
262 818 161 118 126 141
262 819 161 123 131 147
263 818 160 120 129 143
263 818 161 119 128 143
263 819 161 120 129 144
262 819 162 130 139 154
263 819 162 127 136 151
260 820 162 123 131 146
260 821 163 119 128 143
261 820 162 123 132 147
261 821 163 120 129 145
260 822 163 120 130 145
261 822 163 121 130 146
262 820 162 128 137 152
262 821 163 121 131 147
263 820 162 133 142 158
263 821 163 136 145 161
262 822 163 119 129 145
263 822 163 132 142 157
260 822 164 122 132 147
260 823 164 126 135 150
260 823 165 128 136 151
261 822 164 123 133 148
261 823 164 126 135 150
261 823 165 127 136 151
262 822 164 122 131 147
262 823 164 127 135 151
262 823 165 128 137 152
263 822 164 124 134 150
263 823 164 124 133 149
263 823 165 125 133 149
256 824 165 128 137 153
257 824 165 130 138 153
256 825 166 130 139 154
256 825 167 130 139 155
257 825 166 131 140 155
257 825 167 131 140 155
256 826 167 130 139 155
257 826 167 131 140 155
258 824 165 130 138 153
259 824 165 130 138 153
258 825 166 129 137 152
259 825 166 126 135 150
258 826 167 128 137 153
259 826 167 124 133 149
260 824 165 129 137 152
261 824 165 127 136 151
260 825 166 124 133 148
261 825 166 126 135 150
260 826 166 122 131 147
260 826 167 124 134 150
261 826 167 129 139 155
262 824 165 127 135 150
263 824 165 124 132 147
262 825 166 127 135 149
263 825 166 123 132 147
262 826 167 132 141 157
263 826 167 125 134 150
256 827 168 129 138 154
257 827 168 130 140 156
258 827 168 128 137 153
259 827 168 126 136 152
256 828 168 127 136 153
256 828 169 125 135 152
256 829 169 124 134 151
257 828 168 130 140 157
257 828 169 130 141 158
257 829 169 130 140 157
256 829 170 127 137 153
257 829 170 137 147 163
256 830 170 128 137 153
256 831 171 128 137 152
257 830 170 137 146 163
257 831 171 128 138 155
258 828 168 130 140 157
258 828 169 133 143 161
