ply
format ascii 1.0
comment PCL generated
element vertex 2247
property float x
property float y
property float z
property uchar red
property uchar green
property uchar blue
element camera 0
property float view_px
property float view_py
property float view_pz
property float x_axisx
property float x_axisy
property float x_axisz
property float y_axisx
property float y_axisy
property float y_axisz
property float z_axisx
property float z_axisy
property float z_axisz
property float focal
property float scalex
property float scaley
property float centerx
property float centery
property int viewportx
property int viewporty
property float k1
property float k2
end_header
131 267 242 55 68 81
131 267 243 55 68 81
128 264 245 54 71 86
129 264 244 56 71 86
129 264 245 56 72 87
129 265 244 60 74 89
129 265 245 60 75 90
128 264 246 57 73 89
128 265 246 58 75 90
129 266 244 60 74 89
129 266 245 61 75 90
129 267 245 57 73 88
128 266 246 60 75 91
128 267 246 61 76 91
128 267 247 62 77 92
129 266 246 62 76 91
129 267 246 59 74 89
130 264 244 58 72 86
130 265 244 58 72 86
130 266 244 58 72 86
130 267 244 56 71 85
131 267 244 57 70 84
131 268 243 52 66 79
129 268 245 54 70 85
129 269 245 54 70 84
128 268 246 57 72 87
128 268 247 57 73 88
128 269 247 56 70 84
129 268 246 56 71 86
129 269 246 54 69 83
128 270 247 58 70 83
128 271 247 58 69 81
129 270 246 57 71 84
129 270 247 57 69 81
129 271 246 57 70 84
129 271 247 58 69 80
130 268 244 53 68 82
130 268 245 54 69 84
130 269 244 54 68 82
130 269 245 56 71 85
131 268 244 54 68 81
131 269 244 53 67 80
131 269 245 56 69 82
130 270 245 59 72 86
130 271 245 57 71 84
131 270 244 55 69 82
131 270 245 58 71 84
131 271 245 56 69 83
130 270 246 58 72 86
130 271 246 56 70 84
132 264 240 54 67 81
132 264 241 57 71 85
132 265 240 52 65 79
132 265 241 55 69 82
132 266 240 51 64 77
132 266 241 56 69 82
132 267 241 52 66 79
133 266 240 49 62 74
133 267 240 50 62 74
133 267 241 51 63 76
132 266 242 58 71 83
132 267 242 54 67 80
132 268 241 52 65 78
133 268 240 50 62 73
133 268 241 51 64 76
133 269 241 51 63 75
132 268 242 53 66 79
132 268 243 52 65 78
132 269 242 53 66 78
132 269 243 53 66 78
133 269 242 52 65 77
132 270 243 54 66 78
133 270 242 53 65 77
133 270 243 53 65 78
133 271 242 54 66 78
133 271 243 55 66 78
134 269 240 49 61 72
134 269 241 49 61 73
134 270 240 50 61 72
134 270 241 50 63 75
134 271 241 53 65 76
135 270 240 51 62 73
135 271 240 52 63 74
135 271 241 51 63 75
134 271 242 54 66 78
132 269 244 53 66 79
132 270 244 54 66 79
132 271 244 56 68 80
128 271 248 58 70 82
136 271 240 52 63 74
142 272 231 42 52 62
142 273 231 40 50 60
143 272 230 40 50 60
143 272 231 39 50 60
143 273 230 42 52 62
143 273 231 41 51 61
143 274 230 44 54 64
143 274 231 45 54 64
143 275 231 44 55 65
143 276 231 43 55 66
139 272 235 50 59 69
136 272 239 52 63 74
137 272 238 50 62 73
137 272 239 53 63 74
137 273 239 55 66 77
138 272 237 49 60 72
138 273 237 51 62 73
139 272 236 49 60 70
139 272 237 50 61 71
139 273 236 49 59 70
139 273 237 51 61 72
138 272 238 50 62 73
138 273 238 51 63 74
138 273 239 53 64 76
139 273 238 50 61 72
138 274 239 54 65 76
139 274 238 50 61 73
139 274 239 50 62 73
139 275 239 52 64 75
139 276 239 52 64 76
141 272 232 45 55 64
141 272 233 45 55 64
141 273 233 47 56 66
140 272 234 50 59 68
140 272 235 50 59 69
140 273 234 51 59 69
140 273 235 51 60 70
141 272 234 47 56 66
141 273 234 49 58 67
141 273 235 50 59 68
141 274 234 49 58 67
141 274 235 50 59 68
141 275 235 52 60 70
142 272 232 44 54 64
142 273 232 42 52 62
142 273 233 46 55 65
142 274 232 45 55 65
142 274 233 45 55 65
142 275 233 45 56 67
143 274 232 46 55 65
143 275 232 46 56 67
142 274 234 46 55 65
142 275 234 45 57 67
142 275 235 49 60 70
140 273 236 50 60 70
140 273 237 51 61 72
140 274 236 50 59 70
140 274 237 51 61 71
140 275 237 51 61 72
141 274 236 50 60 70
141 275 236 53 62 72
141 275 237 54 63 73
140 274 238 51 62 73
140 275 238 52 62 73
142 276 233 46 57 68
143 276 232 45 56 68
143 276 233 46 58 69
143 277 232 44 57 69
143 277 233 45 58 70
142 276 234 47 59 71
142 276 235 51 63 74
142 277 234 47 60 72
142 277 235 51 63 76
143 277 234 46 58 71
143 278 232 43 56 69
143 278 233 43 57 70
143 279 233 44 58 71
142 278 235 49 63 76
143 278 234 46 60 73
143 278 235 48 62 75
143 279 234 48 62 75
143 279 235 51 65 78
140 276 237 51 62 74
141 276 236 48 61 74
141 276 237 48 62 75
141 277 237 51 65 78
140 276 238 49 62 75
140 276 239 50 63 75
140 277 238 49 63 77
140 277 239 50 64 77
141 276 238 47 62 76
141 277 238 49 64 78
141 278 237 51 65 78
141 279 237 52 66 79
140 278 239 52 65 78
140 279 239 50 64 77
141 278 238 50 64 78
141 279 238 51 65 78
141 279 239 50 64 77
142 276 236 51 64 76
142 277 236 53 66 79
142 277 237 52 65 78
142 278 236 52 66 78
142 278 237 52 66 79
142 279 236 53 66 79
142 279 237 53 66 79
143 279 236 54 68 81
143 280 234 51 64 77
143 280 235 53 66 80
143 281 235 52 66 79
140 280 239 51 64 76
141 280 238 51 65 78
141 280 239 49 63 77
141 281 238 53 66 80
141 281 239 50 64 77
141 282 239 55 68 80
141 283 239 56 69 82
142 280 236 55 68 81
142 280 237 55 68 80
142 281 237 55 68 80
143 280 236 55 69 82
143 280 237 57 69 82
143 281 236 54 68 81
143 281 237 55 68 81
142 280 238 54 67 80
142 281 238 54 67 80
142 282 237 56 69 81
142 283 237 57 69 81
143 282 236 54 67 80
143 282 237 56 68 81
143 283 236 55 67 79
143 283 237 57 69 82
142 282 238 56 69 82
142 283 238 56 68 81
141 284 239 50 65 79
141 285 239 48 64 79
143 284 237 55 67 80
143 285 237 51 64 77
142 284 238 55 68 82
142 284 239 52 67 80
142 285 238 50 65 79
142 285 239 49 65 79
143 285 238 51 65 79
143 286 237 50 64 77
143 287 237 50 63 77
142 286 238 48 64 79
142 286 239 48 65 79
142 287 238 52 67 81
142 287 239 52 67 82
143 286 238 49 64 78
143 287 238 51 65 79
128 272 247 58 69 81
129 272 247 57 68 81
129 273 247 56 68 81
129 274 247 56 69 82
129 275 247 58 71 85
131 272 245 55 69 82
131 273 245 58 70 82
130 272 246 54 68 82
130 273 246 57 70 83
130 273 247 54 67 80
131 273 246 58 70 82
130 274 246 55 68 81
130 274 247 55 68 81
130 275 247 60 71 84
131 274 246 57 69 81
131 275 246 60 71 84
129 276 247 60 75 90
130 276 247 61 74 88
130 277 247 67 81 96
131 276 246 61 73 86
131 276 247 62 75 88
131 277 247 65 78 92
130 278 247 67 82 97
131 278 247 67 80 95
131 279 247 70 83 98
133 272 243 55 66 78
133 273 243 57 67 78
135 272 241 51 63 75
135 273 241 51 63 75
134 272 242 54 66 78
134 272 243 54 66 78
134 273 242 54 66 78
134 273 243 55 67 79
135 273 242 53 65 77
134 274 243 56 67 79
134 275 243 57 68 80
135 274 242 54 66 78
135 274 243 54 67 79
135 275 243 55 67 79
132 272 244 56 67 79
132 272 245 55 67 80
132 273 244 56 68 79
132 273 245 56 68 80
133 272 244 57 67 79
133 273 244 56 67 78
132 274 244 54 65 77
132 274 245 56 67 79
132 275 245 59 69 81
133 274 244 57 67 78
133 275 244 59 69 80
133 275 245 58 68 80
132 275 246 61 72 83
134 275 244 60 69 80
135 276 243 57 69 81
135 277 243 60 71 83
132 276 245 59 71 84
132 277 245 58 72 86
133 276 244 57 69 81
133 276 245 58 70 83
133 277 245 58 71 85
132 276 246 60 73 87
132 277 246 61 74 88
133 278 245 59 73 87
133 279 245 62 76 90
132 278 246 63 77 91
132 278 247 67 80 94
132 279 246 67 81 95
132 279 247 70 83 97
133 278 246 61 75 89
133 279 246 64 78 92
134 276 244 56 68 80
134 277 244 58 71 84
134 277 245 58 71 84
135 276 244 57 69 82
135 277 244 60 72 85
134 278 244 59 72 85
134 278 245 59 72 85
134 279 245 60 74 87
135 278 244 60 72 85
135 279 244 60 73 86
128 272 248 58 69 82
128 273 248 58 71 84
128 274 248 61 74 89
128 275 248 64 78 92
129 274 248 58 71 85
129 275 248 60 73 88
128 276 248 67 83 99
128 277 248 71 86 103
129 276 248 64 79 94
129 277 248 70 84 99
128 278 248 71 87 104
128 278 249 71 87 104
128 279 248 70 87 104
128 279 249 71 87 105
129 278 248 70 86 101
129 279 248 69 85 102
130 278 248 69 83 99
130 279 248 69 84 100
131 280 247 70 85 100
131 281 247 69 85 103
132 280 246 69 83 98
132 280 247 71 85 100
132 281 247 70 85 101
133 280 246 68 81 96
133 281 246 70 85 100
132 282 247 71 87 103
132 283 247 70 86 104
133 282 246 70 85 101
133 282 247 69 85 101
133 283 246 71 87 103
133 283 247 72 88 104
134 280 245 63 77 91
134 281 245 64 78 93
135 280 244 64 76 89
135 280 245 64 77 91
135 281 245 64 77 92
134 280 246 66 80 94
134 281 246 67 81 96
135 282 245 63 77 92
135 283 245 64 79 94
134 282 246 67 82 97
134 283 246 69 84 100
135 283 246 68 82 98
132 284 247 69 86 103
132 285 247 69 86 103
133 284 246 73 88 104
133 284 247 71 87 104
133 285 247 70 86 103
132 286 247 67 84 101
132 287 247 66 83 100
133 286 247 68 85 102
133 287 247 66 83 100
135 284 245 66 80 96
135 285 245 60 77 93
134 284 246 71 86 102
134 285 246 68 84 100
135 284 246 67 82 97
135 285 246 63 79 95
135 286 245 62 78 94
135 287 245 65 80 96
134 286 246 66 83 99
134 287 246 63 80 97
135 286 246 64 81 97
135 287 246 64 80 97
128 280 248 72 88 105
128 280 249 71 88 105
128 281 249 71 88 105
129 280 248 70 87 104
129 281 248 70 88 105
128 282 249 72 89 106
128 283 249 67 85 102
129 282 248 71 88 105
129 283 248 68 86 104
130 280 248 69 86 103
130 281 248 69 87 105
131 280 248 70 86 102
131 281 248 70 88 105
130 282 248 67 86 104
130 283 248 67 85 103
131 282 248 68 86 104
131 283 248 69 87 105
128 284 249 66 83 100
128 285 249 68 83 99
129 284 248 69 86 103
129 285 248 69 85 102
128 286 249 64 80 96
128 287 248 63 79 95
128 287 249 62 78 93
129 286 248 66 82 98
129 287 248 65 81 97
130 284 248 68 86 103
130 285 248 69 85 102
131 284 248 69 86 104
131 285 248 69 86 103
130 286 248 64 81 98
130 287 248 65 82 98
131 286 248 64 82 99
131 287 248 65 82 98
132 284 248 70 87 104
132 285 248 69 86 103
132 286 248 66 83 100
132 287 248 65 83 99
136 272 240 52 63 74
136 272 241 51 62 74
136 273 240 52 63 74
136 273 241 52 63 75
137 273 240 53 64 75
136 274 241 53 65 77
136 275 241 52 64 76
137 274 240 54 65 77
137 274 241 54 65 77
137 275 241 54 66 78
136 274 242 52 65 77
136 275 242 53 65 77
138 274 240 55 66 77
138 275 240 54 65 77
139 275 240 53 65 76
137 276 241 54 66 78
136 276 242 52 65 77
136 276 243 54 67 79
136 277 242 54 66 79
136 277 243 59 70 82
137 276 242 51 64 77
137 277 242 55 66 79
136 278 243 58 70 82
136 279 243 58 70 82
137 278 242 55 67 79
137 278 243 54 66 79
137 279 242 56 67 80
137 279 243 57 68 81
138 276 240 54 66 78
138 276 241 54 66 78
138 277 241 54 66 79
139 276 240 51 63 75
139 277 240 55 66 78
139 277 241 54 66 79
138 278 241 57 69 81
138 279 241 55 66 78
139 278 240 60 70 81
139 278 241 59 69 81
139 279 240 56 66 78
139 279 241 55 66 78
138 278 242 56 68 80
138 279 242 55 66 78
136 278 244 59 71 83
136 279 244 59 71 83
140 278 240 57 68 79
140 279 240 53 65 77
136 280 243 58 70 82
137 280 243 56 68 80
137 281 243 56 68 81
137 282 243 53 67 80
137 283 243 55 68 82
138 280 241 57 68 80
139 280 241 57 67 78
139 281 241 55 66 77
138 280 242 56 67 79
138 281 242 56 67 79
139 282 241 59 69 80
139 283 241 61 71 82
138 282 242 58 69 80
138 282 243 56 68 81
138 283 242 57 69 81
138 283 243 56 68 81
139 283 242 59 70 82
136 280 244 60 72 85
136 281 244 59 71 85
136 281 245 59 73 87
136 282 244 56 70 84
136 283 244 59 73 87
137 283 244 57 70 84
137 284 243 58 71 84
137 285 243 53 69 83
137 286 243 54 69 84
139 284 241 58 69 82
139 285 241 56 69 83
138 284 242 55 68 81
138 284 243 56 69 83
138 285 242 52 67 81
138 285 243 51 66 80
139 284 242 57 69 82
139 285 242 54 68 82
139 286 241 54 69 84
138 286 243 54 69 84
138 287 243 61 75 89
139 286 242 55 70 84
139 287 242 60 75 90
136 284 244 62 76 90
136 284 245 65 79 94
136 285 244 58 73 88
136 285 245 59 75 91
137 284 244 59 72 86
137 285 244 57 72 86
136 286 244 58 73 88
136 286 245 58 75 91
136 287 244 62 77 91
136 287 245 62 78 94
137 286 244 58 73 88
137 287 244 62 76 91
140 280 240 54 65 77
140 281 240 53 65 77
140 281 241 57 67 79
140 282 240 55 67 79
140 282 241 58 69 80
140 283 240 57 68 81
140 283 241 58 68 80
141 283 240 56 69 82
140 284 240 54 67 80
140 284 241 56 68 81
140 285 241 56 69 82
141 284 240 51 66 80
141 285 240 51 66 80
140 286 241 54 68 83
140 287 241 59 74 88
141 286 240 51 66 81
141 287 240 55 70 85
144 263 224 41 50 59
144 264 224 40 48 58
144 264 225 41 49 58
144 265 224 38 47 57
144 265 225 40 49 57
144 266 224 38 48 57
144 266 225 39 48 57
144 267 225 40 49 58
145 266 224 38 48 57
145 267 224 38 47 57
144 266 226 41 49 57
144 267 226 44 51 59
144 268 225 41 50 59
145 268 224 39 49 58
145 268 225 42 51 60
145 269 224 42 51 60
145 269 225 42 51 60
144 268 226 42 50 58
144 268 227 45 52 60
144 269 226 42 50 58
144 269 227 46 52 60
145 269 226 42 51 60
145 270 225 42 51 60
144 270 227 44 52 60
144 271 227 41 49 58
145 270 226 42 51 60
145 270 227 42 50 58
145 271 226 40 49 58
145 271 227 41 49 57
146 269 224 44 52 61
146 270 224 42 51 60
146 270 225 40 49 59
146 271 224 40 49 58
146 271 225 39 49 58
146 271 226 40 49 59
144 269 228 46 53 60
144 270 228 44 52 60
144 271 228 44 52 60
144 271 229 43 52 61
145 272 226 38 48 58
145 272 227 41 49 58
145 273 227 42 51 59
145 274 227 46 54 62
146 272 224 39 48 57
146 272 225 38 48 57
146 273 225 39 48 58
147 272 224 39 48 56
147 273 224 40 48 56
147 273 225 41 49 58
146 272 226 41 50 60
146 273 226 42 50 60
146 273 227 46 53 62
147 274 224 44 51 58
147 274 225 44 51 59
147 275 224 46 52 60
147 275 225 46 53 61
146 274 226 44 52 60
146 274 227 46 53 61
146 275 226 45 53 62
146 275 227 46 54 62
147 274 226 44 52 60
147 275 226 46 53 61
144 272 228 42 50 58
144 272 229 38 48 57
144 273 228 43 51 59
144 273 229 41 50 59
145 272 228 43 51 59
145 273 228 41 50 58
144 273 230 41 51 61
144 274 229 45 53 61
144 275 229 47 54 62
145 274 228 45 53 60
145 274 229 44 52 60
145 275 228 47 54 62
145 275 229 48 55 63
144 274 230 46 54 62
144 275 230 48 55 64
146 275 228 47 55 63
147 276 225 45 52 60
146 276 227 45 54 63
146 277 227 42 53 64
147 276 226 44 52 61
147 276 227 43 53 63
147 277 226 40 50 59
147 277 227 41 52 63
146 278 227 41 53 64
147 278 226 38 49 59
147 278 227 40 52 63
147 279 226 42 51 61
147 279 227 43 53 64
145 276 228 47 56 65
145 276 229 48 56 66
145 277 229 43 55 66
144 276 230 48 56 66
144 276 231 43 55 66
144 277 230 43 55 66
144 277 231 42 56 68
145 276 230 46 56 66
145 277 230 43 55 66
145 278 229 40 54 66
145 279 229 40 54 67
144 278 230 41 55 68
144 278 231 40 55 68
144 279 231 42 56 69
145 278 230 40 54 67
145 279 230 40 55 68
146 276 228 46 55 65
146 277 228 44 55 66
146 278 228 43 55 66
146 278 229 41 54 66
146 279 228 44 55 67
146 279 229 42 55 67
147 279 228 44 55 66
148 275 224 45 51 58
148 276 224 42 49 57
148 276 225 43 50 58
148 277 224 43 50 57
148 277 225 41 49 57
148 277 226 41 48 57
148 278 224 45 51 59
148 278 225 43 50 58
148 279 225 44 51 59
149 278 224 44 51 59
149 279 224 43 50 58
148 278 226 40 48 57
148 279 226 42 50 58
144 277 232 43 56 69
144 278 232 42 56 69
144 279 232 45 58 71
144 279 233 44 58 71
147 280 227 46 55 65
147 281 227 45 54 62
144 280 231 44 57 70
145 280 230 39 54 67
145 280 231 39 54 67
145 281 230 41 55 68
145 281 231 43 56 68
145 282 231 45 57 69
146 280 228 45 56 67
146 280 229 44 55 67
146 281 229 47 57 67
147 280 228 47 56 66
147 281 228 48 56 65
147 281 229 48 57 67
146 280 230 42 55 67
146 281 230 44 56 68
147 282 228 47 55 64
147 282 229 47 56 65
147 283 229 46 55 64
146 282 230 46 57 67
146 282 231 46 57 69
146 283 231 46 57 67
147 282 230 47 56 66
147 283 230 46 55 65
147 283 231 46 56 66
147 284 230 44 54 64
147 284 231 44 54 65
148 280 225 43 51 59
149 280 224 43 51 58
149 280 225 42 50 58
149 281 224 44 51 60
149 281 225 43 50 59
148 280 226 43 51 59
148 280 227 45 53 62
148 281 226 43 50 59
148 281 227 44 52 61
149 281 226 42 50 59
149 282 225 42 50 59
148 282 227 45 53 61
149 282 226 42 51 60
149 282 227 44 52 61
149 283 226 42 51 60
149 283 227 44 53 61
150 281 224 45 52 60
150 282 224 44 51 59
150 282 225 42 50 59
150 283 224 42 49 57
150 283 225 41 50 58
150 283 226 41 50 59
148 282 228 46 54 62
148 283 228 46 53 62
148 283 229 46 54 63
149 283 228 46 53 62
148 283 230 45 54 63
149 284 227 43 51 61
150 284 225 40 48 57
151 284 224 40 48 57
151 284 225 40 48 57
151 285 224 40 48 56
151 285 225 40 48 57
150 284 226 40 49 59
150 284 227 41 51 60
150 285 226 40 49 59
150 285 227 40 50 60
151 285 226 40 49 58
151 286 225 39 47 56
150 286 227 40 50 60
151 286 226 40 49 59
151 286 227 41 50 60
151 287 226 41 50 60
151 287 227 42 52 62
148 284 229 45 53 62
149 284 228 45 53 62
149 284 229 44 53 62
149 285 228 42 52 62
149 285 229 43 52 62
148 284 230 43 53 62
148 284 231 42 52 62
148 285 230 43 52 62
148 285 231 42 53 63
149 285 230 43 53 63
149 286 229 41 53 63
149 287 229 41 53 64
148 286 230 44 54 64
148 286 231 45 55 65
148 287 231 45 56 67
149 286 230 44 54 64
149 287 230 43 55 66
149 287 231 44 55 66
150 285 228 41 51 61
150 286 228 40 51 61
150 286 229 40 52 63
150 287 228 41 52 62
150 287 229 40 53 65
151 287 228 42 54 64
144 280 232 47 59 71
144 280 233 46 59 72
144 281 232 45 57 69
144 281 233 45 57 69
145 281 232 45 57 68
144 280 234 47 61 74
144 281 234 48 60 73
144 281 235 52 65 77
145 282 232 49 59 70
145 282 233 49 60 71
145 283 233 52 61 72
144 282 234 53 63 75
144 282 235 54 66 78
144 283 234 55 65 76
144 283 235 55 66 77
145 282 234 52 62 73
145 283 234 53 62 73
146 283 232 50 60 70
146 283 233 52 61 71
144 283 236 55 66 78
144 284 235 54 65 76
145 284 234 50 60 71
145 284 235 52 62 73
145 285 234 47 58 69
145 285 235 50 61 72
145 286 235 48 60 72
145 287 235 48 61 73
146 284 232 48 58 68
146 284 233 49 59 69
146 285 233 42 54 65
147 284 232 45 55 66
147 284 233 44 55 65
147 285 232 43 53 64
147 285 233 42 53 65
146 284 234 49 59 70
146 285 234 46 57 68
147 286 232 43 54 64
147 286 233 44 56 67
147 287 233 48 60 71
146 286 234 47 59 70
146 287 234 48 61 73
146 287 235 48 61 74
147 287 234 48 61 74
144 284 236 56 67 78
144 285 236 53 64 76
144 285 237 53 65 77
144 286 236 50 63 75
144 286 237 51 63 75
144 287 236 50 63 76
144 287 237 52 65 78
145 287 236 49 62 75
148 285 232 42 53 63
148 286 232 44 55 65
148 287 232 47 57 68
152 285 224 39 47 55
152 286 224 37 45 53
152 286 225 37 46 55
152 287 224 38 47 55
152 287 225 40 48 57
152 287 226 43 51 60
149 291 192 35 40 45
150 288 192 35 41 47
150 289 192 35 40 46
151 288 192 36 41 47
151 288 193 37 42 49
151 289 192 34 40 46
151 289 193 34 40 47
150 290 192 34 39 45
150 291 192 35 40 45
150 291 193 34 40 46
151 290 192 32 38 44
151 290 193 33 39 45
151 291 193 34 40 46
151 291 194 32 39 46
149 292 192 35 40 45
149 292 193 34 38 43
149 293 192 35 40 45
149 293 193 35 40 44
148 294 192 34 40 47
148 295 192 34 40 46
149 294 192 35 40 46
149 294 193 34 40 46
149 295 192 34 40 46
149 295 193 34 39 45
150 292 193 33 38 44
150 293 193 34 39 44
150 292 194 33 38 44
150 293 194 33 39 44
151 292 194 34 39 44
151 292 195 32 38 45
151 293 195 33 39 45
150 295 193 34 39 46
150 294 194 33 39 46
150 295 194 34 40 46
151 294 195 33 39 45
151 295 194 35 41 47
151 295 195 34 40 46
149 296 192 36 41 46
149 296 193 34 40 46
149 297 192 37 41 46
149 297 193 35 40 47
149 298 192 36 41 45
149 299 192 34 40 46
150 296 193 34 40 46
150 297 193 36 41 46
150 296 194 34 41 47
150 297 194 36 41 48
151 296 194 36 41 47
151 296 195 37 42 48
151 297 194 35 41 47
150 298 193 35 40 46
150 299 192 32 38 44
150 299 193 34 40 47
150 298 194 34 40 46
151 298 194 35 41 47
151 299 194 36 42 48
149 300 192 34 39 46
150 300 192 33 40 46
150 300 193 34 40 47
150 301 192 35 41 47
150 301 193 34 40 46
151 300 193 34 41 47
151 301 193 35 40 46
151 300 194 36 42 49
150 302 192 35 41 47
150 303 192 35 41 47
151 302 192 36 42 48
151 302 193 36 41 47
151 303 192 36 41 48
152 288 193 37 43 49
152 289 193 35 41 47
152 288 194 38 43 49
152 289 194 35 41 48
153 288 194 38 44 50
153 288 195 40 44 50
153 289 194 37 43 49
153 289 195 37 43 49
152 290 194 36 42 49
152 291 194 34 41 48
152 291 195 34 40 48
153 290 195 35 41 48
153 291 195 35 41 48
154 288 195 40 45 50
154 289 195 38 43 49
153 291 196 35 41 48
154 288 196 41 45 50
154 289 196 39 44 50
155 288 197 40 44 49
155 289 197 40 44 49
155 288 198 40 44 49
155 289 198 39 43 48
154 290 196 36 42 48
154 291 196 35 41 47
154 291 197 37 42 48
155 290 197 39 43 49
155 291 197 38 43 48
155 290 198 39 42 47
155 291 198 39 43 47
152 292 195 33 39 46
152 293 195 34 40 46
152 294 195 33 39 45
152 295 195 36 41 47
152 293 196 35 41 46
153 292 196 35 40 47
153 293 196 35 40 46
152 294 196 34 40 45
152 295 196 36 40 46
153 294 196 36 40 46
153 294 197 36 40 45
153 295 196 36 41 46
153 295 197 37 41 46
154 292 196 37 42 47
154 292 197 38 42 46
154 293 197 37 40 45
155 292 197 39 42 47
155 292 198 40 42 45
155 293 198 39 41 44
154 294 197 37 40 44
154 295 197 37 40 44
154 295 198 38 40 44
155 294 198 37 39 43
155 295 198 38 40 44
156 288 198 41 45 50
156 288 199 43 46 51
156 289 198 40 44 49
156 289 199 41 45 50
156 290 198 39 42 47
156 290 199 40 43 49
156 291 198 39 42 47
156 291 199 41 44 49
156 292 198 42 43 46
156 292 199 42 44 46
156 293 198 41 42 44
156 293 199 41 43 46
156 294 198 40 42 44
156 294 199 40 42 44
156 295 198 38 41 44
156 295 199 39 41 44
157 294 199 41 43 47
157 295 199 41 43 46
156 288 200 45 50 55
156 288 201 42 47 53
156 289 200 42 47 52
157 288 201 42 47 53
157 289 200 40 45 51
157 289 201 40 46 52
157 288 202 41 47 54
157 288 203 42 48 55
157 289 202 41 47 54
157 289 203 42 47 54
157 290 200 40 45 51
157 290 201 41 46 52
157 291 200 42 46 52
157 291 201 43 48 53
157 290 202 42 48 54
157 290 203 42 48 54
158 291 201 44 47 52
158 290 202 46 51 57
158 290 203 41 47 54
158 291 202 42 47 53
158 291 203 41 46 53
157 288 204 42 48 55
157 288 205 44 50 57
157 289 204 41 47 54
157 289 205 41 47 54
157 288 206 47 52 58
157 288 207 48 52 58
157 289 206 44 50 57
157 289 207 47 52 58
157 290 207 47 52 58
158 290 204 40 46 53
158 290 205 41 48 55
158 291 204 41 46 53
158 291 205 41 48 55
158 290 206 45 52 59
158 290 207 46 52 59
158 291 206 46 53 61
158 291 207 48 54 61
157 292 200 43 45 49
157 292 201 44 47 51
157 293 200 41 44 48
157 293 201 41 45 49
157 294 200 41 44 48
157 294 201 41 44 48
157 295 200 41 43 47
158 292 201 43 46 51
158 293 201 41 45 50
158 292 202 41 46 52
158 292 203 41 47 53
158 293 202 42 46 52
158 293 203 42 47 54
158 294 201 41 45 49
158 295 201 41 44 49
158 294 202 41 45 51
158 294 203 41 46 53
158 295 202 39 44 49
158 295 203 39 44 51
159 294 203 41 46 52
159 295 203 39 44 50
158 292 204 42 47 53
158 292 205 43 49 56
158 293 204 42 47 54
158 293 205 42 49 56
159 293 205 41 48 55
158 292 206 46 53 60
158 292 207 47 53 60
158 293 206 47 53 61
158 293 207 48 54 61
159 293 206 47 53 60
159 293 207 48 53 60
158 294 204 42 47 54
159 294 204 42 47 53
159 294 205 42 48 55
159 295 204 40 45 52
159 295 205 43 49 55
159 294 206 47 53 60
159 294 207 48 53 60
159 295 206 47 53 59
159 295 207 49 54 60
152 296 195 37 42 48
152 297 195 35 40 46
152 298 195 36 42 48
152 299 194 35 41 47
152 299 195 34 40 46
153 299 195 34 39 45
152 296 196 36 40 46
153 296 196 36 40 45
153 296 197 36 40 45
153 297 196 36 41 46
153 298 196 36 40 46
153 299 196 33 38 44
154 296 197 37 40 44
154 297 197 38 41 45
154 296 198 38 40 43
155 296 198 37 40 43
155 297 198 38 40 45
154 298 196 35 40 45
154 298 197 36 40 45
154 299 196 35 39 45
154 299 197 37 41 45
155 298 197 36 39 43
155 299 197 37 40 45
155 298 198 35 39 44
152 301 193 36 41 46
152 300 194 35 41 48
152 300 195 34 40 47
152 301 194 36 41 46
153 300 195 34 40 46
153 301 194 37 42 47
153 301 195 37 41 46
152 302 193 36 41 47
152 303 192 36 41 47
152 303 193 36 42 47
153 303 193 37 42 48
152 302 194 37 42 47
153 302 194 37 42 47
153 303 194 38 43 49
154 301 195 35 40 46
154 302 194 36 40 46
154 302 195 34 40 46
154 303 194 35 41 47
154 303 195 33 39 46
155 303 195 34 40 46
153 300 196 33 38 44
154 300 196 35 40 45
154 300 197 36 40 45
154 301 196 34 39 45
155 300 197 36 40 45
155 301 196 34 40 46
155 301 197 34 40 46
155 302 196 35 41 47
155 303 196 35 41 47
156 296 198 38 41 44
156 296 199 39 42 45
156 297 198 37 41 45
156 297 199 38 41 44
157 296 199 39 41 45
157 297 199 39 41 45
156 298 198 36 40 44
156 298 199 37 41 44
156 299 198 37 40 44
157 298 199 36 39 42
157 299 199 38 41 44
156 300 197 37 40 45
156 301 197 34 40 45
156 300 198 37 41 45
156 301 198 35 40 45
157 300 198 37 40 45
157 300 199 37 39 43
157 301 198 36 40 45
157 301 199 37 40 44
156 302 197 35 41 47
156 303 196 36 41 47
156 303 197 36 41 47
156 302 198 37 42 47
157 302 198 36 41 46
157 302 199 36 39 44
157 303 198 38 42 47
158 301 199 38 41 45
158 302 199 37 40 44
158 303 199 39 42 46
157 296 200 40 42 45
157 297 200 39 41 44
157 298 200 38 41 44
157 299 200 40 42 46
158 296 201 41 44 48
158 297 201 41 44 49
158 296 202 40 44 50
158 297 202 42 46 51
159 296 203 39 44 50
159 297 202 41 45 51
159 297 203 40 44 50
158 298 201 40 43 48
158 299 200 39 41 45
158 299 201 37 41 46
158 298 202 39 43 49
159 298 202 38 43 49
159 298 203 38 43 49
159 299 202 38 42 48
159 299 203 39 44 51
159 296 204 39 45 51
159 296 205 41 46 53
159 297 204 40 45 51
159 297 205 42 47 53
159 296 206 44 50 57
159 296 207 49 53 59
159 297 206 44 50 56
159 297 207 49 54 60
159 298 204 40 45 52
159 298 205 43 47 53
159 299 204 40 45 51
159 298 206 42 48 55
158 300 200 37 40 43
158 300 201 37 40 45
158 301 200 38 41 45
158 301 201 38 42 47
159 300 201 38 43 48
159 301 201 38 43 48
159 300 202 37 43 48
159 300 203 36 42 48
159 301 202 36 42 48
159 301 203 34 40 47
158 302 200 36 40 45
158 302 201 36 41 46
158 303 200 37 41 46
159 302 201 36 41 47
159 303 201 34 40 46
159 302 202 35 42 49
159 303 202 32 39 46
157 288 208 47 51 56
157 288 209 46 49 54
157 289 208 48 52 58
157 289 209 47 50 54
157 288 210 45 48 54
157 288 211 45 50 55
157 289 210 45 49 54
157 289 211 44 49 55
157 290 208 48 51 57
157 290 209 46 49 54
157 290 210 45 49 53
157 290 211 44 49 55
157 291 211 43 48 54
158 290 208 46 51 57
158 290 209 46 50 55
158 291 208 47 52 58
158 291 209 45 49 54
158 291 210 44 48 53
158 291 211 42 47 53
156 288 212 38 46 54
156 288 213 38 45 53
157 288 212 41 48 55
157 288 213 39 46 54
157 289 212 43 49 56
157 289 213 40 47 54
156 288 214 39 46 53
156 288 215 38 45 53
156 289 214 39 46 54
156 289 215 39 46 54
157 289 214 39 46 54
157 290 212 43 49 57
157 290 213 40 47 55
157 291 212 41 48 55
157 291 213 39 47 55
156 290 215 39 46 54
157 290 214 39 46 54
157 290 215 38 45 53
157 291 214 38 46 54
157 291 215 37 45 52
158 291 212 40 46 54
158 292 208 47 52 59
158 292 209 45 49 55
158 293 208 47 53 60
158 293 209 46 51 57
158 292 210 42 47 52
158 292 211 41 46 52
158 293 210 44 48 54
158 293 211 42 47 54
158 294 209 47 51 57
159 294 208 47 53 60
159 294 209 46 52 58
159 295 208 47 53 60
159 295 209 46 51 58
158 294 210 46 50 57
158 294 211 45 50 57
159 294 210 45 50 56
159 294 211 45 50 57
159 295 210 42 47 54
159 295 211 42 48 55
157 292 214 39 46 54
157 292 215 38 45 53
157 293 215 38 45 53
158 292 212 38 46 53
158 292 213 39 46 55
158 293 212 38 46 54
158 293 213 39 48 57
158 292 214 40 47 55
158 293 214 40 47 55
158 293 215 38 46 53
158 294 212 40 48 56
158 294 213 40 49 59
158 295 212 40 48 57
158 295 213 37 48 58
159 295 212 41 48 57
158 294 214 40 48 56
158 294 215 39 46 54
158 295 214 40 48 56
158 295 215 40 47 55
155 288 216 38 45 53
155 288 217 38 45 53
155 289 217 38 45 53
154 288 219 41 47 53
154 289 219 41 47 54
155 288 218 39 46 53
155 288 219 40 46 53
155 289 218 38 45 53
155 289 219 40 46 53
155 290 218 37 45 53
155 290 219 39 46 54
155 291 219 38 46 53
153 288 221 40 47 54
153 288 222 40 47 55
153 288 223 40 47 55
153 289 223 41 48 56
153 290 223 43 50 58
154 288 220 41 47 54
154 288 221 41 47 54
154 289 220 41 47 54
154 289 221 40 47 55
154 289 222 40 48 55
154 289 223 41 48 56
154 290 221 39 47 55
155 290 220 39 46 54
155 290 221 39 46 54
155 291 220 38 46 54
155 291 221 39 47 55
154 290 222 40 48 56
154 290 223 42 50 58
154 291 222 40 48 56
154 291 223 42 50 59
155 291 222 39 48 56
155 292 221 39 47 55
154 292 223 42 51 59
155 292 222 40 49 57
155 292 223 42 50 58
155 293 222 40 48 56
155 293 223 41 49 58
155 294 222 39 47 55
155 294 223 39 48 56
155 295 223 41 48 56
156 288 216 38 45 53
156 289 216 38 46 53
156 289 217 38 45 53
156 290 216 38 46 53
156 290 217 39 46 53
156 291 216 38 45 53
156 291 217 39 46 54
157 291 216 37 44 52
157 291 217 38 45 53
156 290 218 38 45 53
156 291 218 40 47 55
156 291 219 40 47 55
156 291 220 38 46 53
157 292 216 37 45 53
157 292 217 38 45 53
157 293 216 38 45 53
157 293 217 39 46 54
156 292 218 41 48 56
156 292 219 41 48 56
156 293 219 42 48 56
157 292 218 40 47 54
157 293 218 41 48 55
157 293 219 41 48 55
157 294 216 38 45 53
157 294 217 40 47 54
157 294 218 41 48 56
157 294 219 42 48 56
157 295 218 43 49 57
157 295 219 41 48 56
158 294 216 40 47 55
158 294 217 43 49 57
158 295 216 40 47 55
158 295 217 40 47 55
158 295 218 41 48 55
156 292 220 39 46 54
156 292 221 38 46 54
156 293 220 42 48 56
156 293 221 41 48 56
156 294 220 40 47 54
156 294 221 40 47 55
156 295 221 41 47 54
157 294 220 40 46 53
157 295 220 41 46 53
156 294 222 40 47 55
156 295 222 41 47 55
156 295 223 41 48 55
159 296 208 49 54 60
159 296 209 44 50 57
159 297 208 49 54 61
159 297 209 46 51 58
159 296 210 41 48 55
159 296 211 40 47 54
159 297 210 42 49 56
159 297 211 40 48 56
159 298 209 45 51 58
159 298 210 41 48 56
159 298 211 39 47 54
158 296 213 36 48 58
159 296 212 39 48 56
159 296 213 37 48 58
159 297 212 40 47 55
159 297 213 40 48 57
158 296 214 39 47 56
158 296 215 40 47 54
158 297 214 36 44 52
158 297 215 36 44 52
159 297 214 37 47 56
159 298 212 40 47 55
159 298 213 43 49 56
159 299 213 43 49 56
158 298 215 37 46 55
159 298 214 42 49 57
159 298 215 38 48 57
159 299 214 43 49 56
159 299 215 40 49 58
159 300 215 41 49 58
155 296 223 42 49 56
155 297 223 42 48 55
157 296 219 41 48 55
157 297 219 36 43 51
158 296 216 41 47 55
158 296 217 41 48 55
158 297 216 38 45 53
158 297 217 38 46 54
158 296 218 40 47 55
158 296 219 40 47 54
158 297 218 38 46 53
158 297 219 37 45 53
158 298 216 35 44 53
158 298 217 38 46 54
158 299 216 35 44 53
158 299 217 38 46 54
159 298 216 35 45 55
159 299 216 36 46 55
158 298 218 38 46 53
158 298 219 40 47 54
158 299 218 37 45 54
158 299 219 41 47 55
156 296 221 43 48 54
157 296 220 42 47 53
157 296 221 43 47 53
157 297 220 41 46 52
157 297 221 43 47 52
156 296 222 43 48 54
156 296 223 42 48 55
156 297 222 43 48 54
156 297 223 42 48 54
157 298 220 41 45 51
157 298 221 44 47 51
157 299 220 42 48 55
157 299 221 43 48 54
156 298 222 44 48 53
156 298 223 42 47 53
156 299 223 45 49 55
157 298 222 45 48 53
157 299 222 45 49 54
158 299 220 40 47 55
158 300 217 38 45 54
159 300 216 37 46 54
159 300 217 37 45 53
159 301 216 37 45 53
159 301 217 37 44 52
158 300 218 38 45 53
158 300 219 40 47 55
158 301 218 39 45 53
158 301 219 40 47 54
159 301 218 38 45 53
159 302 216 37 44 52
159 302 217 37 44 52
159 303 217 39 45 52
158 302 219 41 47 54
158 303 219 41 47 54
159 302 218 38 45 52
159 302 219 41 47 54
159 303 218 38 44 51
159 303 219 41 47 54
157 300 220 36 45 54
157 300 221 38 46 55
157 301 220 37 45 53
157 301 221 38 46 55
156 300 223 42 48 56
156 301 223 40 47 54
157 300 222 40 47 55
157 300 223 41 47 55
157 301 222 38 46 54
157 301 223 39 46 54
157 302 221 39 47 55
157 302 222 40 48 56
157 302 223 41 48 56
157 303 222 40 48 56
157 303 223 41 48 56
158 300 220 38 46 54
158 301 220 38 45 54
158 302 220 39 46 54
158 302 221 39 47 55
158 303 220 41 47 54
158 303 221 39 47 55
158 303 222 39 47 55
151 304 192 36 42 48
152 304 192 37 42 48
152 304 193 37 42 48
152 305 192 37 42 48
153 304 193 37 43 48
153 305 192 37 42 48
153 305 193 37 42 48
153 306 192 38 43 49
153 306 193 38 43 48
153 307 192 39 44 49
154 305 193 38 42 47
154 304 194 37 42 48
154 304 195 35 41 47
154 305 194 36 41 47
155 304 195 36 41 47
155 305 194 37 41 47
155 305 195 37 41 47
154 306 193 39 43 48
154 307 192 38 43 48
154 307 193 38 42 48
154 306 194 36 40 46
154 307 194 37 41 46
155 306 194 36 41 46
155 306 195 37 41 46
155 307 194 38 42 47
155 307 195 39 43 48
155 304 196 36 41 47
154 308 192 38 43 48
154 308 193 38 42 48
154 309 192 39 43 49
155 308 193 37 42 47
155 309 192 39 43 48
155 309 193 37 42 47
155 308 194 37 41 46
155 308 195 38 42 47
155 309 194 38 42 47
155 310 192 38 43 48
156 306 195 38 42 46
156 307 195 38 42 47
156 304 196 36 41 46
156 304 197 36 41 46
156 305 196 37 41 46
156 305 197 37 41 46
157 304 197 37 41 46
157 305 197 38 41 45
157 304 198 37 41 46
157 305 198 38 41 46
156 306 196 37 41 45
156 307 196 37 41 45
157 306 197 38 41 45
157 307 197 36 40 44
157 306 198 39 42 46
157 307 198 37 40 44
158 304 198 36 40 44
158 304 199 38 42 46
158 305 198 36 41 46
158 305 199 36 40 45
158 306 198 36 41 46
158 306 199 35 40 46
158 307 198 36 41 47
158 307 199 36 41 46
159 306 199 36 41 46
156 308 195 37 42 47
156 309 194 38 42 47
156 309 195 37 42 47
156 310 192 37 42 48
156 310 193 37 42 47
156 311 192 36 41 46
156 311 193 35 40 46
157 311 192 36 42 48
157 311 193 37 44 52
156 310 194 36 41 47
156 310 195 37 41 47
157 310 194 36 41 47
157 310 195 37 41 47
157 311 194 36 41 47
157 311 195 36 41 46
158 311 195 36 41 47
156 308 196 37 42 47
156 309 196 38 42 47
157 308 196 37 41 46
157 308 197 38 42 46
157 309 196 37 42 47
157 309 197 38 42 46
157 310 196 38 42 47
158 309 197 37 41 46
158 308 198 37 41 47
158 308 199 36 41 47
158 309 198 36 41 47
158 309 199 37 41 47
159 309 199 38 42 47
158 310 197 39 43 47
158 311 196 37 41 47
158 311 197 37 42 47
158 310 198 37 42 48
158 311 198 36 42 48
159 310 198 38 42 48
159 310 199 38 42 48
159 311 198 36 41 47
159 311 199 37 41 47
158 304 200 38 41 46
159 304 200 36 40 45
159 304 201 34 40 46
159 305 200 37 41 45
159 305 201 37 41 45
159 306 200 38 42 47
159 306 201 38 42 47
159 307 200 38 42 47
159 307 201 38 41 46
159 308 200 38 42 47
159 308 201 38 42 47
159 309 200 38 42 47
159 309 201 39 43 48
159 308 202 38 42 48
159 309 202 38 43 48
159 310 200 38 42 47
159 310 201 39 43 48
159 311 200 38 42 47
159 310 202 38 42 48
157 312 192 32 41 49
157 312 193 36 42 49
157 312 194 35 43 50
158 312 192 36 41 47
158 312 193 36 41 47
158 313 192 35 43 51
158 313 193 34 42 49
159 313 192 36 41 47
159 313 193 36 41 47
158 312 194 34 41 48
158 312 195 36 41 47
159 312 194 32 42 51
159 312 195 36 42 48
159 313 194 35 42 49
159 313 195 35 42 50
159 314 192 36 41 46
159 314 193 36 41 47
159 314 194 34 42 50
158 312 196 36 42 47
159 312 196 36 42 49
159 312 197 36 41 48
159 313 196 35 42 49
159 313 197 34 41 48
159 312 198 36 41 47
159 312 199 37 41 46
159 313 207 39 45 51
159 304 217 41 46 53
159 304 218 39 45 51
159 304 219 42 47 53
159 305 218 41 46 53
159 305 219 42 47 53
159 306 219 42 47 53
159 307 219 41 46 53
157 304 222 39 47 55
157 304 223 40 48 56
157 305 223 39 47 56
158 304 220 42 48 55
158 304 221 37 45 54
158 305 221 39 47 55
159 304 220 42 48 54
159 305 220 43 48 54
159 305 221 43 49 56
158 304 222 38 46 54
158 305 222 40 47 56
158 305 223 40 48 57
159 306 220 42 47 54
159 306 221 41 47 55
159 307 220 41 47 53
159 307 221 41 47 54
158 306 222 40 47 55
158 306 223 40 48 57
158 307 223 37 46 55
159 306 222 39 46 54
159 307 222 38 46 54
159 308 220 39 45 52
159 308 221 39 46 53
159 309 220 39 45 52
159 309 221 41 47 54
158 308 223 38 47 56
158 309 223 37 46 55
159 308 222 37 45 53
159 308 223 38 46 54
159 309 222 40 47 54
159 309 223 37 45 54
159 310 221 43 49 56
159 310 222 42 49 56
159 310 223 39 47 56
159 311 222 41 48 55
159 311 223 40 47 55
159 312 208 39 45 52
159 312 209 39 45 52
159 313 208 39 45 52
159 313 209 37 44 51
159 314 208 38 44 51
159 314 209 39 46 53
159 312 222 41 47 55
159 312 223 40 47 55
159 313 223 38 46 55
141 291 239 60 77 94
143 288 237 59 71 84
143 289 237 58 72 87
142 288 238 59 72 86
142 288 239 59 73 88
142 289 238 61 76 91
142 289 239 61 76 92
143 288 238 59 71 85
143 289 238 60 75 89
143 290 237 57 72 87
143 291 237 58 73 88
142 290 238 59 75 91
142 290 239 60 76 93
142 291 238 60 76 92
142 291 239 60 77 93
143 290 238 59 74 89
143 291 238 60 75 91
141 292 239 64 80 97
141 293 239 62 79 96
141 294 239 63 79 96
141 295 239 60 77 93
143 292 237 63 77 92
143 293 237 61 76 91
142 292 238 65 80 95
142 292 239 64 80 96
142 293 238 61 77 93
142 293 239 63 79 95
143 294 237 61 76 91
143 295 237 64 78 93
142 294 238 62 78 94
142 295 238 64 79 95
143 294 238 62 77 92
143 295 238 68 81 96
141 296 239 58 75 91
141 297 239 63 78 93
141 298 239 58 73 88
141 299 239 55 71 85
143 296 237 62 77 92
143 297 237 61 76 90
142 296 238 62 77 93
142 297 238 63 77 92
143 296 238 65 79 94
143 297 238 63 77 91
143 298 237 58 72 87
143 299 237 58 72 87
142 298 238 58 73 88
142 298 239 56 72 87
142 299 238 55 71 85
142 299 239 55 71 85
143 298 238 59 73 88
143 299 238 56 71 86
141 300 239 53 69 83
143 300 237 57 71 85
142 300 238 56 70 85
142 300 239 53 68 83
142 301 239 55 68 80
143 300 238 57 71 86
143 301 238 57 69 81
143 301 239 55 67 79
142 302 239 56 68 80
143 302 238 54 66 78
143 302 239 54 66 78
143 303 239 53 65 77
131 290 247 65 80 96
131 291 247 69 84 100
129 293 247 69 86 103
129 294 247 70 87 105
129 295 247 70 87 104
130 292 247 69 84 101
130 293 247 69 85 102
131 292 247 71 86 102
131 293 247 69 85 101
130 294 247 68 85 103
130 295 247 69 86 103
131 294 246 69 86 104
131 294 247 69 86 103
131 295 246 67 84 102
132 288 247 65 82 98
132 289 247 70 84 99
133 288 247 65 82 99
133 289 247 68 83 100
132 290 247 70 84 99
132 291 247 74 88 102
133 290 246 71 87 103
133 290 247 73 87 103
133 291 246 73 88 104
133 291 247 75 89 104
135 288 245 65 81 97
135 289 245 64 82 99
134 288 246 65 82 98
134 289 246 66 83 101
135 288 246 65 81 97
135 289 246 64 82 100
135 290 245 67 84 102
135 291 245 69 85 102
134 290 246 69 86 103
134 291 246 70 87 103
135 290 246 67 85 102
135 291 246 69 85 103
132 292 246 76 90 105
132 292 247 73 87 103
132 293 246 67 83 101
132 293 247 67 83 99
133 292 246 73 88 104
133 293 246 67 84 101
133 294 245 68 85 103
133 295 245 67 85 103
132 294 246 69 86 104
132 295 246 68 85 103
133 294 246 67 85 102
134 293 245 64 82 99
135 292 245 69 85 101
135 293 245 65 82 99
134 292 246 69 86 103
134 293 246 65 83 100
134 294 245 66 83 101
134 295 245 64 82 100
135 294 245 65 82 99
135 295 244 61 79 96
135 295 245 61 79 97
128 288 248 64 79 94
128 289 248 63 79 95
129 288 248 65 80 96
129 289 248 64 80 96
128 290 248 64 80 96
128 291 248 64 81 98
129 290 248 60 77 94
129 291 248 64 81 97
130 288 248 65 81 97
130 289 248 65 81 97
131 288 248 65 81 97
131 289 248 68 82 98
130 290 248 60 77 93
130 291 248 64 81 97
131 290 248 64 80 96
131 291 248 68 83 99
128 292 248 69 86 103
128 293 248 73 89 107
129 292 248 69 85 102
129 293 248 70 87 105
128 294 248 74 91 108
128 295 248 71 89 106
129 294 248 72 89 106
130 292 248 68 84 101
129 296 247 68 85 102
129 297 247 68 85 101
129 298 247 67 83 99
129 299 247 69 84 100
130 296 247 66 83 100
130 297 247 66 82 99
131 296 246 64 81 99
131 297 246 65 81 98
130 298 247 66 82 98
130 299 247 66 81 97
131 298 246 67 82 98
131 298 247 67 82 98
131 299 247 67 81 97
130 300 247 64 78 93
131 300 247 65 79 94
131 301 247 58 73 88
133 296 245 66 83 101
133 297 245 67 83 99
132 296 246 64 82 100
132 297 246 67 83 99
133 298 245 68 82 97
132 298 246 69 82 97
132 299 246 69 81 95
133 298 246 69 83 98
133 299 246 70 83 96
134 296 245 65 82 100
134 297 245 64 81 97
135 296 244 65 81 99
135 296 245 65 82 99
135 297 244 63 80 97
134 298 245 66 81 96
134 299 245 67 80 94
135 298 244 63 78 94
135 298 245 65 79 95
135 299 244 61 75 90
135 299 245 64 77 92
132 300 246 68 81 94
132 300 247 67 80 94
132 301 247 60 74 89
133 300 246 68 80 94
133 301 246 63 77 92
132 302 247 59 74 88
132 303 247 61 75 89
133 302 246 61 76 90
133 302 247 61 75 89
133 303 246 60 74 89
133 303 247 60 74 88
134 300 245 64 78 91
134 301 245 63 77 92
135 300 244 59 73 88
135 300 245 60 74 88
135 301 245 60 74 89
134 300 246 65 78 93
134 301 246 63 77 92
135 302 245 56 71 86
135 303 245 53 69 84
134 302 246 60 74 89
134 303 246 57 72 87
128 296 248 70 87 105
128 297 248 68 85 102
128 298 248 67 83 100
128 299 248 67 82 98
129 298 248 69 85 101
129 299 248 69 83 98
128 300 248 64 77 91
128 300 249 61 75 90
128 301 249 59 73 88
129 300 248 63 77 92
129 301 248 59 74 89
129 301 249 59 73 88
128 302 249 58 72 87
129 302 249 57 72 86
129 303 249 56 70 85
128 302 250 58 72 86
128 303 250 57 71 86
129 303 250 56 70 85
130 300 248 61 76 91
130 301 248 59 74 89
131 301 248 57 73 88
130 302 248 59 73 88
130 302 249 58 72 87
130 303 249 58 72 87
131 302 248 59 74 88
131 303 248 60 74 88
132 302 248 59 74 88
132 303 248 60 74 88
138 288 243 65 78 93
138 289 243 64 79 95
139 288 242 65 79 94
139 289 242 67 82 98
139 291 241 68 84 102
138 290 243 67 83 99
138 291 243 65 81 98
139 290 242 70 85 102
139 291 242 68 84 101
136 288 244 66 80 95
136 288 245 65 80 96
136 289 244 64 80 96
136 289 245 63 80 97
137 288 244 65 78 93
137 289 244 64 79 95
136 290 244 66 82 98
136 290 245 67 83 100
136 291 244 66 82 98
136 291 245 68 83 100
137 290 244 66 81 97
137 291 244 66 82 98
137 292 243 66 83 99
137 293 243 63 81 98
136 295 243 60 79 96
137 294 243 63 81 98
137 295 243 59 78 95
139 292 241 69 86 103
139 293 241 62 81 99
138 292 242 66 83 100
138 292 243 65 82 99
138 293 242 64 81 99
138 293 243 63 81 98
139 292 242 68 85 102
139 293 242 63 81 99
139 294 241 61 80 98
139 295 240 63 80 97
139 295 241 61 79 97
138 294 242 61 80 98
138 294 243 63 81 99
138 295 242 60 79 96
136 292 244 67 82 98
136 292 245 69 84 100
136 293 244 66 82 98
136 293 245 68 83 99
137 292 244 66 82 99
137 293 244 63 81 98
136 294 244 63 80 97
136 295 244 62 80 97
140 288 241 65 79 94
140 289 241 64 80 96
141 288 240 61 75 89
141 289 240 59 76 93
140 290 241 65 82 99
140 291 241 66 83 100
141 290 240 61 79 96
141 291 240 62 79 96
140 292 240 64 81 98
140 292 241 67 84 101
140 293 240 61 79 97
140 293 241 63 81 99
141 292 240 65 81 98
141 293 240 63 80 97
140 294 240 64 81 97
140 294 241 62 80 98
140 295 240 63 80 96
141 294 240 64 81 98
136 296 243 64 81 97
136 297 243 61 78 94
137 296 242 59 77 94
137 296 243 61 78 95
137 297 242 59 76 93
137 297 243 61 77 94
136 298 243 60 76 92
136 299 243 55 72 87
137 298 242 60 76 92
137 298 243 60 76 92
137 299 242 55 71 87
137 299 243 55 71 87
138 296 241 61 79 96
139 296 240 61 78 95
139 296 241 61 78 95
139 297 240 61 77 93
139 297 241 60 77 93
138 296 242 59 77 94
138 297 242 57 75 92
139 298 240 61 77 92
139 298 241 61 76 92
139 299 241 59 74 88
138 298 242 60 76 91
138 299 242 58 73 89
136 296 244 65 82 98
136 297 244 62 79 95
136 298 244 61 77 93
136 299 244 57 72 88
136 300 243 55 71 86
136 301 243 60 71 84
137 300 243 54 70 85
137 301 243 55 68 81
137 302 243 51 64 78
137 303 243 54 67 80
139 300 241 55 70 85
139 301 241 56 69 81
138 300 242 56 71 85
138 301 242 57 69 82
139 301 242 56 69 81
139 302 241 54 67 80
138 302 242 54 67 79
138 302 243 52 65 78
138 303 242 51 64 77
138 303 243 51 65 78
139 302 242 54 67 80
139 303 242 50 64 77
136 300 244 56 71 86
136 301 244 57 71 85
136 302 244 53 67 81
136 302 245 53 68 83
136 303 244 56 69 83
136 303 245 55 69 84
137 303 244 56 69 81
140 296 240 59 76 92
140 297 240 62 77 93
140 298 240 60 75 90
140 299 240 56 71 86
141 299 240 53 69 84
140 300 240 56 70 85
140 301 240 57 69 82
140 301 241 57 70 82
141 300 240 55 70 84
141 301 240 54 67 81
140 302 241 55 68 80
140 303 241 55 68 80
141 302 240 54 68 81
141 302 241 54 67 80
141 303 240 53 67 80
141 303 241 56 68 81
142 302 240 55 67 80
142 303 240 53 66 79
143 303 240 55 67 79
143 304 239 55 66 78
132 304 247 57 71 85
133 304 247 58 72 86
133 305 247 56 71 85
133 306 247 59 72 86
135 304 245 53 69 84
135 305 245 53 69 83
134 304 246 57 72 86
134 305 246 54 69 84
134 305 247 54 69 84
135 304 246 54 70 84
135 305 246 55 70 84
134 306 247 54 69 84
135 306 246 58 72 85
135 307 246 58 72 85
135 307 247 57 71 84
129 304 249 58 72 86
128 304 250 57 72 86
128 304 251 57 72 86
129 304 250 58 72 86
130 304 249 61 74 88
130 305 249 63 76 89
131 304 248 61 74 88
131 304 249 62 75 88
131 305 249 61 74 87
132 304 248 58 72 86
132 305 248 55 70 83
132 305 249 57 71 84
132 306 248 55 69 82
133 306 248 57 70 84
137 304 243 52 66 79
138 304 243 51 65 78
138 305 243 51 65 78
139 304 242 52 65 78
139 304 243 52 66 78
139 305 242 52 66 78
139 305 243 51 65 78
139 306 243 54 67 80
136 304 244 55 68 82
136 304 245 55 70 83
136 305 245 55 69 83
137 304 244 52 66 79
137 305 244 52 66 79
137 305 245 56 69 82
136 306 245 59 71 85
137 306 245 57 70 83
137 307 245 57 70 83
136 306 246 59 72 86
136 307 246 58 72 85
138 305 244 53 66 79
138 306 244 55 68 81
138 307 244 55 68 81
138 307 245 53 67 81
139 306 244 55 68 81
139 307 244 54 68 81
137 308 245 54 68 81
138 308 245 53 67 80
139 308 244 54 68 81
139 308 245 54 68 81
139 309 244 54 67 81
140 304 241 55 68 80
141 304 241 56 68 81
141 305 241 53 66 79
140 304 242 52 65 78
140 305 242 53 66 78
140 305 243 53 66 79
141 305 242 54 66 79
140 306 243 56 68 81
140 307 243 55 68 81
141 306 242 57 68 81
141 306 243 58 70 82
141 307 242 57 69 82
141 307 243 57 69 82
142 304 240 52 66 78
142 304 241 52 66 79
142 305 241 56 68 81
143 304 240 55 67 79
143 305 240 56 67 79
143 305 241 57 69 81
142 306 241 58 70 82
143 306 240 58 68 80
143 306 241 59 70 82
143 307 241 57 69 80
142 306 242 58 69 82
142 307 242 57 69 81
143 307 242 57 69 81
140 307 244 54 67 80
140 308 243 56 68 81
141 308 243 56 68 81
141 309 243 54 67 80
143 308 241 56 67 79
142 308 242 54 67 79
142 308 243 55 68 80
142 309 243 54 66 79
143 308 242 54 66 78
143 309 242 53 65 78
143 309 243 53 66 79
142 310 243 53 66 79
143 310 242 53 66 78
143 310 243 54 67 79
140 308 244 55 68 81
140 309 244 54 67 80
141 309 244 54 67 80
151 288 227 45 56 67
151 289 227 47 58 69
151 290 227 48 59 70
148 288 231 46 58 70
148 289 231 48 61 75
149 288 230 45 58 70
149 288 231 46 59 71
149 289 230 48 61 74
149 289 231 48 62 75
149 290 230 49 62 75
149 290 231 51 64 77
149 291 230 53 65 77
149 291 231 52 65 77
150 288 228 43 56 69
150 288 229 43 56 69
150 289 229 49 61 74
151 288 228 44 58 70
151 289 228 48 60 73
150 288 230 44 58 71
150 289 230 48 61 74
150 290 229 53 65 77
150 291 229 52 64 76
151 290 228 51 62 74
151 290 229 53 64 76
151 291 228 51 62 74
151 291 229 52 64 76
150 290 230 51 63 75
150 291 230 53 65 77
149 292 230 50 62 75
149 292 231 47 61 74
149 293 231 48 61 74
149 294 231 46 59 72
149 295 231 46 59 71
151 292 228 46 59 71
151 292 229 47 60 73
151 293 229 47 60 72
150 292 230 50 62 75
150 293 230 49 61 74
151 294 229 44 57 69
151 295 229 43 56 68
150 294 230 45 58 71
150 294 231 45 58 71
150 295 230 43 56 69
150 295 231 45 58 70
151 294 230 44 57 69
151 295 230 42 56 68
145 288 235 53 65 78
145 289 235 55 69 83
145 290 235 58 71 85
145 291 235 58 72 86
147 288 233 49 60 73
147 289 233 54 65 76
146 288 234 49 62 75
146 288 235 51 64 77
146 289 234 54 66 78
146 289 235 53 66 80
147 288 234 48 61 75
147 289 234 56 66 77
147 290 233 55 65 77
147 291 233 56 66 78
146 290 234 56 68 80
146 290 235 57 69 83
146 291 234 56 68 81
146 291 235 58 71 84
147 290 234 56 67 78
147 291 234 55 66 78
144 288 236 56 68 81
144 288 237 58 70 83
144 289 236 56 70 85
144 289 237 56 70 85
145 288 236 54 67 80
145 289 236 56 70 84
144 290 236 58 72 87
144 290 237 58 73 87
144 291 236 57 72 86
144 291 237 58 72 87
145 290 236 58 72 86
145 291 236 57 71 86
145 292 235 60 73 87
145 293 235 58 72 87
145 294 235 57 71 86
145 295 235 59 73 87
147 292 233 55 66 78
147 293 233 53 65 77
146 292 234 58 71 84
146 293 234 55 68 82
147 292 234 55 67 79
147 293 234 54 66 79
147 294 233 50 63 76
147 295 233 52 64 77
146 294 234 52 66 80
146 295 234 54 68 81
146 295 235 58 72 86
147 294 234 52 65 78
144 292 236 58 73 88
144 292 237 58 73 88
144 293 236 60 75 90
145 292 236 59 73 88
145 293 236 59 74 88
144 294 236 59 75 90
144 295 236 60 75 90
145 294 236 58 73 88
145 295 236 60 74 89
148 288 232 47 59 71
148 289 232 49 62 75
148 289 233 50 64 77
148 290 232 51 64 77
148 290 233 51 64 78
148 291 232 51 64 77
148 291 233 52 65 78
148 292 232 49 63 76
148 292 233 51 64 78
148 293 232 50 63 76
148 293 233 52 65 78
148 294 232 47 61 74
148 294 233 48 62 75
148 295 232 46 59 72
148 295 233 48 61 73
149 294 232 48 61 73
149 295 232 45 58 70
149 296 231 44 57 70
150 296 230 46 58 69
150 296 231 46 58 70
150 297 231 46 57 68
151 296 230 44 56 67
151 297 230 46 56 67
150 298 231 42 54 65
151 298 230 43 54 64
151 298 231 42 53 63
151 299 231 41 52 62
