ply
format ascii 1.0
comment PCL generated
element vertex 2229
property float x
property float y
property float z
property uchar red
property uchar green
property uchar blue
element camera 0
property float view_px
property float view_py
property float view_pz
property float x_axisx
property float x_axisy
property float x_axisz
property float y_axisx
property float y_axisy
property float y_axisz
property float z_axisx
property float z_axisy
property float z_axisz
property float focal
property float scalex
property float scaley
property float centerx
property float centery
property int viewportx
property int viewporty
property float k1
property float k2
end_header
126 653 286 83 88 97
127 652 287 84 88 97
127 653 287 87 91 101
126 654 284 81 86 95
126 654 285 83 88 97
126 655 284 80 85 93
126 655 285 80 86 94
127 655 284 80 85 93
127 655 285 82 87 95
126 654 286 85 90 99
127 654 286 87 92 101
127 654 287 89 94 103
127 655 286 87 91 100
127 655 287 90 95 104
112 659 263 57 63 71
112 661 258 56 62 70
112 661 259 51 57 65
113 661 258 53 59 66
113 661 259 50 57 64
112 662 256 72 77 85
112 662 257 61 67 75
112 663 256 72 77 85
113 662 256 71 76 83
113 662 257 63 68 76
113 663 256 72 77 84
112 662 258 55 62 69
113 662 258 55 61 68
113 662 259 52 58 66
114 661 259 51 57 64
114 662 257 63 68 75
114 663 256 72 77 84
114 663 257 66 71 78
115 662 257 61 66 74
115 663 256 73 77 84
115 663 257 65 70 77
114 662 258 58 63 70
114 662 259 53 59 66
115 662 258 57 62 69
115 662 259 52 57 65
112 660 261 48 55 63
112 661 260 48 55 64
112 661 261 48 55 63
113 661 260 49 55 63
113 661 261 49 55 63
112 660 262 52 59 67
112 660 263 56 62 70
113 660 262 50 57 64
113 660 263 53 59 66
114 661 260 50 56 63
114 661 261 49 55 62
115 661 260 50 55 62
115 661 261 48 54 61
114 660 262 49 55 62
114 660 263 49 55 63
114 661 262 49 55 62
115 660 262 49 54 60
115 660 263 49 54 61
115 661 262 49 54 60
115 662 260 50 55 62
116 663 256 72 76 83
116 663 257 66 70 77
117 663 256 69 73 80
117 663 257 66 70 77
116 662 258 57 62 69
116 662 259 52 57 64
116 663 258 60 65 71
117 662 258 57 62 69
117 662 259 55 60 67
117 663 258 59 63 70
118 663 257 65 69 75
119 663 257 69 72 78
118 662 259 56 61 67
118 663 258 61 65 71
118 663 259 61 65 70
119 663 258 69 72 78
119 663 259 66 69 75
116 661 261 51 56 63
117 661 261 53 57 64
116 660 263 53 57 63
116 661 262 51 55 62
117 660 263 59 62 67
117 661 262 55 59 65
117 661 263 57 60 66
116 662 260 52 57 63
117 662 260 54 59 65
117 662 261 54 58 65
118 661 262 57 61 67
118 661 263 55 59 66
119 661 263 65 69 75
118 662 260 57 62 68
118 662 261 56 60 67
119 662 260 61 65 71
119 662 261 62 65 72
119 663 260 62 66 72
119 663 261 63 67 73
118 662 262 58 62 68
119 662 262 63 67 74
119 662 263 68 72 78
112 657 265 60 65 72
112 656 266 58 63 70
112 657 266 59 64 71
113 656 266 58 63 70
113 656 267 61 65 72
113 657 266 56 62 69
112 658 264 61 66 74
112 658 265 61 66 73
112 659 264 60 65 73
113 658 265 58 63 70
113 659 264 56 61 69
113 658 266 60 64 71
114 656 267 59 64 71
114 657 266 55 60 67
115 656 267 59 63 69
115 657 266 54 59 65
115 657 267 55 59 65
114 658 265 54 59 65
114 659 264 51 56 63
114 659 265 53 58 64
115 658 265 52 57 63
115 659 264 50 54 60
115 659 265 51 55 61
114 658 266 55 59 66
115 658 266 53 57 63
115 656 268 63 66 71
115 660 264 49 54 60
116 656 267 60 63 68
116 657 266 54 57 63
116 657 267 56 60 65
117 657 267 59 62 66
116 658 265 51 55 60
116 659 264 52 56 61
116 659 265 52 56 61
117 659 265 56 59 64
116 658 266 52 56 62
117 658 266 55 57 62
118 657 267 61 63 67
118 659 265 56 58 63
118 658 266 57 59 62
118 658 267 61 63 68
118 659 266 57 58 62
119 658 267 65 68 74
119 659 266 59 62 68
119 659 267 64 68 74
116 656 268 64 66 71
117 656 268 70 72 77
117 657 268 64 66 71
118 656 268 76 78 83
118 656 269 83 85 91
118 657 268 69 72 76
119 656 269 85 88 94
119 657 268 80 84 90
119 657 269 86 89 96
119 656 270 81 84 90
119 658 268 72 76 82
116 660 264 54 58 64
117 660 264 60 63 68
118 660 264 54 58 64
118 660 265 56 58 63
118 661 264 50 56 63
119 660 264 57 62 68
119 660 265 60 63 69
119 661 264 65 69 75
119 660 266 62 66 71
115 664 256 72 77 85
116 664 256 74 78 86
117 664 256 73 77 83
118 664 256 70 74 80
119 664 256 78 80 86
119 664 257 73 76 82
120 663 258 69 73 79
120 663 259 64 67 73
120 663 260 62 66 72
120 663 261 63 67 73
121 663 260 60 64 70
121 663 261 61 65 71
120 662 262 65 69 75
120 662 263 67 71 77
120 663 262 64 68 75
121 662 263 66 70 77
121 663 262 64 69 76
121 663 263 66 70 77
122 663 262 67 71 79
122 663 263 67 73 80
120 658 267 69 73 80
120 659 266 67 71 77
120 659 267 70 74 80
121 659 267 71 75 82
120 657 269 79 82 89
121 657 269 75 79 86
120 656 270 72 75 81
120 656 271 67 71 77
120 657 270 73 76 83
121 656 271 70 74 82
121 657 270 72 77 84
121 657 271 72 77 85
120 658 268 76 80 86
120 658 269 78 81 87
121 658 268 77 80 87
121 658 269 75 79 86
121 659 268 73 77 84
121 659 269 73 77 85
121 658 270 73 78 85
122 657 271 72 78 85
122 659 268 71 76 84
122 659 269 71 77 85
123 659 269 70 76 85
122 658 270 72 78 86
122 658 271 72 78 86
122 659 270 72 77 86
123 658 271 72 78 86
123 659 270 71 77 86
123 659 271 71 78 86
120 660 265 69 71 77
120 661 264 67 70 76
120 661 265 65 68 74
121 661 265 64 68 74
120 660 266 66 69 75
121 660 266 68 71 77
121 660 267 70 74 81
121 661 266 64 68 74
120 662 264 62 65 71
121 662 264 65 70 76
121 662 265 65 69 76
122 660 267 70 75 82
122 661 266 68 73 79
122 661 267 70 75 82
123 661 267 70 75 83
122 662 265 69 73 80
122 663 264 68 73 80
122 663 265 69 74 81
123 663 264 68 73 81
123 663 265 69 74 81
122 662 266 70 74 81
123 662 266 72 77 84
123 662 267 71 77 84
123 663 266 69 74 81
122 660 268 70 75 83
123 660 268 69 75 83
123 660 269 69 75 84
123 661 268 68 74 83
123 661 269 67 74 83
123 660 270 69 76 85
124 659 271 71 77 86
124 662 267 70 75 82
124 663 266 67 72 79
124 663 267 67 72 78
125 663 266 68 73 80
125 663 267 66 70 77
124 661 268 67 73 81
124 661 269 67 74 83
124 660 270 69 76 86
124 660 271 71 78 87
124 661 270 68 75 84
124 661 271 70 77 86
125 661 271 67 74 83
124 662 268 68 73 81
124 662 269 66 72 80
124 663 268 67 71 78
125 662 269 66 71 79
125 663 268 65 70 76
125 663 269 65 70 76
125 662 270 66 72 80
125 662 271 64 71 79
125 663 270 65 70 77
125 663 271 63 69 77
126 663 269 65 69 75
126 663 270 65 70 77
126 663 271 66 71 79
120 664 256 77 80 87
120 664 257 72 76 82
120 665 256 76 79 85
121 664 256 70 74 80
121 664 257 66 70 76
121 665 256 68 73 79
121 665 257 64 68 75
120 664 258 69 73 79
120 664 259 64 68 74
121 664 258 63 68 74
121 664 259 62 66 73
122 665 256 65 70 76
122 665 257 63 68 74
123 665 256 65 69 76
123 665 257 64 69 76
122 664 259 64 68 75
122 665 258 64 68 75
122 665 259 64 68 75
123 665 258 65 70 77
123 665 259 65 70 77
123 666 256 66 71 78
123 666 257 65 69 76
121 664 260 62 66 73
121 664 261 62 66 73
122 664 260 64 69 76
122 664 261 66 71 78
123 664 260 66 71 78
123 664 261 68 74 81
123 665 260 66 71 78
123 665 261 69 74 81
122 664 262 68 73 81
122 664 263 70 75 83
123 664 262 72 77 84
123 664 263 73 78 86
124 665 258 65 70 77
124 665 259 65 70 77
125 665 259 65 70 77
124 666 256 67 72 79
124 666 257 66 71 78
125 666 256 68 74 81
125 666 257 67 72 79
124 666 258 65 70 77
125 666 258 65 71 78
125 666 259 64 70 77
126 666 257 68 73 81
126 667 256 69 75 82
126 667 257 68 74 81
127 667 256 70 76 83
127 667 257 70 76 83
126 666 258 66 72 80
126 666 259 64 70 78
127 667 258 66 73 80
127 667 259 64 70 78
124 665 260 66 71 78
124 665 261 69 73 81
125 665 260 65 70 77
125 665 261 67 71 78
124 664 262 73 78 85
124 664 263 75 80 88
124 665 262 72 77 84
124 665 263 75 80 88
125 665 262 70 75 81
125 665 263 74 78 85
125 666 260 64 69 76
126 665 263 70 74 81
126 666 260 64 70 77
126 666 261 65 71 77
127 666 260 64 70 77
127 666 261 65 71 78
127 667 260 64 70 78
127 667 261 64 70 78
126 666 262 66 71 78
126 666 263 67 72 78
127 666 262 66 72 79
127 666 263 67 72 78
123 664 264 71 77 84
123 664 265 69 74 82
124 664 264 75 81 88
124 664 265 72 77 85
124 665 264 76 81 88
125 664 265 75 80 87
125 665 264 76 80 87
125 665 265 74 79 86
124 664 266 70 76 83
125 664 266 71 76 83
125 664 267 67 72 78
125 665 266 73 78 85
126 665 264 71 75 81
126 665 265 71 75 82
126 664 267 66 71 78
126 665 266 71 76 82
126 665 267 68 73 80
127 665 266 71 75 81
127 665 267 71 75 82
126 666 264 69 73 79
127 666 264 69 73 79
127 666 265 69 73 79
127 666 266 68 73 79
127 666 267 70 74 80
125 664 268 64 69 75
126 664 268 64 69 75
126 664 269 64 69 75
126 665 268 67 71 78
127 665 268 68 73 79
127 665 269 64 69 75
126 664 270 65 69 76
126 664 271 67 72 79
126 665 271 68 73 79
127 665 270 61 66 72
127 665 271 65 70 76
127 666 268 69 73 80
127 666 269 66 70 77
127 666 270 62 67 74
127 666 271 63 68 75
121 656 272 71 76 84
122 656 272 72 77 85
122 656 273 73 79 87
122 657 272 73 78 86
122 657 273 73 79 87
123 656 273 74 79 87
123 657 273 73 79 88
122 656 274 74 79 87
123 656 274 74 79 87
123 656 275 74 79 87
123 657 274 74 79 88
123 657 275 74 79 87
122 658 272 72 78 87
123 658 272 73 79 88
123 658 273 73 79 88
123 659 272 72 78 87
123 656 276 75 80 87
123 656 277 75 80 88
124 657 275 74 79 87
124 658 273 73 79 88
124 659 272 71 77 86
124 659 273 72 79 87
124 658 274 73 79 88
124 658 275 73 79 88
124 659 274 72 78 87
124 659 275 73 79 87
125 659 274 70 76 85
125 659 275 71 77 85
124 656 276 74 79 87
124 656 277 75 80 87
124 657 276 73 78 87
124 657 277 73 78 86
125 657 277 72 77 85
124 656 278 77 81 88
125 656 278 76 80 88
125 656 279 79 83 90
125 657 278 74 78 86
125 657 279 77 81 88
124 658 276 72 78 86
125 658 276 71 76 85
125 658 277 68 74 82
125 659 276 71 77 85
125 659 277 66 72 80
125 658 278 71 76 83
126 657 279 78 82 89
126 659 277 65 72 81
126 658 278 67 73 81
126 658 279 72 77 85
126 659 278 63 71 79
126 659 279 68 75 84
124 660 272 70 77 86
124 660 273 70 76 85
125 660 273 68 75 84
125 661 272 69 76 85
125 661 273 68 75 84
125 660 274 68 75 83
125 660 275 69 76 84
125 661 274 68 74 83
125 661 275 68 74 83
125 662 272 64 70 79
125 662 273 65 71 80
125 663 272 61 68 76
125 663 273 61 68 77
125 662 274 66 73 81
125 663 274 62 67 76
125 663 275 64 69 77
126 661 275 68 74 82
126 663 272 62 68 76
126 663 273 58 65 73
126 662 274 68 74 82
126 662 275 69 75 83
126 663 274 64 69 78
126 663 275 67 72 79
125 660 276 68 74 82
126 660 276 68 73 81
126 660 277 67 73 82
126 661 276 69 74 82
126 661 277 71 76 84
126 660 278 68 75 84
126 660 279 73 80 89
126 661 278 78 84 92
127 660 279 79 85 95
127 661 279 88 94 103
126 662 276 70 75 83
126 662 277 72 77 85
126 663 276 69 74 81
126 663 277 71 75 83
126 662 278 77 82 90
126 663 278 73 78 86
127 662 278 83 88 96
127 662 279 86 91 100
127 663 278 74 79 87
127 663 279 74 79 88
125 656 280 82 85 92
125 656 281 85 88 94
126 656 281 86 88 94
126 657 280 82 85 92
126 657 281 84 87 93
126 656 282 85 87 93
126 656 283 82 84 91
126 657 282 84 86 92
127 656 283 81 83 90
127 657 282 82 84 91
127 657 283 81 84 90
126 658 280 78 82 89
126 658 281 81 84 91
126 659 280 73 79 87
127 658 281 80 83 90
127 659 280 75 81 89
127 659 281 77 81 89
127 658 282 81 84 90
127 658 283 83 86 93
127 659 282 81 85 92
127 659 283 86 90 97
127 656 284 83 86 93
127 656 285 86 90 98
127 657 284 83 86 93
127 657 285 89 92 99
127 656 286 89 93 101
127 658 284 86 89 97
127 659 284 89 93 100
127 660 280 80 86 95
127 660 281 81 86 95
127 661 280 91 96 106
127 661 281 84 90 99
127 660 282 82 86 95
127 662 280 84 90 100
127 662 281 78 85 94
127 663 280 71 77 86
125 664 274 58 64 73
125 664 275 68 73 81
125 665 274 53 59 67
125 665 275 57 62 70
125 666 275 53 57 65
126 664 272 67 72 79
126 664 273 58 64 72
126 665 272 71 75 82
126 665 273 62 67 74
127 665 272 71 76 83
126 665 274 54 60 66
126 666 272 68 73 79
126 666 273 57 62 68
127 666 272 66 71 77
127 666 273 58 63 70
127 667 272 64 69 75
127 667 273 58 63 69
126 666 274 53 58 64
126 666 275 54 58 65
126 667 274 54 58 64
126 667 275 51 56 62
127 667 274 54 59 65
125 665 276 63 68 75
125 666 276 58 63 70
126 664 276 71 75 82
126 664 277 72 76 83
126 665 276 68 72 80
126 665 277 71 75 82
126 664 278 72 76 83
126 665 278 72 76 83
126 665 279 73 77 84
127 664 278 71 76 83
127 664 279 71 76 83
127 665 279 73 77 84
126 666 276 59 64 71
126 666 277 67 71 78
126 667 276 56 61 68
126 667 277 64 68 75
126 666 278 71 75 82
126 666 279 73 77 84
126 667 278 69 73 80
126 667 279 72 76 82
127 666 279 74 78 85
127 667 279 73 77 84
127 668 273 58 63 70
126 668 275 50 55 62
127 668 274 53 58 65
127 668 275 53 58 64
126 668 276 52 57 65
126 668 277 55 61 69
127 668 276 51 56 63
127 668 277 52 58 66
127 669 276 52 57 64
127 669 277 52 57 64
126 668 278 62 67 74
127 668 278 59 63 70
127 668 279 68 72 78
127 669 278 51 56 64
127 669 279 54 58 64
127 664 280 71 76 84
127 665 280 73 77 84
127 665 281 72 76 83
127 666 280 74 78 86
127 666 281 74 78 87
127 667 280 75 79 87
127 667 281 76 82 91
127 666 282 75 81 90
127 667 282 82 88 99
127 668 280 75 79 86
127 668 281 83 88 97
127 669 280 68 71 78
127 669 281 87 91 99
127 668 282 93 99 109
115 640 288 66 69 75
116 640 288 67 71 76
116 640 289 69 72 77
116 641 288 69 72 77
117 640 289 70 73 79
117 641 288 70 73 78
117 641 289 71 74 79
116 640 290 71 73 79
117 640 290 72 74 79
117 640 291 73 75 80
117 642 288 71 74 80
118 641 289 72 75 80
118 640 290 73 75 80
118 640 291 75 76 81
118 641 290 74 76 81
119 640 291 76 77 82
119 641 290 76 78 83
119 641 291 77 78 83
118 642 288 73 76 81
118 642 289 73 76 82
119 642 288 74 77 83
119 642 289 75 78 83
119 643 288 76 79 85
119 642 290 76 78 83
118 640 292 76 77 81
119 640 292 78 79 82
119 640 293 80 80 83
120 641 291 78 79 84
120 643 288 77 80 86
120 643 289 77 80 86
121 643 289 78 81 87
120 642 290 77 79 84
120 642 291 79 80 85
120 643 290 77 80 85
121 642 290 79 81 86
121 642 291 80 82 87
121 643 290 79 82 87
121 643 291 80 82 87
122 642 291 81 83 87
122 643 290 80 82 88
122 643 291 82 83 89
123 643 291 84 85 90
120 640 293 81 81 84
120 641 292 80 80 84
120 641 293 81 81 85
121 641 292 81 82 86
121 641 293 83 83 86
120 640 294 83 82 84
121 640 294 85 84 86
121 640 295 87 84 86
121 641 294 85 84 86
121 642 292 82 83 87
121 642 293 84 84 87
122 640 295 88 86 87
122 641 294 87 85 88
122 641 295 89 87 88
123 641 294 88 87 89
123 641 295 90 88 89
122 642 292 83 84 88
122 642 293 85 85 89
122 643 292 84 85 89
123 642 293 86 86 90
123 643 292 85 86 90
123 643 293 86 87 91
122 642 294 86 85 88
123 642 294 88 87 90
120 644 288 77 80 87
121 644 288 79 82 88
121 644 289 79 82 88
122 644 289 80 83 89
122 645 288 81 84 91
122 645 289 82 84 91
123 645 289 82 85 92
122 644 290 81 83 89
122 644 291 82 84 90
122 645 290 82 84 91
123 644 290 82 84 91
123 644 291 83 85 91
123 645 290 83 85 92
123 645 291 83 86 92
122 646 288 82 85 92
123 646 288 82 86 93
123 646 289 83 86 93
123 647 288 83 87 95
123 644 292 85 86 91
124 641 295 91 89 90
124 643 293 87 87 92
124 642 294 90 88 91
124 642 295 91 89 91
124 643 294 88 88 92
125 642 295 92 90 92
125 643 294 89 89 92
125 643 295 91 90 94
126 643 295 92 91 95
124 644 291 85 87 92
124 645 290 83 86 93
124 645 291 84 86 93
125 645 291 86 88 94
124 646 289 83 87 94
124 647 288 84 87 95
124 647 289 84 88 95
125 647 289 85 88 96
124 646 290 84 87 94
124 646 291 84 87 93
124 647 290 84 88 95
125 646 291 85 88 95
125 647 290 85 88 95
125 647 291 85 88 95
126 647 291 85 88 96
124 644 292 86 87 93
124 644 293 87 88 93
125 644 292 87 88 94
125 644 293 88 88 93
125 645 292 86 88 95
125 645 293 87 89 94
125 644 294 88 89 94
125 644 295 90 90 94
125 646 292 86 88 95
126 645 293 87 89 95
126 644 294 89 90 95
126 644 295 90 91 95
126 645 294 88 90 96
127 644 295 91 91 96
127 645 294 88 90 96
127 645 295 89 90 97
126 646 292 86 89 95
126 646 293 87 89 96
126 647 292 86 89 96
127 646 293 87 89 96
127 647 292 86 89 96
127 647 293 86 89 96
127 646 294 87 90 97
121 640 296 89 86 86
122 640 296 90 87 88
122 640 297 91 88 88
123 640 296 92 89 90
123 640 297 93 90 90
123 641 296 91 88 89
123 640 298 94 90 91
124 640 297 94 91 92
124 641 296 93 90 91
124 641 297 95 92 93
125 641 296 93 91 92
125 641 297 95 92 93
124 640 298 96 92 93
124 640 299 98 94 95
125 640 298 97 94 95
125 640 299 99 96 98
125 641 298 96 94 95
125 642 296 94 91 93
125 642 297 94 92 94
125 643 296 93 91 94
126 640 299 98 96 99
126 641 298 96 94 97
126 641 299 97 95 98
127 641 299 95 94 97
126 642 297 94 92 95
126 643 296 93 92 95
126 643 297 94 92 96
127 643 296 92 92 96
127 643 297 93 93 96
126 642 298 95 93 96
127 642 298 94 93 97
127 642 299 94 93 97
127 643 298 93 93 97
125 640 300 100 97 99
125 640 301 99 95 95
126 640 300 99 97 100
126 640 301 99 95 95
126 641 300 98 97 100
127 640 301 99 95 96
127 641 300 96 95 99
127 641 301 98 96 98
126 640 302 97 89 86
127 640 302 97 90 86
127 640 303 97 85 77
127 644 296 91 92 96
124 648 288 84 88 96
125 648 288 85 88 96
125 648 289 85 89 97
125 649 288 85 89 97
125 649 289 85 89 97
125 648 290 85 88 96
126 649 288 86 89 97
126 649 289 86 89 97
126 648 290 85 89 96
126 648 291 85 88 96
126 649 290 85 89 97
127 648 291 85 88 96
127 649 290 85 89 97
127 649 291 85 88 96
126 650 288 86 90 98
126 650 289 86 90 98
126 651 288 86 90 99
127 650 289 86 90 98
127 651 288 87 91 99
127 651 289 87 91 99
127 650 290 86 89 97
127 650 291 85 88 97
127 651 290 87 91 99
127 648 292 85 88 96
127 648 293 85 89 96
127 652 288 86 90 99
127 652 289 88 91 100
127 653 288 88 92 101
127 654 288 89 94 103
127 640 304 100 87 76
127 640 305 106 90 77
154 630 256 70 73 78
155 630 256 66 69 74
155 630 257 65 69 74
155 631 256 75 78 83
155 631 257 71 74 80
155 631 258 68 72 77
156 629 259 61 64 69
157 629 259 62 65 70
156 630 258 63 67 72
156 630 259 63 67 72
156 631 258 66 70 76
156 631 259 68 72 77
157 629 260 63 66 71
157 629 261 64 67 72
156 630 260 65 68 74
156 631 260 69 72 78
156 631 261 65 70 76
157 630 260 64 67 73
157 630 261 64 68 74
156 631 262 70 74 80
157 630 262 64 68 74
157 630 263 63 67 73
157 631 262 66 70 76
157 631 263 62 66 72
158 629 261 64 68 73
158 628 263 68 72 79
158 629 262 64 68 74
158 629 263 64 69 75
159 628 263 68 73 79
158 630 262 64 68 74
158 630 263 63 67 73
159 627 266 66 71 77
157 631 264 66 70 76
158 629 264 63 67 73
158 629 265 62 67 73
159 628 264 65 69 75
159 628 265 63 68 74
159 629 265 63 67 73
159 628 266 64 69 75
159 629 266 65 68 74
159 629 267 68 72 79
158 630 264 63 67 73
158 630 265 65 69 74
158 631 264 66 69 75
158 631 265 70 73 79
158 630 266 68 72 78
158 631 266 78 82 90
159 630 266 67 71 77
159 630 267 74 80 87
159 631 266 79 84 92
159 631 267 85 90 98
155 632 256 74 77 82
155 632 257 71 75 80
155 633 256 70 74 79
155 633 257 69 73 79
155 632 258 69 74 79
155 632 259 70 74 79
155 633 258 69 73 79
155 633 259 70 74 80
155 634 256 69 72 78
155 634 257 69 73 79
155 635 256 69 73 78
155 635 257 68 72 78
155 634 258 65 70 76
155 634 259 67 71 76
155 635 258 63 68 74
155 635 259 65 69 74
155 633 260 70 73 78
155 634 260 71 74 79
155 634 261 73 77 83
155 635 260 69 73 78
155 635 261 72 77 83
155 635 262 66 71 78
154 637 256 65 68 74
154 637 257 65 68 74
155 636 256 70 73 79
155 636 257 68 72 77
155 637 256 66 70 75
154 637 258 65 68 73
154 637 259 63 66 72
155 636 258 61 66 72
155 636 259 64 68 73
155 637 259 64 68 73
154 638 256 63 66 72
154 638 257 64 67 72
154 639 256 64 67 72
154 639 257 65 69 74
154 638 258 66 69 74
154 638 259 64 67 73
154 639 258 67 71 76
154 639 259 67 71 77
154 637 260 64 67 72
155 636 260 69 72 78
155 636 261 71 74 79
155 637 260 66 69 74
155 637 261 66 69 74
155 636 262 65 69 74
155 637 262 67 70 76
155 637 263 69 73 79
154 638 260 65 68 74
154 638 261 66 70 76
154 639 260 67 71 77
154 639 261 68 72 78
155 638 261 67 70 75
155 639 261 68 72 77
155 638 262 69 73 79
155 638 263 71 75 82
155 639 262 70 74 81
155 639 263 72 76 83
156 632 259 70 74 79
156 633 259 69 72 78
156 632 260 70 73 79
156 632 261 70 75 81
156 633 260 70 73 79
156 633 261 73 77 83
156 632 262 70 74 81
156 633 262 68 72 78
156 633 263 65 70 77
157 632 262 65 70 76
157 632 263 64 68 74
157 633 263 66 71 77
156 634 261 73 77 83
156 634 262 67 72 78
156 634 263 66 70 77
156 635 262 65 70 77
156 635 263 66 70 76
156 636 262 65 69 75
156 636 263 67 71 76
156 637 263 69 73 79
156 638 263 72 76 83
155 639 264 73 77 84
156 633 264 66 71 77
157 632 264 67 71 77
157 632 265 68 73 79
157 633 264 67 71 78
157 633 265 69 74 80
156 634 264 67 71 77
156 635 264 68 72 78
156 635 265 69 73 80
157 634 265 68 73 80
157 635 265 69 73 80
157 634 266 75 79 86
157 635 266 73 77 83
158 632 265 72 76 82
158 633 265 72 77 84
158 632 266 82 86 94
158 633 266 81 86 93
158 633 267 88 93 100
159 632 267 88 93 101
159 633 267 89 93 101
158 634 266 83 87 93
158 634 267 86 90 98
158 635 267 76 80 87
159 634 267 88 93 100
159 632 268 92 96 104
159 633 268 93 97 104
158 635 268 76 81 89
159 634 268 87 91 98
159 635 268 78 83 90
156 636 264 69 73 79
156 636 265 70 75 81
156 637 264 71 75 82
156 637 265 72 76 83
156 637 266 72 77 84
157 636 266 71 75 83
157 636 267 73 77 84
157 637 266 73 78 85
157 637 267 76 80 87
156 638 264 72 77 84
156 638 265 73 78 84
156 639 264 73 77 84
156 639 265 74 79 85
156 638 266 77 81 88
156 639 266 78 82 88
156 639 267 79 83 90
157 638 266 77 81 88
157 638 267 82 85 92
157 639 267 82 86 93
158 636 267 74 78 85
158 637 267 76 80 87
157 639 268 79 83 91
158 636 268 77 82 89
158 637 268 77 82 89
159 636 268 78 82 90
159 636 269 77 82 89
159 637 268 78 83 91
159 637 269 77 82 90
158 638 268 76 81 88
158 639 268 75 80 87
158 639 269 78 82 90
159 638 269 77 81 89
159 639 269 79 83 91
160 627 266 66 71 77
160 627 267 69 73 80
160 627 268 72 76 83
161 627 268 73 77 83
161 627 269 74 78 85
162 627 269 78 82 90
162 627 270 78 83 91
163 627 270 80 85 93
160 628 267 69 73 79
160 629 267 70 74 80
160 630 267 73 77 85
160 628 268 72 76 82
160 629 268 72 76 82
161 628 268 72 76 82
161 628 269 73 76 83
161 629 269 75 79 86
160 630 268 77 83 91
160 631 268 88 93 101
161 630 269 77 82 90
161 631 269 82 88 96
162 628 269 80 84 91
162 629 269 80 85 92
162 628 270 79 84 92
162 629 270 83 87 94
163 628 270 80 85 94
163 629 270 83 88 96
162 630 269 81 86 94
162 631 269 81 86 94
162 630 270 84 88 96
162 631 270 81 86 94
163 630 270 83 88 98
163 631 270 80 85 94
163 631 271 81 86 95
164 627 270 83 89 98
165 627 270 89 95 105
165 627 271 97 103 113
166 627 271 100 108 120
164 628 270 84 91 100
164 628 271 90 96 106
164 629 271 92 98 108
165 628 271 97 104 114
165 629 271 102 108 119
164 630 271 90 96 106
164 631 271 84 89 99
165 630 271 103 108 118
165 631 271 88 94 103
166 628 271 104 112 123
166 629 271 106 113 124
167 628 271 104 112 124
167 629 271 95 103 114
166 630 271 98 104 114
166 631 271 86 92 101
167 630 271 91 98 109
160 632 268 94 99 107
160 633 268 94 98 105
161 632 269 87 92 100
161 633 269 86 91 99
161 633 270 83 88 96
160 634 268 89 93 100
160 634 269 85 89 96
160 635 268 81 86 93
160 635 269 79 83 91
161 634 269 82 87 94
161 635 269 80 85 92
161 634 270 83 87 95
161 635 270 81 85 93
162 632 270 81 86 94
162 633 270 82 87 96
163 632 270 81 86 94
163 632 271 81 86 94
163 633 270 82 87 95
163 633 271 82 86 94
162 634 270 83 88 96
162 635 270 83 87 95
163 634 270 82 87 95
163 634 271 82 87 96
163 635 271 87 92 101
160 636 269 79 83 90
160 637 269 80 84 91
161 636 269 80 84 91
161 636 270 80 84 92
161 637 270 81 85 93
160 638 269 80 84 92
160 639 269 80 85 93
160 638 270 82 86 93
160 639 270 82 87 94
161 638 270 82 86 94
161 638 271 83 88 95
161 639 270 83 88 95
161 639 271 84 88 96
162 636 270 81 85 93
162 636 271 86 91 100
162 637 271 85 90 98
163 636 271 96 101 110
163 637 271 98 103 113
162 638 271 88 93 102
162 639 271 88 93 102
163 638 271 100 105 115
163 639 271 96 101 110
164 632 271 83 88 96
164 633 271 84 88 97
165 632 271 86 91 100
165 633 271 86 91 99
164 634 271 85 91 100
164 635 271 91 97 106
165 634 271 87 92 101
166 632 271 87 92 100
166 633 271 86 92 101
164 636 271 106 110 119
164 637 271 106 111 120
168 628 271 109 117 129
167 629 272 92 99 110
166 631 272 85 91 100
167 630 272 87 93 103
167 631 272 85 91 99
163 639 272 96 101 111
165 634 272 88 94 103
165 635 272 92 98 107
166 632 272 86 91 99
166 633 272 87 92 101
167 632 272 87 92 100
167 633 272 89 94 103
166 634 272 88 93 103
166 635 272 87 93 103
167 634 272 89 95 104
167 635 272 87 93 103
164 636 272 110 114 123
164 637 272 110 114 123
165 636 272 96 101 110
165 637 272 102 107 116
164 638 272 109 113 123
164 639 272 99 104 114
165 638 272 96 100 110
165 639 272 88 94 103
165 639 273 88 93 103
166 636 272 87 93 102
166 637 272 89 94 103
167 636 272 86 93 102
167 637 272 88 94 104
167 637 273 91 96 106
166 638 272 89 94 103
166 638 273 89 95 104
166 639 273 89 95 104
167 638 273 93 98 107
167 639 273 92 97 107
168 628 272 110 118 131
168 629 272 99 107 120
169 629 272 104 113 126
168 630 272 94 102 114
168 631 272 90 96 107
169 630 272 118 126 139
169 631 272 109 116 128
170 630 272 127 134 146
170 631 272 118 124 136
171 631 272 99 107 118
172 631 272 97 103 114
168 632 272 90 95 104
168 633 272 92 98 107
169 632 272 94 101 111
169 633 272 92 99 109
169 633 273 93 100 111
168 634 272 93 98 107
168 634 273 94 99 108
168 635 272 89 95 104
168 635 273 92 98 107
169 634 273 96 102 112
169 635 273 98 104 114
170 632 272 99 106 118
170 633 272 94 101 113
170 633 273 97 105 116
171 632 272 96 103 114
171 632 273 95 102 113
171 633 273 96 104 115
170 634 273 117 123 134
170 635 273 119 124 135
171 634 273 122 129 140
171 635 273 126 132 143
168 636 272 88 94 103
168 636 273 90 96 106
168 637 273 92 98 107
169 636 273 95 100 110
169 637 273 95 100 110
168 638 273 93 99 108
168 639 273 94 100 110
169 638 273 96 102 112
169 639 273 97 103 113
170 636 273 100 106 116
170 637 273 96 102 112
171 636 273 102 108 118
171 637 273 97 103 112
170 638 273 98 103 113
170 639 273 98 104 114
171 638 273 99 105 114
171 639 273 99 104 115
171 639 274 100 106 116
172 632 272 98 104 113
172 632 273 98 103 113
172 633 273 98 104 114
173 632 272 97 103 112
173 632 273 97 103 112
173 633 273 97 103 113
172 634 273 110 116 127
172 635 273 114 120 131
173 634 273 102 107 117
173 635 273 105 111 121
174 633 273 100 106 116
174 634 273 102 107 117
174 635 273 100 106 116
175 634 273 111 116 126
175 635 273 108 113 124
172 636 273 104 110 121
172 637 273 101 106 116
173 636 273 104 109 119
173 637 273 103 109 119
172 638 273 101 106 116
173 638 273 102 107 117
172 638 274 101 107 117
172 639 274 101 107 117
173 638 274 102 107 117
173 639 274 103 108 118
174 636 273 100 106 116
174 637 273 103 108 118
175 636 273 105 111 121
175 637 273 106 111 121
174 637 274 101 107 118
175 637 274 105 111 121
174 638 274 101 107 117
174 639 274 102 108 118
175 638 274 103 109 120
175 639 274 105 111 123
176 634 273 127 132 142
176 635 273 121 126 137
177 635 273 127 132 143
176 636 273 110 116 126
177 636 273 114 120 130
176 636 274 108 113 124
176 637 274 106 112 122
177 636 274 108 114 125
177 637 274 106 112 123
176 638 274 103 109 121
176 639 274 106 113 125
177 638 274 108 116 128
177 639 274 122 128 139
178 636 274 111 117 127
178 637 274 104 111 122
179 637 274 106 112 123
178 638 274 111 118 131
178 639 274 131 137 148
179 638 274 107 115 127
179 639 274 130 135 147
180 637 274 107 113 124
180 638 274 106 112 123
180 639 274 110 116 127
180 639 275 116 121 131
181 638 274 108 114 125
181 638 275 109 115 126
181 639 275 112 116 126
182 639 275 112 117 128
128 655 287 90 94 103
128 667 256 72 77 85
128 667 257 72 77 85
128 667 258 67 74 81
128 667 259 64 71 78
128 667 260 66 72 80
128 667 261 66 72 80
129 667 261 67 73 80
128 666 262 66 72 79
128 666 263 67 72 79
128 667 262 65 72 79
128 667 263 67 73 80
129 667 262 68 73 81
129 667 263 69 75 82
128 668 256 72 77 85
128 668 257 74 79 86
129 668 256 72 78 85
129 668 257 72 78 85
128 668 258 69 75 82
128 668 259 66 72 80
129 668 258 71 76 83
129 668 259 69 75 82
130 668 256 71 77 85
130 668 257 72 78 85
130 669 257 71 77 85
131 668 256 70 76 84
131 669 256 70 77 85
131 669 257 71 77 85
130 668 258 70 76 83
130 668 259 70 75 82
130 669 258 69 75 82
130 669 259 69 74 81
131 669 258 69 75 83
131 669 259 68 74 81
128 668 260 66 73 81
129 668 260 68 74 82
129 668 261 68 74 82
129 668 262 70 75 83
130 668 260 68 74 81
130 668 261 70 76 84
130 669 260 69 75 82
130 669 261 72 78 85
131 669 260 68 74 81
131 669 261 72 77 83
130 668 262 72 78 85
130 668 263 73 78 85
131 668 262 73 79 86
131 668 263 78 83 90
131 669 262 74 79 85
131 669 263 78 84 92
132 669 256 69 75 83
132 669 257 68 75 83
133 669 256 67 73 81
133 669 257 67 73 81
132 669 258 66 73 82
132 670 258 64 72 80
132 670 259 65 72 80
133 670 258 64 71 79
133 670 259 64 70 79
133 671 259 65 71 79
134 669 256 67 73 81
135 668 256 71 77 85
135 669 256 71 77 85
134 670 256 69 75 82
134 670 257 68 74 82
134 671 257 68 73 81
135 670 256 72 78 85
135 670 257 73 78 86
135 671 256 74 79 87
135 671 257 71 77 85
134 670 258 66 71 79
134 671 258 67 72 80
134 671 259 66 72 79
132 669 262 75 79 86
132 669 263 76 81 89
132 670 260 66 73 82
132 670 261 71 77 84
133 671 260 66 73 81
133 671 261 69 76 84
132 670 262 73 78 85
132 670 263 75 80 89
132 671 262 74 80 88
132 671 263 79 86 95
133 671 262 72 79 88
133 671 263 76 83 92
128 666 264 70 74 81
128 666 265 71 75 81
128 667 264 70 75 82
128 667 265 72 77 84
129 667 264 72 77 84
129 667 265 72 77 84
128 666 266 70 74 80
128 666 267 72 76 82
128 667 266 72 76 82
129 667 266 72 77 84
129 667 267 71 76 82
128 666 268 71 75 81
128 666 269 68 72 78
128 667 268 72 76 82
128 667 269 69 73 79
129 667 268 70 75 81
129 667 269 69 74 80
128 666 270 63 68 75
128 666 271 62 67 74
128 667 270 64 70 76
128 667 271 65 70 76
129 667 270 64 69 76
129 667 271 62 68 75
129 668 265 73 78 85
129 668 266 73 77 85
129 668 267 70 75 82
130 668 264 78 82 89
130 668 265 79 83 90
131 669 264 84 90 98
131 669 265 83 89 97
130 668 266 75 80 87
130 668 267 71 77 85
130 669 266 75 81 88
130 669 267 73 79 87
131 669 266 78 84 92
131 669 267 77 84 93
131 670 265 85 91 101
131 670 266 87 92 101
131 670 267 84 89 98
131 671 266 97 102 111
131 671 267 88 93 103
129 668 268 69 75 81
129 668 269 69 73 80
129 668 270 65 70 77
129 668 271 64 69 75
129 669 271 69 74 80
130 668 268 72 77 85
130 668 269 72 77 85
130 669 268 76 82 90
130 669 269 80 84 92
131 669 268 80 85 94
131 669 269 81 86 94
130 668 270 70 75 82
130 669 270 75 80 87
130 669 271 73 78 85
131 670 268 82 87 96
131 670 269 80 85 93
131 671 268 83 88 97
131 671 269 79 84 93
130 670 270 81 85 93
130 670 271 84 88 96
130 671 271 95 100 109
131 670 270 80 85 93
131 670 271 85 89 97
131 671 270 78 83 92
131 671 271 88 92 101
132 670 264 84 90 99
132 670 265 99 103 113
132 671 264 94 100 110
132 671 265 110 115 125
132 671 266 104 109 119
136 669 256 76 82 90
136 670 256 75 80 88
136 671 256 73 79 87
141 665 256 65 69 75
140 667 256 62 67 73
141 666 256 64 68 74
141 667 256 63 67 73
141 667 257 62 66 72
142 665 256 65 69 75
143 665 256 64 68 74
143 665 257 63 68 74
142 666 256 64 68 74
142 666 257 63 68 74
142 667 257 61 66 72
143 666 257 63 68 74
142 666 258 63 67 73
142 667 258 60 65 71
143 666 258 63 67 73
143 666 259 63 68 74
143 667 258 62 67 73
143 667 259 62 67 73
143 666 261 63 68 75
143 667 260 61 66 72
140 668 256 62 66 72
140 669 256 61 66 72
141 668 256 61 66 72
141 669 256 61 65 71
142 668 256 61 65 71
142 668 257 60 64 70
142 669 256 61 65 70
142 669 257 61 65 70
143 668 257 60 65 70
143 669 257 61 65 71
142 668 258 59 64 70
143 668 258 60 65 71
143 668 259 61 66 72
143 669 258 62 66 72
142 670 256 61 65 70
143 670 256 62 65 70
143 670 257 62 66 71
143 671 256 63 66 71
128 659 283 90 93 101
128 657 285 91 94 102
128 656 286 92 95 103
128 656 287 90 93 102
128 657 286 94 97 104
128 657 287 90 93 101
128 658 284 89 92 99
128 658 285 90 93 101
128 659 284 91 94 102
128 659 285 89 93 101
128 658 286 93 96 103
128 658 287 90 94 101
128 659 286 88 92 100
128 659 287 90 94 102
129 659 286 87 91 100
129 659 287 89 93 101
128 661 281 82 88 98
128 660 282 83 88 96
128 660 283 87 91 99
128 661 282 80 86 95
128 661 283 83 88 96
128 662 281 75 82 91
128 663 281 69 75 84
128 662 282 73 79 88
128 662 283 76 81 89
128 663 282 69 75 84
128 663 283 72 78 86
128 660 284 88 92 100
128 660 285 87 91 99
128 661 284 85 89 98
129 660 285 87 91 99
129 661 284 84 89 97
129 661 285 87 91 99
129 660 286 87 92 100
129 660 287 89 93 101
129 661 286 87 92 101
129 661 287 86 91 100
128 662 284 81 86 94
129 662 284 82 86 95
129 662 285 85 89 97
129 663 284 77 82 90
129 663 285 80 84 93
129 662 286 85 89 97
129 662 287 84 88 97
129 663 286 83 87 95
130 662 287 84 88 97
130 663 286 84 88 96
130 663 287 84 88 96
128 667 272 65 70 76
128 668 272 64 69 75
128 668 273 60 65 72
129 668 272 67 71 77
129 669 272 69 73 79
129 669 273 66 71 78
128 668 274 55 61 68
128 668 275 52 58 65
128 669 274 57 63 70
128 669 275 55 60 67
129 669 274 68 73 80
129 669 275 62 67 74
129 670 274 71 75 82
129 670 275 71 76 82
130 669 272 76 82 89
130 669 273 75 81 89
130 670 272 87 92 101
130 670 273 77 84 94
130 671 272 104 109 119
130 671 273 93 100 110
130 670 274 76 81 89
130 670 275 78 82 88
130 671 274 82 88 97
130 671 275 80 84 91
128 669 276 54 59 65
128 669 277 51 56 63
129 669 276 65 70 77
128 669 278 52 57 64
128 669 279 51 55 62
128 670 277 52 57 63
129 670 276 69 73 79
129 670 277 62 66 73
128 670 278 56 60 66
128 670 279 56 60 66
129 670 278 61 65 71
129 670 279 63 67 73
129 671 278 65 69 74
129 671 279 67 70 76
130 670 276 74 78 85
130 671 276 80 83 90
130 671 277 74 78 85
130 671 278 71 76 83
130 671 279 68 72 79
128 664 281 71 76 84
128 665 281 71 75 83
128 664 282 69 74 82
128 664 283 71 75 83
128 665 282 71 75 82
128 665 283 70 74 81
128 666 282 75 79 88
128 666 283 74 80 89
128 667 283 99 105 116
128 665 284 73 77 84
129 664 284 75 79 86
129 664 285 80 84 91
129 665 284 76 79 87
129 665 285 81 84 91
129 664 286 87 90 97
128 666 284 76 82 91
128 667 284 107 113 124
128 669 280 56 59 65
128 669 281 82 86 93
128 668 282 98 104 115
128 668 283 108 114 125
128 669 282 108 112 121
128 670 280 56 59 65
128 670 281 69 72 79
129 671 280 63 67 73
151 645 256 67 71 77
151 646 256 68 72 78
151 646 257 68 72 78
151 647 256 68 72 78
151 647 257 68 72 78
151 646 258 68 72 78
151 646 259 69 73 79
151 647 258 68 73 79
151 647 259 68 73 79
151 647 260 68 73 79
149 651 256 65 70 76
149 651 257 66 70 76
150 648 256 69 74 80
150 648 257 68 73 79
150 649 256 68 72 78
150 649 257 68 73 79
151 648 256 68 72 78
151 648 257 69 73 79
150 648 258 68 73 79
150 649 258 68 72 78
150 649 259 67 72 78
151 648 258 68 72 79
151 648 259 68 72 79
151 649 259 68 72 79
150 650 256 66 71 77
150 650 257 67 72 78
150 651 256 65 70 76
150 651 257 66 70 76
150 650 258 67 71 77
150 650 259 67 71 78
150 651 258 66 70 76
150 651 259 67 71 77
150 649 260 68 73 80
151 648 260 68 73 79
151 648 261 70 75 81
151 649 260 68 73 80
151 649 261 69 74 80
151 648 262 73 78 85
151 649 262 72 77 83
151 649 263 73 79 86
150 650 260 67 72 78
150 651 260 68 72 78
151 650 261 68 73 79
151 651 261 68 73 79
151 650 262 69 74 81
151 650 263 72 77 84
151 651 262 69 75 81
151 651 263 72 77 84
149 652 256 65 69 76
149 652 257 66 70 76
149 653 256 65 69 76
149 653 257 65 69 75
149 654 256 66 70 77
149 654 257 66 70 76
149 655 256 68 73 79
149 655 257 68 72 78
150 652 257 66 70 76
150 652 258 66 70 76
150 652 259 67 71 76
150 653 258 66 70 76
150 653 259 66 70 76
150 654 258 67 71 77
150 654 259 66 71 77
150 655 258 67 71 77
150 655 259 66 71 77
150 652 260 66 71 77
150 653 260 67 71 78
151 652 261 68 73 79
151 653 261 68 73 80
151 652 262 70 75 82
151 652 263 71 77 84
151 653 262 71 76 82
151 653 263 72 77 84
150 654 260 67 71 78
150 655 260 67 71 78
151 654 260 68 73 79
151 654 261 70 74 80
151 655 260 67 72 79
151 655 261 67 72 78
151 654 262 71 75 82
151 654 263 71 75 82
151 655 262 68 72 79
151 655 263 68 73 79
151 651 264 74 80 88
151 652 264 72 78 86
151 653 264 70 76 84
151 654 264 70 75 82
151 655 264 67 72 78
153 641 256 67 71 76
153 641 257 68 72 78
153 641 258 68 73 79
153 641 259 68 73 79
152 643 256 68 72 77
153 642 256 68 72 78
153 642 257 68 73 79
153 643 256 68 72 78
153 643 257 69 72 78
153 642 258 69 73 79
153 642 259 69 73 80
153 643 258 69 73 79
153 643 259 69 73 80
154 640 256 64 68 73
154 640 257 67 71 76
154 641 256 65 69 74
154 641 257 68 72 78
154 640 258 68 72 78
154 640 259 70 74 80
154 641 258 69 73 79
154 641 259 69 73 80
153 642 260 69 74 80
153 643 260 69 74 80
153 643 261 70 74 81
154 640 260 69 73 79
154 640 261 70 75 81
154 641 260 69 73 80
154 641 261 70 74 81
154 640 262 70 75 82
154 641 262 71 75 82
154 641 263 70 75 82
155 640 262 71 75 82
155 640 263 71 76 83
155 641 263 70 75 82
154 642 260 69 74 80
154 642 261 70 75 81
154 643 261 70 75 81
154 642 262 71 75 82
154 642 263 70 75 82
154 643 262 70 75 82
154 643 263 71 76 83
152 644 256 68 72 78
152 644 257 69 73 78
152 645 256 67 71 77
152 645 257 68 72 78
152 644 258 69 72 78
152 644 259 69 73 79
152 645 258 69 73 79
152 645 259 69 73 79
153 644 258 69 73 79
153 644 259 69 73 79
152 646 258 68 72 78
152 646 259 69 73 79
152 645 260 70 74 80
152 645 261 70 75 81
153 644 260 69 73 80
153 644 261 70 75 81
153 645 260 70 74 81
153 645 261 71 75 82
153 644 262 71 76 83
153 645 262 71 76 83
153 645 263 72 77 85
152 646 260 69 74 80
152 646 261 70 75 81
152 647 260 68 73 80
152 647 261 69 74 80
152 646 262 70 75 82
152 647 262 70 75 82
152 647 263 70 75 83
153 646 262 71 76 83
153 646 263 71 76 84
153 647 263 70 76 83
154 644 262 71 76 83
154 644 263 72 77 85
154 645 263 72 77 85
155 640 264 72 76 83
155 640 265 72 76 83
155 641 264 70 75 82
155 641 265 71 76 83
154 642 264 72 76 83
154 643 264 71 76 83
154 643 265 71 77 84
155 642 264 71 76 83
155 642 265 72 77 84
155 643 265 71 76 84
155 642 266 73 78 85
155 643 266 73 78 85
155 643 267 75 80 88
153 645 264 73 78 86
153 646 264 73 78 86
153 646 265 72 78 85
153 647 264 71 77 84
153 647 265 72 78 86
154 644 264 72 78 85
154 644 265 72 78 86
154 645 264 73 78 86
154 645 265 73 78 86
155 644 265 72 78 86
154 645 266 72 78 86
155 644 266 74 80 87
155 644 267 76 82 90
155 645 266 72 78 86
155 645 267 74 79 87
154 646 265 72 78 85
154 646 266 73 78 86
154 646 267 73 78 86
154 647 266 73 78 86
154 647 267 73 78 86
155 646 267 74 79 87
155 647 267 73 79 87
155 645 268 79 84 92
155 646 268 78 83 90
155 647 268 75 81 88
156 640 265 72 77 84
156 641 265 72 76 83
156 640 266 73 78 85
156 640 267 74 79 86
156 641 266 72 77 84
156 641 267 72 78 85
157 640 267 75 79 87
157 641 267 72 77 85
156 642 266 72 77 85
156 642 267 73 79 87
156 643 267 74 79 88
157 640 268 75 79 87
157 641 268 74 80 88
156 642 268 74 80 88
156 643 268 75 82 91
157 642 268 75 81 90
157 642 269 79 86 95
157 643 268 83 89 98
157 643 269 88 94 103
158 640 268 76 81 89
158 640 269 79 84 91
158 641 268 76 82 90
158 641 269 76 82 90
159 640 269 80 84 91
159 641 269 78 82 90
159 640 270 80 85 92
159 641 270 78 83 91
158 642 269 79 86 94
158 643 269 89 95 104
158 642 270 79 85 93
158 643 270 86 90 99
159 642 270 78 84 92
159 642 271 77 83 91
159 643 270 77 83 91
159 643 271 76 82 90
156 644 267 76 83 91
156 644 268 80 87 96
156 644 269 85 92 100
156 645 268 84 88 95
156 645 269 84 89 96
157 644 269 89 94 103
157 645 269 85 89 97
156 646 268 80 84 92
156 646 269 82 86 93
156 647 269 78 82 90
157 646 269 78 83 90
157 647 269 77 81 88
157 646 270 78 83 91
157 647 270 79 83 90
158 644 269 91 97 107
158 644 270 86 92 101
158 645 270 82 87 96
159 644 271 76 82 91
159 645 271 78 83 92
158 646 270 79 84 92
158 646 271 80 84 92
158 647 270 80 84 92
158 647 271 80 85 93
159 646 271 80 85 93
159 647 271 81 86 95
152 648 262 73 78 85
152 648 263 74 79 87
152 649 263 75 81 88
152 650 263 73 79 87
152 648 264 74 80 87
152 649 264 75 81 89
152 649 265 77 83 92
153 648 264 72 78 86
153 648 265 73 79 88
153 649 265 77 83 92
153 649 266 80 86 94
152 650 264 75 81 89
152 650 265 77 83 92
152 651 264 75 81 89
152 651 265 76 82 90
153 650 265 78 84 93
152 651 266 74 80 89
153 650 266 82 88 96
153 651 266 79 85 94
153 651 267 80 86 93
154 648 266 75 80 88
154 648 267 75 81 89
154 649 266 83 89 97
154 649 267 82 87 96
155 648 267 74 79 87
154 650 267 84 89 98
154 651 267 80 85 93
155 648 268 74 80 88
155 649 268 74 81 90
155 649 269 75 80 88
154 651 268 75 81 89
155 650 268 77 83 92
155 650 269 74 79 88
155 651 268 73 79 87
155 651 269 75 80 87
152 652 265 72 78 87
152 653 265 71 76 84
152 652 266 74 80 88
152 653 266 74 80 88
153 652 266 77 83 90
153 652 267 80 84 92
153 653 266 81 85 93
153 653 267 85 88 94
152 654 265 70 75 82
152 655 265 68 73 79
152 654 266 74 78 85
152 655 266 71 75 81
153 654 266 79 83 90
153 654 267 82 86 92
153 655 266 72 76 83
153 655 267 73 77 84
154 652 267 80 85 92
154 653 267 81 85 92
154 652 268 75 80 87
154 653 268 78 81 88
154 653 269 74 77 84
155 652 269 75 79 86
155 653 269 75 79 86
154 654 268 76 80 86
154 654 269 74 77 83
154 655 268 73 77 84
154 655 269 74 78 84
155 654 269 76 79 85
155 655 269 75 78 85
155 654 270 77 81 88
155 655 270 75 79 86
156 648 269 77 81 89
156 649 269 76 81 89
157 648 269 76 80 87
157 648 270 77 82 89
157 649 270 75 80 88
156 650 269 75 80 87
156 651 269 76 81 88
156 651 270 77 81 89
157 650 270 75 80 88
157 651 270 79 83 90
157 651 271 79 83 91
158 648 270 83 88 96
158 648 271 83 89 97
158 649 271 84 89 98
159 648 271 84 90 99
159 649 271 89 95 104
158 650 271 79 84 93
158 651 271 79 84 92
159 650 271 89 95 105
156 652 269 77 81 88
156 652 270 80 84 91
156 653 270 79 83 90
157 652 270 82 86 93
157 652 271 83 86 94
157 653 271 83 87 94
156 654 270 78 82 89
156 654 271 80 83 90
156 655 270 77 81 88
156 655 271 78 83 90
157 654 271 82 86 94
157 655 271 80 85 92
158 652 271 82 86 94
158 653 271 80 85 92
159 649 272 94 100 110
158 651 272 84 90 98
159 650 272 93 99 109
159 651 272 96 101 111
157 655 272 80 86 94
158 652 272 86 91 99
158 653 272 83 88 97
159 652 272 105 110 119
159 653 272 93 98 106
159 653 273 96 101 110
158 654 272 80 86 95
158 655 272 82 88 98
159 654 272 85 90 98
159 654 273 85 90 99
159 655 273 85 90 99
147 660 256 66 70 76
147 661 256 65 69 75
146 662 256 69 73 78
146 663 256 70 74 80
146 663 257 71 75 81
147 662 256 67 71 76
147 662 257 67 71 77
147 663 257 69 73 79
147 662 258 67 70 76
147 663 258 69 72 78
147 663 259 67 71 77
148 657 256 74 78 84
149 656 256 70 75 81
149 656 257 69 74 80
149 657 256 73 77 83
149 657 257 73 77 83
149 656 258 68 73 79
149 657 258 71 75 81
148 658 256 73 77 83
148 658 257 72 75 81
148 659 256 71 75 81
148 659 257 69 73 79
149 658 257 72 76 81
148 659 258 67 71 77
149 658 258 69 73 79
149 658 259 67 72 78
149 659 258 68 72 78
149 659 259 65 70 76
150 656 258 67 72 78
150 656 259 67 72 78
150 657 258 68 72 79
150 657 259 67 72 78
149 658 260 66 71 77
149 658 261 66 71 77
149 659 260 65 70 76
149 659 261 65 69 75
150 656 260 67 71 77
150 657 260 67 72 78
150 657 261 67 71 77
151 656 260 67 71 77
151 656 261 66 71 77
151 657 261 66 70 77
150 657 262 66 70 76
151 656 262 67 71 77
151 656 263 67 71 77
151 657 262 67 71 77
151 657 263 67 71 77
150 658 260 67 71 78
150 658 261 67 71 77
150 659 261 66 71 77
150 658 262 67 71 78
150 658 263 66 70 77
150 659 262 67 71 78
150 659 263 67 72 79
151 658 263 67 71 78
148 660 256 67 71 77
148 660 257 66 70 75
148 661 256 65 69 74
148 661 257 65 69 75
148 660 258 65 69 75
148 660 259 64 68 74
148 661 258 65 69 75
148 661 259 66 70 76
149 660 259 65 69 75
149 661 259 67 71 76
148 662 257 65 69 75
148 662 258 66 70 76
148 662 259 68 72 78
148 663 259 67 71 77
149 660 260 64 68 74
149 660 261 65 69 76
149 661 260 65 69 75
149 661 261 68 71 77
149 660 262 69 73 79
149 661 262 71 75 81
148 662 260 68 72 78
148 663 260 66 70 77
148 663 261 66 70 77
149 662 260 67 71 77
149 662 261 68 72 78
149 663 260 67 71 77
149 663 261 67 71 77
149 662 262 70 74 81
149 662 263 71 75 81
149 663 262 67 71 78
149 663 263 69 73 80
150 660 262 68 72 78
150 660 263 70 74 81
150 661 263 72 76 83
150 662 263 72 76 83
150 663 263 70 74 80
151 656 264 68 72 78
151 657 264 68 72 78
150 659 264 69 74 80
151 658 264 68 72 78
151 658 265 68 72 78
151 659 264 67 72 78
151 659 265 68 72 78
150 660 264 72 76 83
150 661 264 72 76 83
151 660 264 71 75 82
151 660 265 69 73 80
151 661 265 71 75 81
150 662 264 71 76 82
150 662 265 70 74 80
150 663 264 69 73 80
150 663 265 69 73 80
151 662 265 71 75 81
151 663 265 69 74 80
151 662 266 71 75 81
151 663 266 70 74 81
151 663 267 72 76 83
144 665 256 65 69 76
144 665 257 64 69 75
145 664 256 69 72 78
145 665 256 66 70 76
145 665 257 65 70 76
145 666 257 65 70 76
144 666 258 63 68 74
144 666 259 64 68 75
145 666 258 65 70 76
145 666 259 65 70 77
146 664 256 69 73 79
146 664 257 69 73 79
146 665 256 66 70 76
146 665 257 66 70 77
147 664 257 69 73 79
147 665 257 66 71 77
147 664 258 67 72 78
147 664 259 66 70 76
147 665 258 66 71 77
147 665 259 66 71 78
146 666 257 66 70 77
146 666 258 66 71 77
146 666 259 66 71 78
147 666 259 67 72 79
144 666 260 66 71 78
144 666 261 64 69 75
144 667 260 63 68 74
144 667 261 64 69 76
145 666 260 67 72 78
145 666 261 68 73 79
145 667 261 69 73 79
144 667 262 65 70 76
145 667 262 68 73 79
147 665 260 67 72 78
147 665 261 68 73 79
146 666 260 68 72 78
146 666 261 69 73 79
146 667 261 70 74 79
147 666 260 67 72 79
147 666 261 69 74 80
146 667 262 70 74 80
147 666 262 71 75 81
147 667 262 71 74 80
144 668 259 62 66 72
144 669 258 63 67 72
144 669 259 64 67 73
145 669 259 65 69 74
144 670 257 63 66 71
144 671 256 63 67 71
144 671 257 64 67 72
144 670 258 64 68 73
145 670 258 65 68 74
145 670 259 65 69 74
145 671 258 65 68 74
145 671 259 65 68 73
146 670 259 64 68 74
146 671 259 65 68 74
144 668 260 64 68 74
144 668 261 65 70 76
145 668 260 66 70 76
145 668 261 67 71 78
145 669 260 66 70 76
145 669 261 67 71 77
145 668 262 68 72 79
145 670 260 66 70 76
146 668 261 69 73 79
146 669 260 66 71 77
146 669 261 67 72 78
147 669 261 66 71 77
146 668 262 69 74 80
147 668 262 69 73 80
147 669 262 66 71 77
146 670 260 65 69 75
146 670 261 66 70 76
146 671 260 65 68 74
147 670 261 65 69 75
147 671 261 64 69 75
147 670 262 65 69 75
147 671 262 65 69 75
148 664 259 66 70 77
148 664 260 66 71 77
148 664 261 67 71 78
148 665 261 69 74 80
148 664 262 67 72 78
148 665 262 71 75 82
148 665 263 73 77 83
149 664 262 67 71 78
149 664 263 68 73 80
149 665 263 70 75 81
148 666 262 73 77 83
148 666 263 74 78 84
148 667 262 72 76 82
148 667 263 72 77 83
149 666 263 75 79 85
148 668 262 69 73 80
148 668 263 70 74 80
148 669 262 67 71 78
148 669 263 67 72 78
148 670 262 65 69 75
148 670 263 64 69 75
148 671 262 66 70 76
148 671 263 66 70 76
149 664 264 68 72 79
149 665 264 69 73 80
149 666 264 72 76 82
149 666 265 69 73 80
149 667 264 72 77 84
149 667 265 71 75 82
150 664 264 68 72 79
150 664 265 68 73 80
150 665 265 67 72 78
150 665 266 68 73 80
151 664 266 70 74 81
151 664 267 71 76 83
151 665 266 70 74 81
151 665 267 71 76 84
150 666 265 67 72 79
150 667 265 68 73 81
150 666 266 70 75 82
150 667 266 72 77 84
151 666 266 70 75 82
151 666 267 75 79 87
151 667 267 78 83 90
151 665 268 74 79 86
151 666 268 81 85 93
151 667 268 87 90 98
151 667 269 89 94 101
149 668 264 69 74 81
149 668 265 69 74 81
149 669 264 68 72 79
149 669 265 68 73 80
149 670 264 66 70 77
149 670 265 67 72 79
149 671 264 67 71 77
149 671 265 69 73 79
149 671 266 71 75 82
150 668 265 69 74 82
150 669 265 68 73 81
150 668 266 71 76 84
150 668 267 73 79 87
150 669 266 68 74 82
150 669 267 70 75 83
151 668 267 76 81 89
151 669 267 71 77 86
150 670 265 69 74 80
150 671 265 70 75 81
150 670 266 70 75 83
150 670 267 73 78 86
150 671 266 73 77 84
150 671 267 76 80 88
151 668 268 81 86 94
151 668 269 86 91 99
151 669 268 76 81 90
151 669 269 79 85 93
151 670 268 78 82 90
151 670 269 81 86 94
151 671 268 82 86 93
151 671 269 87 90 98
152 656 265 68 72 78
152 657 265 68 72 78
152 656 266 69 73 79
152 657 266 69 73 80
153 656 266 69 74 80
153 656 267 71 76 83
153 657 266 69 74 80
153 657 267 75 80 87
152 658 265 67 71 78
152 659 265 68 73 79
152 658 266 70 74 81
152 659 266 70 75 81
152 659 267 71 75 82
153 658 267 80 84 90
153 659 267 73 78 85
153 657 268 85 88 96
153 658 268 86 90 97
153 659 268 73 77 85
154 656 268 73 78 85
154 656 269 73 78 85
154 657 268 81 85 92
154 657 269 77 82 89
155 656 269 74 78 85
155 657 269 74 79 86
155 656 270 76 79 86
155 657 270 76 80 87
154 658 268 84 88 95
154 658 269 78 83 90
154 659 268 74 79 87
