ply
format ascii 1.0
comment PCL generated
element vertex 2080
property float x
property float y
property float z
property uchar red
property uchar green
property uchar blue
element camera 0
property float view_px
property float view_py
property float view_pz
property float x_axisx
property float x_axisy
property float x_axisz
property float y_axisx
property float y_axisy
property float y_axisz
property float z_axisx
property float z_axisy
property float z_axisz
property float focal
property float scalex
property float scaley
property float centerx
property float centery
property int viewportx
property int viewporty
property float k1
property float k2
end_header
244 832 282 105 88 73
244 833 282 108 91 76
244 833 283 111 93 78
245 832 282 108 91 77
245 833 282 110 94 79
244 834 283 115 98 85
244 835 283 121 104 90
245 834 282 113 96 82
245 834 283 116 100 87
245 835 283 122 106 92
247 832 281 111 96 84
246 832 282 110 95 82
246 833 282 113 97 84
247 832 282 113 98 86
247 833 282 115 100 87
247 833 283 117 101 89
246 834 283 118 102 89
246 835 283 123 106 92
247 834 283 122 105 92
245 835 284 125 108 94
246 835 284 126 108 94
247 834 284 125 108 94
247 835 284 126 108 93
247 835 285 127 109 93
244 836 283 125 107 93
244 836 284 126 108 93
244 837 284 130 111 94
244 837 285 131 111 94
245 836 284 127 109 93
245 837 284 130 110 94
245 837 285 130 111 93
244 838 285 132 112 94
245 838 285 131 111 93
244 838 286 132 112 94
244 839 286 132 112 94
244 839 287 131 111 93
245 838 286 131 111 93
245 838 287 129 109 92
245 839 287 129 109 91
246 836 284 128 109 93
246 836 285 128 109 93
246 837 285 128 109 91
247 836 285 128 109 92
246 837 286 128 108 91
247 837 286 127 108 92
247 837 287 128 109 92
246 838 286 129 109 92
246 838 287 128 108 91
246 839 287 127 107 89
247 838 287 127 108 91
240 840 284 135 113 96
240 840 285 134 113 95
240 841 285 135 113 94
241 840 285 134 112 94
240 841 286 134 112 94
241 840 286 134 113 95
241 841 286 134 112 94
240 842 285 135 112 93
240 842 286 133 112 93
240 843 286 133 111 92
241 842 286 133 111 93
241 842 287 131 111 92
241 843 287 130 109 91
242 840 285 133 112 94
242 840 286 134 113 95
242 841 286 134 113 95
242 841 287 132 112 94
243 840 286 133 112 94
243 840 287 132 112 93
243 841 287 132 112 94
242 842 287 131 111 93
240 844 287 131 110 91
240 845 287 131 110 91
241 844 287 129 108 89
244 840 287 131 111 92
248 832 282 115 101 88
248 833 282 118 102 90
248 833 283 121 104 91
249 832 282 117 102 90
249 832 283 120 104 91
249 833 283 122 105 91
248 834 283 122 106 92
250 832 282 119 103 90
250 832 283 123 106 91
250 833 283 125 107 92
251 832 282 121 104 89
251 832 283 125 107 92
251 833 283 127 109 93
248 834 284 125 107 91
248 835 285 126 108 92
249 834 284 125 107 92
249 834 285 128 109 93
249 835 285 127 109 92
249 835 286 128 109 93
250 833 284 127 109 93
251 833 284 128 110 94
250 834 284 128 110 94
250 834 285 130 112 96
250 835 285 129 110 94
251 834 284 129 111 95
251 834 285 131 113 97
250 835 286 129 110 93
251 835 286 132 113 96
248 836 285 127 109 92
248 836 286 128 109 93
248 837 286 128 109 93
248 837 287 128 109 93
249 836 286 128 109 93
249 837 287 127 109 92
248 838 287 128 109 92
250 836 286 129 110 94
250 836 287 129 110 94
250 837 287 128 109 93
251 836 286 131 112 96
251 836 287 131 112 95
251 837 287 129 110 94
252 832 282 121 103 88
252 832 283 123 105 90
252 833 283 126 108 92
253 832 283 123 105 90
253 833 283 126 107 91
254 832 282 123 105 90
254 832 283 125 107 91
254 833 283 128 109 94
255 832 282 123 105 90
255 832 283 126 109 93
255 833 283 128 110 95
252 833 284 129 110 94
253 833 284 129 110 95
252 834 285 132 113 97
252 835 285 133 114 98
253 834 285 132 113 97
252 835 286 134 115 98
253 835 286 134 115 99
254 833 284 128 110 95
255 833 284 129 111 95
254 834 284 130 112 97
254 834 285 132 114 98
254 835 285 134 115 100
255 834 284 130 112 96
255 834 285 132 114 99
255 835 285 133 115 99
254 835 286 134 115 99
255 835 286 134 116 100
252 836 286 133 114 98
252 836 287 132 113 97
252 837 287 130 112 95
253 836 286 134 115 98
253 836 287 133 114 97
253 837 287 132 113 97
254 836 286 135 116 100
254 837 287 133 114 98
255 836 286 136 117 101
255 837 287 134 115 99
232 832 288 69 74 85
233 832 288 64 66 77
233 833 288 70 75 87
234 832 288 58 62 71
235 832 288 62 66 75
238 847 288 133 111 91
239 846 288 130 109 90
239 847 288 131 110 91
239 847 289 130 109 91
239 847 290 127 107 89
235 851 288 142 119 98
235 852 288 143 120 99
235 853 288 144 120 99
234 855 288 145 120 98
235 854 288 145 121 100
235 854 289 143 119 98
235 855 288 144 120 98
235 855 289 142 116 96
236 849 288 138 115 95
237 848 288 135 113 92
237 849 288 137 114 94
237 849 289 136 113 93
236 850 288 139 117 96
236 851 288 142 119 98
236 851 289 138 115 94
237 850 289 136 114 93
237 851 289 136 113 92
237 851 290 134 112 91
238 848 288 133 111 91
238 848 289 132 111 91
238 849 289 134 112 92
239 848 289 131 110 91
238 849 290 131 110 90
239 848 290 128 108 89
239 848 291 124 104 86
239 849 290 128 108 89
239 849 291 125 105 87
238 850 290 132 110 91
238 850 291 129 108 89
238 851 290 132 110 91
238 851 291 129 108 89
239 850 291 126 105 87
239 851 291 127 106 88
239 850 292 124 104 85
239 851 292 125 105 87
236 852 288 141 118 97
236 852 289 138 115 94
236 853 289 142 118 98
237 852 290 136 113 93
237 853 290 138 115 95
236 854 289 143 118 98
236 855 289 141 116 95
236 854 290 140 116 96
236 855 290 139 114 93
237 854 290 138 114 94
237 854 291 135 113 92
237 855 290 137 113 92
237 855 291 136 112 91
238 852 290 134 112 92
238 852 291 131 110 91
238 853 291 134 112 92
238 854 291 134 112 91
237 855 292 135 112 91
238 853 292 132 110 90
239 852 292 129 108 89
239 852 293 127 106 88
239 853 292 131 109 90
239 853 293 130 109 90
238 854 292 133 110 90
238 855 292 133 111 90
238 855 293 133 111 91
239 854 293 131 110 90
239 855 293 132 111 91
239 854 294 132 111 92
239 855 294 132 110 91
233 858 288 143 116 96
233 859 288 142 116 96
234 856 288 143 117 96
234 857 288 143 116 95
234 857 289 140 114 93
235 856 288 142 117 95
235 856 289 140 115 94
235 857 289 139 113 93
235 856 290 139 114 93
235 857 290 138 113 93
234 858 288 142 116 95
234 858 289 140 115 94
234 859 288 141 115 95
234 859 289 139 114 93
235 858 289 139 114 93
234 859 290 137 112 92
235 858 290 137 112 92
235 859 290 136 112 91
235 859 291 135 110 90
233 860 288 141 115 95
233 861 288 141 114 94
233 861 289 139 112 93
232 863 288 139 112 92
233 862 288 139 112 91
233 862 289 136 110 90
233 863 288 137 111 91
233 863 289 135 110 90
233 863 290 133 108 88
234 860 289 140 113 94
234 861 289 138 112 92
234 860 290 136 111 91
234 861 290 134 110 89
235 860 290 135 110 90
235 860 291 133 108 88
235 861 291 130 105 86
234 862 289 136 110 90
234 862 290 133 108 88
234 862 291 128 104 85
234 863 290 131 107 87
234 863 291 127 103 84
235 862 291 128 104 85
235 860 292 128 104 85
235 861 292 126 102 83
235 861 293 122 98 79
234 863 292 123 101 82
235 862 292 124 101 82
235 862 293 122 99 80
235 863 292 122 100 81
235 863 293 120 99 80
235 862 294 119 97 79
235 863 294 118 97 79
235 863 295 116 96 78
236 856 290 138 113 93
236 856 291 137 113 92
236 857 290 137 112 92
236 857 291 137 112 91
237 856 291 137 113 92
236 858 290 136 111 91
236 858 291 136 111 90
236 859 291 134 109 89
237 856 292 135 112 91
237 857 292 135 111 91
237 857 293 133 110 90
236 858 292 134 110 90
236 859 292 133 109 89
236 859 293 128 105 85
237 858 292 134 110 90
237 858 293 132 109 89
237 859 293 130 106 86
237 858 294 128 105 86
237 859 294 124 102 83
237 859 295 121 100 82
238 856 293 134 111 91
238 857 293 132 109 89
238 856 294 132 110 90
238 857 294 130 108 89
239 856 294 130 108 89
239 856 295 128 107 88
239 857 294 129 107 88
239 857 295 127 106 88
238 858 294 128 106 87
238 858 295 125 104 86
238 859 295 121 101 83
239 858 295 125 105 86
236 860 292 128 105 85
236 860 293 125 102 83
236 861 293 122 98 79
236 860 294 122 100 81
236 861 294 120 98 79
236 861 295 119 98 79
237 860 294 121 100 81
237 860 295 120 100 82
237 861 295 119 98 80
236 862 294 118 97 78
236 862 295 117 97 79
235 863 296 116 96 79
239 857 296 124 104 86
238 859 296 120 100 82
238 859 297 117 98 81
239 858 296 122 103 85
239 858 297 119 100 83
239 859 297 117 98 81
239 859 298 115 96 80
237 860 296 118 99 81
237 861 296 117 98 80
237 861 297 115 96 79
236 862 296 117 97 79
236 862 297 115 96 79
236 863 296 116 97 79
236 863 297 114 95 77
237 862 296 116 97 79
237 862 297 115 96 79
236 862 298 113 94 77
236 863 298 112 93 76
236 863 299 110 92 76
237 862 298 112 94 77
237 862 299 110 92 76
237 863 299 110 92 76
238 860 296 118 98 81
238 860 297 116 97 80
238 861 297 115 96 79
238 860 298 115 96 80
238 861 298 113 95 78
238 861 299 110 93 78
239 860 298 114 96 79
239 860 299 110 94 78
239 861 299 110 93 78
238 862 298 111 93 77
238 862 299 109 92 77
236 863 300 108 91 76
236 863 301 106 90 75
237 862 300 108 91 76
237 863 300 108 91 76
237 863 301 104 89 75
237 863 302 102 87 75
237 863 303 100 86 74
239 860 300 108 92 77
239 861 300 108 91 76
239 861 301 105 89 76
239 861 302 102 88 75
238 862 300 107 91 76
238 862 301 105 89 76
239 862 301 105 89 76
238 862 302 102 88 76
238 862 303 100 86 75
238 863 302 102 88 75
238 863 303 99 86 75
239 862 302 101 87 75
239 862 303 98 85 74
237 863 304 99 85 74
237 863 305 96 84 74
237 863 306 95 83 74
237 863 307 95 83 74
238 863 304 99 86 75
238 863 305 97 84 74
239 862 304 98 85 75
239 862 305 96 84 74
239 863 305 96 83 74
238 863 306 95 83 74
238 863 307 94 83 73
239 862 306 94 82 72
239 862 307 93 81 72
239 863 306 95 83 74
239 863 307 94 82 73
237 863 308 94 83 74
237 863 309 94 82 74
237 863 310 93 82 74
237 863 311 92 82 74
238 863 308 93 82 73
238 863 309 93 82 74
239 862 308 92 81 72
239 862 309 91 81 72
239 863 308 92 81 72
239 863 309 92 81 73
238 863 310 92 82 74
238 863 311 91 81 73
239 862 310 91 80 73
239 862 311 90 80 72
239 863 310 91 81 73
239 863 311 90 80 72
237 863 312 91 81 74
237 863 313 90 80 73
237 863 314 90 81 75
237 863 315 90 81 75
238 863 312 91 81 74
238 863 313 90 81 74
239 862 312 90 81 74
239 862 313 91 81 75
239 863 312 90 81 73
239 863 313 91 81 75
238 863 314 90 82 76
238 863 315 90 82 76
239 862 314 90 81 75
239 862 315 89 80 74
239 863 314 91 82 76
239 863 315 90 81 75
236 863 316 89 81 74
236 863 317 89 80 74
237 863 316 90 81 75
237 863 317 89 80 74
236 863 318 89 80 74
236 863 319 89 80 74
237 863 318 89 80 74
237 863 319 89 80 75
238 863 316 90 81 75
238 863 317 88 80 74
239 862 316 89 80 74
239 862 317 88 80 73
239 863 316 89 81 75
238 863 318 88 80 74
238 863 319 89 80 75
239 862 318 89 80 74
239 862 319 89 81 76
239 863 319 89 80 75
245 839 288 129 109 91
246 839 288 127 107 90
246 839 289 127 107 90
247 838 288 126 107 90
247 839 288 126 107 90
247 839 289 126 106 89
241 843 288 130 109 91
243 840 288 131 111 93
243 841 288 131 111 92
242 842 288 130 110 91
242 843 288 129 109 91
242 843 289 128 108 90
243 842 288 130 109 91
243 842 289 129 108 90
243 843 289 128 107 89
243 842 290 128 108 90
243 843 290 128 108 89
240 844 288 129 108 89
240 845 288 130 109 90
240 845 289 129 108 90
241 844 288 129 108 89
241 844 289 128 108 89
241 845 289 128 108 90
241 845 290 127 107 89
240 846 288 130 109 90
240 846 289 129 108 90
240 847 289 129 108 90
240 846 290 127 108 89
240 847 290 125 106 88
240 847 291 124 105 87
241 846 290 126 106 88
241 846 291 124 104 87
241 847 291 124 104 87
242 844 289 128 108 89
242 844 290 127 107 89
242 845 290 126 106 88
242 845 291 124 105 87
243 844 290 126 107 89
243 844 291 124 105 87
243 845 291 123 104 87
242 846 291 123 104 87
241 847 292 122 103 85
241 847 293 120 101 83
243 844 292 123 104 88
243 845 292 122 103 86
243 845 293 119 101 83
242 846 292 121 103 85
242 846 293 119 101 83
242 847 293 119 100 83
243 846 293 119 100 83
242 847 294 118 99 82
243 846 294 116 98 82
243 847 294 116 97 81
243 847 295 115 96 80
244 840 288 131 110 92
244 841 289 130 109 91
245 840 288 129 110 92
245 840 289 128 109 91
245 841 289 128 108 90
244 841 290 129 109 91
245 841 290 128 108 91
244 842 290 128 108 90
244 843 290 127 108 90
244 843 291 125 106 88
245 842 290 127 107 90
245 842 291 126 107 90
246 840 289 127 108 91
246 840 290 127 108 91
246 841 290 127 108 91
246 841 291 124 106 89
247 840 290 126 107 90
247 841 291 123 105 89
246 842 291 124 105 88
244 843 292 122 103 85
245 842 292 123 104 87
245 843 292 122 103 86
245 843 293 121 103 86
246 841 292 121 103 86
247 841 292 121 103 86
246 842 292 121 102 85
246 842 293 118 100 84
246 843 293 120 102 85
247 842 292 119 101 85
247 842 293 117 99 83
246 843 294 118 100 83
247 842 294 115 97 81
247 843 294 115 97 81
247 843 295 116 98 82
244 844 291 122 103 86
244 844 292 122 103 86
244 844 293 120 102 85
244 845 293 118 100 84
245 844 293 119 100 84
244 845 294 116 97 81
244 845 295 113 95 78
245 844 294 117 99 83
245 845 294 116 98 82
245 845 295 113 95 78
244 846 294 115 96 80
244 846 295 114 95 79
244 847 295 114 95 79
246 844 294 116 98 82
246 844 295 115 97 81
246 845 295 114 96 80
247 844 295 116 98 82
245 845 296 112 94 77
244 846 296 112 94 77
244 847 296 113 94 78
245 846 296 112 93 77
245 846 297 112 93 76
245 847 296 112 93 76
245 847 297 113 94 76
246 845 296 114 95 79
247 844 296 117 99 82
247 845 296 115 96 79
247 845 297 119 100 82
246 846 297 114 94 77
246 847 297 117 96 79
247 846 297 122 101 84
246 847 298 122 101 83
247 846 298 128 107 89
247 847 298 130 109 90
249 837 288 127 109 92
248 838 288 126 107 91
248 839 289 125 106 89
249 838 288 127 108 92
249 839 289 125 106 89
248 839 290 125 106 89
249 839 290 124 105 89
250 837 288 127 108 92
251 837 288 128 109 93
250 838 288 127 108 92
250 838 289 126 107 90
250 839 289 125 107 91
251 838 288 127 108 91
251 838 289 126 108 91
251 839 289 124 106 90
250 839 290 125 106 90
251 839 290 125 106 90
252 837 288 130 111 95
253 837 288 131 113 96
252 838 288 129 111 94
252 838 289 128 109 93
252 839 289 123 105 88
253 838 288 131 112 96
253 839 289 128 109 93
252 839 290 125 106 90
253 839 290 128 109 93
254 838 288 132 114 98
254 839 289 132 114 99
255 838 288 134 115 100
255 839 289 134 116 100
248 840 290 125 106 90
248 840 291 123 104 87
248 841 291 121 103 86
249 840 290 123 105 89
249 840 291 121 102 86
249 841 291 119 101 84
250 840 290 123 105 90
250 840 291 121 103 87
250 841 291 118 101 85
251 840 290 125 107 91
251 840 291 122 104 89
251 841 291 119 102 87
248 841 292 118 100 84
249 841 292 116 98 82
248 842 293 115 97 80
249 842 293 113 95 78
248 842 294 114 96 80
248 843 294 114 96 80
248 843 295 117 99 84
249 842 294 112 95 79
249 843 294 115 98 82
249 843 295 120 102 87
250 841 292 116 98 83
251 841 292 117 100 85
250 842 293 113 96 80
251 842 293 115 98 83
250 842 294 114 97 81
250 843 294 117 100 85
250 843 295 123 106 91
251 842 294 115 98 84
251 843 294 120 103 89
251 843 295 126 108 94
248 844 295 118 100 85
252 840 290 126 108 93
252 840 291 125 107 93
252 841 291 122 105 90
253 840 290 129 111 96
253 840 291 129 112 97
253 841 291 128 110 96
254 840 290 132 114 99
254 840 291 134 116 102
254 841 291 131 113 99
255 840 290 135 117 102
255 841 291 134 117 102
252 841 292 119 102 87
253 841 292 123 106 91
252 842 293 118 101 87
253 842 292 125 108 93
253 842 293 122 105 90
252 842 294 118 101 87
252 843 294 121 104 90
252 843 295 125 108 94
253 842 294 120 103 88
253 843 294 123 106 93
253 843 295 127 110 96
254 841 292 129 112 97
254 842 292 129 112 98
254 842 293 127 110 96
255 842 292 131 113 99
255 842 293 130 113 99
255 843 293 129 112 98
254 843 294 126 109 96
255 843 294 128 111 98
252 844 295 128 111 96
253 844 295 128 111 97
254 844 295 128 111 98
255 844 294 130 113 100
255 844 295 129 112 98
248 844 296 121 102 85
248 845 297 127 107 89
249 844 296 127 108 92
249 845 297 132 111 93
248 846 297 130 109 91
248 846 298 135 113 95
248 847 298 142 120 102
249 846 298 139 117 98
249 847 298 145 122 103
249 847 299 147 124 104
250 844 296 131 112 96
250 845 297 135 114 96
251 844 296 132 113 97
251 845 297 134 114 97
251 846 297 134 113 95
250 846 298 139 117 98
250 847 298 145 122 103
250 847 299 147 124 104
251 846 298 136 116 97
251 847 298 140 119 100
252 844 296 131 113 97
252 845 297 132 114 98
253 844 296 129 111 97
253 845 296 130 112 97
253 845 297 130 111 96
252 846 297 132 112 96
253 846 297 128 109 93
252 846 298 132 112 95
252 847 298 135 115 97
253 846 298 129 110 93
253 847 298 129 110 94
254 844 296 128 111 97
254 845 296 127 110 95
254 845 297 128 110 95
255 845 296 127 110 95
255 845 297 127 109 94
254 846 297 126 108 93
255 846 297 125 107 92
255 847 297 126 108 92
254 847 298 126 109 94
255 847 298 127 109 94
240 848 290 125 105 87
240 848 291 123 104 86
240 849 291 123 104 86
240 848 292 122 103 85
240 849 292 122 102 84
240 849 293 120 101 83
241 848 292 121 102 84
241 848 293 120 101 83
241 849 293 120 100 83
241 848 294 119 100 83
241 849 294 119 100 82
240 850 292 123 103 85
240 850 293 121 101 83
240 851 292 124 104 86
240 851 293 124 104 85
241 850 293 120 100 82
240 851 294 123 103 85
241 850 294 120 101 83
241 851 294 122 102 84
242 848 294 118 99 82
242 849 294 118 99 82
242 849 295 118 99 81
243 848 294 116 98 81
243 848 295 116 97 81
243 849 295 118 99 81
242 850 294 120 101 83
242 850 295 120 101 83
242 851 295 122 103 85
240 852 293 126 106 87
240 853 293 129 108 89
240 852 294 127 106 88
240 853 294 130 109 90
241 852 294 126 106 88
241 852 295 127 108 90
241 853 294 129 108 90
241 853 295 129 109 91
240 854 294 131 110 92
240 854 295 131 110 92
240 855 294 131 111 92
240 855 295 130 109 91
241 854 295 130 110 91
242 852 295 125 106 88
243 848 296 116 97 80
243 849 296 117 98 81
242 851 296 123 103 85
243 850 296 119 100 82
243 851 296 122 102 84
243 851 297 122 102 83
241 853 296 128 108 90
240 855 296 127 107 88
241 854 296 129 109 91
241 855 296 129 109 91
241 855 297 126 106 88
242 852 296 124 104 86
242 853 296 126 106 88
242 853 297 124 104 86
243 852 296 122 103 84
243 852 297 123 103 85
243 853 297 124 104 86
243 852 298 124 104 85
243 853 298 124 105 87
242 854 296 127 107 88
242 854 297 127 107 88
242 855 297 126 107 89
242 854 298 125 105 87
242 855 298 122 103 85
243 854 298 123 104 86
243 854 299 122 102 85
243 855 298 122 102 84
243 855 299 120 101 83
243 855 300 117 99 82
244 848 296 114 96 79
244 848 297 115 96 79
244 849 296 116 97 80
244 849 297 118 99 81
245 848 297 116 96 79
245 849 297 121 101 83
245 848 298 121 101 83
245 849 298 124 104 86
244 850 297 120 100 83
244 851 297 121 101 83
244 850 298 122 101 84
244 851 298 122 102 84
245 850 298 124 103 85
245 850 299 127 105 87
245 851 298 124 103 85
245 851 299 127 105 87
246 848 298 126 105 87
246 849 298 130 109 90
246 849 299 135 112 93
247 848 298 137 115 97
247 848 299 142 120 101
247 849 299 143 120 101
246 850 299 133 110 91
246 851 299 131 109 90
247 850 299 140 117 98
247 849 300 147 124 105
246 851 300 135 112 94
247 850 300 142 118 99
247 851 300 140 116 98
244 852 298 124 104 86
244 852 299 125 105 88
244 853 298 124 104 87
244 853 299 125 105 87
245 852 299 127 107 88
244 854 299 122 103 85
244 853 300 124 104 86
245 852 300 127 106 88
245 853 300 125 105 86
245 853 301 123 103 85
244 854 300 121 101 84
244 855 300 119 100 83
244 855 301 116 98 81
245 854 300 121 102 84
245 854 301 120 101 83
245 855 301 117 99 83
245 855 302 116 98 83
246 852 300 131 109 91
246 852 301 129 108 89
246 853 301 126 105 87
247 852 301 134 112 93
247 853 301 127 106 88
247 853 302 125 105 87
246 854 301 121 102 85
246 854 302 120 101 85
246 855 302 116 98 83
247 854 302 121 102 85
247 855 302 118 99 83
247 855 303 116 98 82
240 856 295 128 107 88
240 856 296 126 106 87
240 856 297 124 104 86
240 857 296 124 104 86
240 857 297 122 102 84
241 856 297 124 104 86
241 857 297 121 102 84
241 856 298 121 102 84
241 857 298 119 100 83
241 857 299 116 97 81
240 858 297 120 101 84
240 858 298 117 98 82
240 858 299 113 95 79
240 859 298 114 97 80
240 859 299 111 94 78
241 858 298 116 98 81
241 858 299 113 95 79
242 856 298 120 101 84
242 856 299 118 99 83
242 857 299 115 97 81
243 856 299 117 99 82
240 859 300 109 92 77
241 858 300 110 93 78
241 858 301 107 90 75
241 859 300 109 92 78
241 859 301 105 90 76
241 859 302 101 86 73
242 857 300 113 96 81
243 856 300 115 98 81
243 856 301 112 95 79
243 857 300 113 96 81
243 857 301 110 93 79
243 857 302 107 91 77
242 858 300 110 94 79
242 858 301 107 92 77
243 858 301 107 91 77
242 858 302 103 88 74
242 859 302 100 85 72
242 859 303 97 83 71
243 858 302 104 89 75
243 858 303 100 86 74
243 859 303 97 83 72
240 860 299 110 93 78
240 860 300 108 91 76
240 860 301 105 89 75
240 861 301 103 88 75
240 860 302 102 87 75
240 861 302 100 86 74
240 861 303 98 85 74
241 860 302 100 86 74
241 860 303 97 84 72
244 856 301 113 96 80
244 856 302 111 95 80
244 857 302 107 92 78
244 857 303 106 90 78
245 856 302 112 96 81
245 856 303 109 93 80
245 857 303 107 92 79
244 858 303 103 88 76
246 856 303 111 94 80
247 856 303 112 95 81
248 848 299 148 125 105
248 849 299 150 126 106
249 848 299 150 126 106
249 849 299 151 127 107
250 848 299 149 126 106
251 848 299 145 123 104
251 849 299 148 127 108
248 849 300 149 125 105
249 849 300 150 126 107
248 850 300 146 122 102
248 851 300 143 119 100
248 851 301 142 119 100
249 850 300 148 124 105
249 851 301 144 121 103
250 849 300 151 127 108
251 849 300 150 128 108
250 850 300 149 126 106
250 851 301 145 121 102
251 850 300 148 125 106
251 851 301 144 121 102
248 852 301 135 113 94
249 852 301 137 114 96
248 853 302 127 107 89
249 852 302 131 110 91
249 853 302 127 106 89
248 854 302 123 104 87
248 854 303 120 101 85
248 855 303 116 98 83
249 854 302 123 103 87
249 854 303 119 101 85
249 855 303 115 98 82
250 852 301 137 115 96
251 852 301 139 117 99
250 852 302 133 111 93
250 853 302 128 107 91
251 852 302 134 113 95
251 853 302 129 109 92
250 854 302 122 103 87
250 854 303 117 99 83
250 855 303 113 95 81
251 854 302 120 101 84
251 854 303 116 98 82
251 855 303 114 96 82
252 848 299 140 119 101
252 849 299 146 125 107
253 848 298 130 111 95
253 848 299 134 115 98
253 849 299 140 120 104
254 848 298 130 112 96
254 848 299 131 113 97
254 849 299 138 119 102
255 848 298 129 111 96
255 848 299 131 112 96
255 849 299 135 116 99
255 850 299 140 120 103
252 849 300 148 127 109
253 849 300 143 123 106
252 850 300 147 125 107
252 851 300 146 124 104
252 851 301 144 122 102
253 850 300 145 124 106
253 851 300 146 124 106
253 851 301 145 123 104
254 850 300 144 123 106
254 851 300 146 125 107
255 850 300 142 122 104
255 851 300 145 124 106
252 852 301 140 118 100
253 852 301 140 119 101
252 852 302 136 115 98
252 853 302 130 111 93
253 853 302 131 112 94
252 854 302 123 104 87
252 854 303 119 101 85
252 855 303 115 98 84
253 854 302 123 105 88
253 854 303 121 103 88
253 855 303 117 100 85
254 852 301 142 120 101
254 853 301 134 113 94
255 852 300 144 122 103
255 852 301 141 119 100
255 853 301 134 113 94
254 853 302 130 110 91
255 853 302 131 111 92
254 854 302 126 106 89
254 855 303 119 102 87
255 854 302 128 108 91
255 855 302 124 106 89
255 855 303 120 103 87
248 856 303 112 95 81
255 856 303 117 99 85
242 859 304 95 82 71
243 858 304 98 85 74
243 858 305 97 84 74
243 859 304 96 83 72
243 859 305 94 83 73
243 859 306 93 82 72
243 859 307 93 82 72
240 861 304 96 83 73
240 861 305 94 81 72
241 860 304 95 82 72
241 860 305 94 81 71
241 861 304 94 82 72
241 861 305 93 81 72
240 861 306 92 81 72
240 861 307 92 81 72
241 861 306 92 81 72
241 861 307 92 80 72
240 862 304 96 83 73
240 862 305 94 82 73
240 862 306 93 82 72
240 862 307 93 81 72
242 860 304 95 82 71
242 860 305 93 81 71
242 860 306 92 81 72
242 860 307 92 81 72
242 861 307 92 81 72
243 860 306 92 81 71
243 860 307 93 81 72
241 861 308 91 80 72
241 861 309 90 80 72
241 861 310 91 81 73
241 861 311 90 81 73
240 862 308 92 81 72
240 862 309 91 80 72
240 862 310 90 80 72
240 862 311 90 80 73
242 860 308 90 80 71
242 861 308 90 79 71
242 861 309 91 81 73
243 860 308 91 81 73
243 860 309 91 81 73
242 861 310 91 81 74
242 861 311 91 81 74
243 860 310 92 82 74
243 860 311 91 81 74
243 861 310 91 81 74
243 861 311 91 81 74
244 857 304 103 89 77
245 857 304 105 91 78
244 858 304 101 87 76
244 858 305 99 86 76
244 859 305 97 85 75
245 858 304 102 89 77
245 858 305 100 87 77
244 859 306 96 84 75
244 859 307 94 82 74
245 858 306 98 86 77
245 859 306 97 85 76
245 859 307 95 84 75
246 857 304 105 91 79
246 857 305 102 89 77
247 856 304 109 93 80
247 857 304 106 91 80
247 857 305 104 90 79
246 858 305 100 87 77
247 858 305 101 88 77
246 858 306 99 87 77
246 858 307 97 85 76
246 859 307 96 85 76
247 858 306 100 87 77
247 858 307 97 85 76
247 859 307 96 84 75
244 859 308 92 81 73
245 859 308 93 82 74
246 859 308 93 82 74
246 859 309 92 81 74
247 859 308 95 83 75
247 859 309 94 83 75
244 860 308 92 81 73
244 860 309 92 81 74
245 860 309 91 81 73
244 860 310 92 82 75
244 860 311 91 82 74
245 860 310 91 81 74
245 860 311 91 81 74
246 860 309 92 81 74
247 860 309 93 83 76
246 860 310 92 82 75
246 860 311 92 83 76
247 860 310 93 84 77
247 860 311 94 84 78
241 861 312 90 81 74
241 861 313 90 81 74
240 862 312 91 81 75
240 862 313 90 81 75
241 862 312 90 81 74
241 862 313 90 81 74
240 862 314 89 80 74
240 862 315 89 80 74
241 862 314 89 80 74
241 862 315 89 80 73
242 861 312 91 81 74
242 861 313 90 81 74
243 860 312 91 81 74
243 861 312 91 82 75
243 861 313 91 82 76
242 861 314 90 81 75
242 861 315 90 81 75
243 861 314 91 82 75
243 861 315 92 83 76
240 862 316 88 79 73
240 862 317 88 80 74
241 862 316 89 80 74
241 862 317 89 81 75
240 862 318 89 81 75
240 862 319 90 82 77
241 862 318 89 81 75
241 862 319 90 82 77
242 861 316 91 82 75
242 861 317 91 82 76
243 861 316 92 83 77
243 861 317 92 83 77
242 862 316 90 81 75
242 862 317 90 81 75
243 862 317 92 83 77
242 862 318 90 82 76
242 862 319 91 82 77
243 862 318 92 83 78
243 862 319 92 84 78
244 860 312 91 81 75
244 861 312 91 82 76
244 861 313 92 83 76
245 860 312 92 82 75
245 861 313 93 84 78
244 861 314 92 83 76
244 861 315 92 83 77
245 861 314 93 84 78
245 861 315 94 85 79
246 860 312 94 84 78
246 861 313 95 85 79
247 860 312 95 85 78
247 861 312 96 86 79
247 861 313 97 87 80
246 861 314 96 86 80
246 861 315 96 87 81
247 861 314 97 88 81
247 861 315 98 89 82
246 862 315 97 88 82
247 862 315 98 89 83
244 861 316 92 83 78
244 861 317 93 84 79
245 861 316 94 85 79
244 862 317 93 84 78
245 862 316 95 86 80
245 862 317 94 86 80
244 862 318 93 84 78
244 862 319 93 84 78
245 862 318 94 85 80
245 862 319 94 85 80
246 861 316 95 86 81
246 862 316 96 87 81
246 862 317 96 87 81
247 862 316 98 89 83
247 862 317 97 88 83
246 862 318 96 87 81
246 862 319 95 86 80
247 862 318 97 88 82
247 862 319 95 86 80
249 855 304 110 93 79
250 855 304 110 94 81
251 855 304 111 95 81
248 856 304 109 93 79
248 857 304 107 92 80
248 857 305 103 90 79
249 856 304 108 92 79
249 856 305 106 92 80
249 857 305 103 89 78
249 857 306 100 88 78
248 858 306 100 88 78
248 858 307 97 85 76
249 858 306 99 87 78
249 858 307 98 86 78
250 856 304 108 94 82
250 856 305 107 93 81
250 857 305 104 91 81
251 856 304 110 95 82
251 856 305 109 94 82
251 857 305 107 93 82
250 857 306 101 89 79
251 857 306 105 92 81
250 858 306 101 89 79
250 858 307 101 89 80
251 858 306 105 92 82
251 858 307 104 92 82
248 859 308 95 84 76
248 859 309 95 85 77
249 859 308 97 86 78
249 859 309 97 87 79
250 859 308 100 89 80
250 859 309 101 90 82
251 859 308 104 92 83
251 859 309 105 93 84
248 860 309 95 85 77
249 860 309 97 87 80
248 860 310 95 85 78
248 860 311 96 86 79
249 860 310 98 87 80
249 860 311 99 88 81
250 860 309 102 91 82
251 860 309 106 94 85
250 860 310 102 91 83
250 860 311 102 92 84
250 861 311 104 93 86
251 860 310 105 93 85
251 860 311 105 93 85
251 861 311 106 94 85
252 856 304 111 96 83
252 857 305 108 95 83
253 856 304 113 98 85
253 857 305 111 96 84
252 858 306 107 93 82
252 858 307 106 93 83
252 859 307 107 94 84
253 858 306 109 95 84
253 858 307 109 95 85
253 859 307 109 96 86
254 856 304 115 99 86
254 857 304 113 98 85
254 857 305 112 97 84
255 856 304 115 98 84
255 857 304 114 98 84
255 857 305 113 98 85
254 858 305 112 97 84
255 858 305 113 97 85
254 858 306 110 96 84
254 859 306 112 98 87
254 859 307 112 98 87
255 858 306 113 98 86
255 859 306 114 99 87
255 859 307 114 99 88
252 859 308 107 94 85
252 859 309 108 95 85
253 859 308 110 97 86
254 859 308 112 99 88
255 860 307 114 99 88
252 860 309 108 96 86
253 860 309 110 97 87
252 860 310 107 95 85
252 861 310 108 96 86
252 861 311 107 95 85
253 860 310 109 96 86
253 861 310 111 97 87
253 861 311 110 97 87
254 860 308 112 99 88
254 860 309 112 98 88
254 861 309 112 98 87
255 860 308 113 99 88
255 860 309 113 99 88
255 861 309 112 98 87
254 861 310 112 98 87
254 861 311 112 99 88
255 861 310 113 99 87
254 862 311 112 98 87
255 862 310 113 99 88
255 862 311 113 98 87
248 860 312 97 87 80
248 861 312 98 88 80
248 861 313 98 88 81
249 860 312 100 90 83
249 861 312 100 90 83
249 861 313 101 91 84
248 861 314 99 89 82
248 861 315 100 90 84
249 861 314 101 91 85
249 861 315 101 92 85
248 862 315 99 90 84
249 862 315 101 92 85
250 861 312 103 93 85
250 861 313 104 93 86
251 861 312 105 94 85
251 861 313 106 95 87
250 861 314 104 93 87
250 861 315 103 93 86
251 861 314 105 94 87
250 862 315 102 92 85
251 862 314 105 94 86
251 862 315 104 93 86
248 862 316 99 90 84
248 862 317 98 89 83
249 862 316 100 91 84
249 862 317 100 90 84
248 862 318 97 88 82
248 862 319 95 86 80
249 862 318 98 89 83
249 862 319 96 87 81
249 863 319 95 86 80
250 862 316 102 92 85
250 862 317 102 92 85
251 862 316 103 92 85
251 862 317 102 92 85
251 863 317 102 92 85
250 862 318 100 90 84
250 863 318 99 89 83
250 863 319 97 87 81
251 863 318 99 90 83
251 863 319 97 87 81
252 861 312 107 95 87
252 861 313 107 96 87
253 861 312 109 97 87
252 862 313 108 96 87
253 862 312 110 97 87
253 862 313 109 96 87
252 862 314 107 95 87
252 862 315 105 94 86
253 862 314 108 96 87
253 862 315 107 95 86
253 863 314 108 96 86
253 863 315 107 95 85
254 862 312 110 97 86
254 862 313 109 96 86
254 863 313 109 96 86
255 862 312 111 98 86
255 863 312 111 97 86
255 863 313 110 96 86
254 863 314 109 96 87
254 863 315 107 94 85
255 863 314 109 96 86
255 863 315 107 95 85
252 862 316 104 93 85
252 863 316 104 93 85
252 863 317 103 92 85
253 863 316 105 93 85
253 863 317 103 92 84
252 863 318 100 90 83
252 863 319 97 87 80
253 863 318 101 90 83
254 863 316 105 93 84
224 871 267 153 119 104
224 870 269 152 120 103
224 871 268 152 119 103
224 871 269 152 120 103
224 870 270 153 120 103
224 870 271 154 121 104
224 871 270 153 120 103
224 871 271 154 121 104
224 872 266 152 120 105
224 872 267 153 120 104
224 873 266 152 119 104
224 873 267 152 120 104
224 874 266 151 118 103
224 874 267 151 119 103
224 875 266 150 118 105
224 875 267 150 119 103
225 874 267 152 120 104
224 872 268 152 120 104
224 872 269 151 119 103
224 873 268 151 119 102
225 872 269 151 120 102
225 873 268 151 120 104
225 873 269 152 120 104
224 872 270 153 121 103
224 872 271 154 121 105
224 873 270 153 121 104
224 873 271 153 121 105
225 873 270 153 121 104
225 874 268 152 120 104
225 874 269 151 120 103
225 875 268 151 119 103
225 875 269 151 120 103
224 874 271 153 122 106
224 875 270 153 121 105
224 875 271 154 123 106
225 874 270 153 122 104
225 874 271 153 122 105
225 875 270 152 121 104
224 876 266 150 119 105
224 876 267 149 119 104
224 877 266 149 120 105
224 877 267 149 119 105
224 878 266 149 120 106
224 878 267 150 120 105
224 879 267 149 121 106
224 876 268 150 119 104
224 876 269 151 120 106
224 877 268 150 119 104
224 877 269 151 120 105
225 876 268 151 120 104
225 876 269 152 121 105
224 876 270 152 121 106
224 876 271 153 122 107
224 877 270 151 120 105
224 877 271 152 121 106
225 876 270 152 121 105
224 878 268 150 120 105
224 878 269 150 120 105
224 879 268 150 121 106
224 879 269 149 120 105
224 878 270 150 119 105
224 878 271 151 119 105
224 879 270 150 119 105
224 879 271 150 119 104
224 865 275 160 127 108
224 866 275 160 127 107
224 867 275 161 128 108
224 864 276 160 128 108
224 864 277 161 129 110
224 865 276 160 127 108
224 865 277 161 128 109
225 864 277 161 128 110
225 865 277 162 128 110
225 864 278 163 129 111
225 864 279 163 130 111
225 865 278 162 129 111
225 865 279 163 129 111
224 866 276 161 128 108
224 866 277 162 129 110
224 867 276 161 129 109
224 867 277 161 128 109
225 867 277 160 127 108
225 866 278 162 129 111
225 866 279 162 129 110
225 867 278 162 129 110
226 864 279 162 129 110
226 865 279 161 128 109
226 866 279 161 128 108
226 867 279 162 130 110
224 868 274 160 127 107
224 868 275 161 129 109
224 869 274 160 127 108
224 869 275 160 128 109
224 870 272 155 122 104
224 870 273 157 124 106
224 871 272 155 122 105
224 871 273 156 124 106
224 870 274 158 125 107
224 870 275 159 127 108
224 871 274 157 125 107
224 871 275 158 127 108
224 868 276 162 129 110
224 868 277 161 128 108
224 869 276 161 129 109
225 868 277 161 128 110
225 869 277 161 128 110
225 868 278 162 129 110
225 869 278 162 128 110
224 870 276 160 128 109
224 871 276 160 128 109
225 870 277 161 128 110
225 871 277 161 128 109
225 870 278 161 128 109
225 870 279 160 127 107
225 871 278 160 127 108
225 871 279 160 127 107
226 868 279 162 130 111
226 869 278 161 128 109
226 869 279 161 129 109
226 870 278 160 128 108
226 870 279 160 127 107
226 871 279 159 127 107
226 864 280 161 127 109
226 864 281 161 127 108
226 865 280 161 128 108
226 865 281 160 127 107
227 864 281 160 127 107
227 865 281 160 127 107
227 864 282 158 126 106
227 865 282 159 126 107
226 866 280 161 128 108
226 867 280 162 129 109
227 866 281 160 127 108
227 867 281 160 127 108
227 866 282 158 126 107
227 867 282 158 125 107
226 868 280 161 128 109
226 869 280 160 127 108
227 868 281 160 127 108
227 869 281 158 126 106
227 868 282 157 125 106
227 869 282 156 124 105
226 870 280 158 126 106
226 871 280 158 126 106
227 870 281 157 125 105
227 871 281 156 125 105
227 870 282 155 123 105
227 871 282 153 122 103
228 864 283 155 124 105
228 865 283 156 124 105
228 866 283 156 124 105
228 867 283 155 123 105
228 865 284 154 122 104
229 864 284 153 122 103
229 864 285 151 121 102
229 865 284 151 120 101
229 865 285 148 117 98
228 866 284 153 121 102
228 867 284 152 120 102
229 866 284 149 118 100
229 866 285 145 114 96
229 867 284 148 116 98
229 867 285 144 113 95
230 864 285 150 120 101
230 865 285 145 115 96
230 864 286 148 119 100
230 865 286 144 114 96
231 864 286 146 117 98
231 864 287 142 114 94
231 865 286 142 113 94
231 865 287 139 111 92
230 866 285 143 113 94
230 867 285 141 111 93
230 866 286 141 111 93
230 867 286 139 110 92
231 866 287 138 110 91
231 867 287 137 109 91
228 868 283 154 122 104
228 869 283 153 122 103
228 870 283 151 120 102
228 871 283 150 119 100
228 868 284 150 119 100
228 869 284 150 119 100
229 868 284 146 115 97
229 868 285 141 111 93
229 869 284 146 116 97
229 869 285 140 111 93
228 870 284 149 118 100
228 871 284 146 116 98
229 870 284 144 115 96
229 870 285 138 110 91
229 871 284 142 114 95
229 871 285 137 109 91
230 868 285 139 110 92
230 869 285 138 109 92
230 868 286 137 109 90
230 869 286 135 108 90
230 869 287 132 106 88
231 868 287 135 108 89
231 869 287 133 106 87
230 870 285 137 108 90
230 870 286 134 106 88
230 870 287 131 104 86
230 871 286 132 105 87
230 871 287 129 103 84
231 870 287 130 104 85
224 872 272 154 122 105
224 872 273 156 124 107
224 873 272 154 123 106
224 873 273 156 126 108
224 872 274 157 126 107
224 872 275 159 127 109
224 873 274 157 127 109
224 873 275 158 127 108
224 874 272 154 124 107
224 874 273 156 126 108
224 875 272 155 124 107
224 875 273 156 125 108
224 874 274 157 126 109
224 874 275 158 126 108
224 875 274 156 125 108
224 875 275 157 126 108
224 872 276 161 128 109
224 872 277 161 128 109
224 873 276 159 127 108
224 873 277 159 126 107
225 872 277 161 128 109
224 873 278 158 125 106
225 872 278 160 126 106
225 872 279 159 126 105
225 873 278 159 125 105
225 873 279 158 125 105
224 874 276 158 126 108
224 874 277 158 125 107
224 875 276 157 125 107
224 875 277 157 124 105
224 874 278 157 125 105
224 875 278 157 124 105
224 875 279 156 124 104
225 874 278 157 124 104
225 874 279 157 124 104
225 875 279 156 123 104
226 872 279 158 126 106
226 873 279 157 125 105
224 876 272 154 123 107
224 876 273 155 124 108
224 877 272 153 122 107
224 877 273 153 122 107
224 876 274 156 125 108
224 878 272 151 120 105
224 878 273 152 121 105
224 879 272 151 120 104
224 879 273 152 121 105
224 876 276 156 124 106
224 876 277 156 124 105
224 877 276 155 123 105
224 877 277 155 124 105
224 876 278 155 124 104
224 876 279 155 124 104
224 877 278 155 124 104
224 877 279 154 123 103
225 876 279 155 123 103
224 878 276 155 123 104
224 878 277 155 123 104
224 879 276 154 123 104
224 879 277 155 123 104
224 878 278 154 123 104
224 878 279 154 122 103
224 879 278 154 122 103
224 879 279 153 122 102
225 873 280 156 124 104
225 874 280 155 122 103
225 875 280 155 122 102
226 872 280 157 126 105
226 872 281 155 125 105
226 873 280 155 124 104
226 873 281 154 123 102
227 872 281 155 124 104
227 873 281 152 122 102
227 872 282 151 121 102
227 872 283 150 119 100
227 873 282 150 120 101
227 873 283 148 118 99
226 874 280 154 122 102
226 874 281 151 120 100
226 875 280 153 121 101
226 875 281 150 119 99
227 874 281 151 120 100
226 875 282 147 118 98
227 874 282 148 118 98
227 874 283 145 116 96
227 875 282 146 117 97
227 875 283 144 115 95
227 874 284 143 114 94
227 875 284 141 113 92
225 876 280 153 122 102
225 877 280 152 122 101
225 877 281 150 120 99
224 878 280 152 122 102
224 879 280 152 121 102
225 878 280 151 121 101
225 878 281 148 118 98
225 879 280 150 120 101
225 879 281 147 117 98
225 879 282 144 115 95
226 876 280 152 121 100
226 876 281 149 119 98
226 877 281 149 119 98
226 876 282 145 116 96
226 877 282 145 116 95
226 877 283 141 113 93
227 876 282 145 116 96
227 876 283 142 114 93
227 877 283 140 112 92
226 878 281 147 118 98
226 878 282 144 115 94
226 878 283 140 111 92
226 879 282 143 114 95
226 879 283 139 112 94
227 876 284 138 111 91
227 876 285 134 108 89
227 877 284 136 109 89
227 877 285 132 107 88
227 876 286 130 106 87
227 877 286 127 104 86
227 877 287 123 102 84
226 878 284 136 109 91
226 879 284 133 108 90
226 879 285 127 104 87
227 878 284 134 108 90
227 878 285 130 106 88
227 879 285 127 104 87
226 879 286 121 100 84
226 879 287 114 96 82
227 878 286 125 103 86
227 878 287 120 100 83
227 879 286 123 102 85
227 879 287 117 98 83
228 872 283 148 118 98
228 873 283 147 118 98
228 872 284 144 115 96
228 873 284 143 114 95
228 873 285 137 110 91
229 872 284 142 113 95
229 872 285 137 109 91
229 873 285 136 109 90
229 872 286 132 105 87
229 872 287 129 104 86
229 873 286 132 106 88
229 873 287 128 104 86
228 874 284 141 113 93
228 874 285 137 110 91
228 875 284 140 112 92
228 875 285 136 110 90
228 874 286 133 107 88
228 875 286 132 107 88
228 875 287 126 103 85
229 874 286 131 106 88
229 874 287 126 103 84
229 875 287 124 102 84
230 872 286 130 103 85
230 872 287 128 102 84
228 876 285 134 109 88
228 876 286 130 106 87
228 876 287 125 103 85
228 877 287 122 101 83
232 864 287 141 113 93
232 865 287 139 112 92
224 881 256 120 93 88
224 881 257 120 93 86
224 881 258 123 98 89
224 881 259 127 101 91
224 882 256 116 92 86
224 882 257 122 96 88
225 882 256 118 95 88
225 883 256 117 94 86
225 883 257 120 96 87
224 882 258 124 99 89
224 882 259 128 103 91
224 883 258 125 100 88
224 883 259 128 104 91
225 883 258 124 99 88
226 883 256 120 97 89
224 882 260 131 106 94
224 882 261 135 109 97
224 883 260 131 107 94
224 883 261 135 109 96
224 883 262 138 112 99
224 883 263 139 114 100
225 884 257 123 99 89
224 884 259 128 104 92
225 884 258 126 102 90
225 884 259 128 103 90
225 885 258 127 103 91
225 885 259 128 104 91
225 886 259 128 104 92
226 884 256 117 94 85
226 884 257 120 97 87
226 885 258 125 101 90
224 884 260 131 106 93
224 884 261 134 109 95
224 885 260 131 106 93
224 885 261 133 109 96
224 884 262 137 112 98
224 884 263 140 114 101
224 885 262 137 112 98
224 885 263 139 114 100
224 886 260 131 107 94
224 886 261 133 109 96
224 887 261 133 109 96
225 886 260 130 106 93
225 887 260 131 107 94
225 887 261 133 109 96
224 886 262 137 112 98
224 886 263 139 113 100
224 887 262 136 111 98
224 887 263 139 113 100
224 881 267 147 119 104
224 883 265 143 116 104
224 882 266 145 117 104
224 882 267 146 118 104
224 883 266 145 117 104
224 883 267 146 117 104
224 880 268 148 120 105
224 880 269 149 119 105
224 881 268 147 119 104
224 881 269 148 119 104
224 880 270 149 119 104
224 880 271 150 120 105
224 881 270 149 119 104
224 881 271 150 120 104
224 882 268 147 118 104
224 882 269 147 119 105
224 883 268 147 118 105
224 883 269 147 119 105
224 882 270 148 119 104
224 882 271 149 120 104
224 883 270 148 119 104
224 883 271 149 119 104
224 884 264 141 115 102
224 884 265 143 116 103
224 885 264 141 116 102
224 885 265 142 116 103
224 884 266 144 117 104
224 884 267 146 118 105
224 885 266 143 117 103
224 885 267 145 118 104
224 886 264 140 114 101
224 886 265 141 115 101
224 887 264 140 114 100
224 887 265 141 115 101
224 886 266 142 116 101
224 886 267 144 117 102
224 887 266 141 115 100
224 887 267 141 114 100
224 884 268 146 119 105
224 884 269 146 118 103
224 885 268 146 118 104
224 885 269 145 117 102
224 884 270 146 118 103
224 884 271 147 118 102
224 885 270 145 117 102
224 885 271 146 117 102
224 886 268 144 117 102
224 886 269 143 116 102
224 887 268 142 115 101
224 887 269 142 115 101
224 886 270 144 116 101
224 886 271 145 117 102
224 887 270 142 115 101
224 887 271 144 117 102
224 888 261 135 111 98
224 888 262 136 112 99
224 888 263 138 113 101
224 889 263 138 113 100
224 888 264 139 114 100
224 888 265 140 114 100
224 889 264 138 113 99
224 889 265 139 114 100
224 888 266 140 114 100
224 888 267 141 114 100
224 889 266 139 113 99
224 889 267 139 113 100
224 890 264 137 112 98
224 890 265 138 113 99
224 890 266 137 112 99
224 890 267 137 112 99
224 891 266 136 111 98
224 891 267 135 110 98
224 888 268 140 114 100
224 888 269 141 115 101
224 889 268 139 114 100
224 889 269 139 114 100
224 888 270 141 115 100
224 888 271 141 115 100
224 889 270 139 114 100
224 889 271 141 115 100
224 890 268 137 112 99
224 890 269 136 112 99
224 891 268 135 110 97
224 891 269 135 110 97
224 890 270 137 112 98
224 890 271 139 114 100
224 891 270 136 111 98
224 891 271 138 113 99
224 892 267 134 109 96
224 892 268 133 109 96
224 892 269 134 110 97
224 893 269 132 108 95
224 892 270 135 111 97
224 892 271 136 111 98
224 893 270 133 109 96
224 893 271 135 110 97
224 894 270 132 109 96
224 894 271 133 109 95
224 895 271 132 108 95
224 880 272 151 120 105
224 880 273 151 121 104
224 881 272 150 119 104
224 881 273 151 120 104
224 880 274 152 122 104
224 880 275 153 122 104
224 881 274 152 121 104
224 881 275 153 122 104
224 882 272 150 120 104
224 882 273 151 121 104
224 883 272 149 119 103
224 883 273 150 120 104
224 882 274 151 121 103
224 882 275 152 121 103
224 883 274 151 121 104
224 883 275 151 121 103
224 880 276 154 122 104
224 880 277 154 122 103
224 881 276 153 122 104
224 881 277 153 122 103
224 880 278 153 122 102
224 880 279 152 121 102
224 881 278 152 121 102
224 881 279 151 120 101
224 882 276 153 121 103
224 882 277 153 121 103
224 883 276 152 121 103
224 883 277 152 121 103
224 882 278 152 121 102
224 882 279 150 120 102
224 883 278 151 120 103
224 883 279 149 119 101
224 884 272 147 118 102
224 884 273 150 120 104
224 885 272 147 118 103
224 885 273 148 119 102
224 884 274 150 120 104
224 884 275 150 120 103
224 885 274 149 120 103
224 885 275 150 120 103
224 886 272 146 117 102
224 886 273 147 118 102
224 887 272 144 116 101
224 887 273 145 116 101
224 886 274 148 119 103
224 886 275 149 119 102
224 887 274 146 117 101
224 887 275 147 118 102
224 884 276 151 120 103
224 884 277 151 120 103
224 885 276 150 120 103
224 885 277 150 119 102
224 884 278 150 119 102
224 884 279 148 118 101
224 885 278 148 118 102
224 885 279 146 117 100
224 886 276 149 119 102
224 886 277 149 119 102
224 887 276 148 119 103
224 887 277 148 119 102
224 886 278 147 118 101
224 886 279 144 116 99
224 887 278 145 117 100
224 887 279 140 113 97
224 880 280 150 119 101
224 881 280 148 118 99
224 881 281 145 115 98
225 880 280 149 119 101
225 880 281 146 117 99
225 881 281 144 115 98
225 880 282 142 114 96
225 880 283 136 110 92
225 881 282 140 113 96
225 881 283 134 109 91
224 882 280 147 117 99
224 882 281 142 113 96
224 883 280 145 115 98
224 883 281 139 111 95
224 883 282 133 108 92
224 883 283 125 102 87
225 882 282 137 110 93
225 882 283 130 106 90
225 883 283 127 104 88
226 880 283 137 110 93
225 881 284 127 104 87
225 881 285 118 98 83
225 881 286 112 94 80
225 881 287 107 91 79
224 883 284 115 96 82
224 883 285 107 90 77
225 882 284 122 101 86
225 882 285 113 95 81
225 883 284 118 98 84
225 883 285 110 92 79
224 882 287 96 84 74
224 883 286 100 86 74
224 883 287 96 83 73
225 882 286 107 91 78
225 882 287 102 87 76
225 883 286 104 88 76
226 880 284 130 106 89
226 880 285 123 101 85
226 881 285 118 98 82
226 880 286 117 98 82
226 880 287 112 95 80
226 881 286 115 96 82
224 884 280 143 114 97
224 884 281 136 109 93
224 885 280 140 112 96
224 885 281 131 105 90
224 884 282 128 104 89
224 884 283 119 98 84
224 885 282 121 100 86
224 885 283 114 95 82
224 886 280 138 111 95
224 886 281 128 104 89
224 887 280 134 108 93
224 887 281 125 102 87
224 886 282 118 97 84
224 886 283 110 92 80
224 887 282 116 96 83
224 887 283 110 92 80
224 884 284 110 92 80
224 884 285 102 87 75
224 885 284 104 89 77
224 885 285 99 85 74
224 884 286 97 84 73
224 884 287 93 82 72
224 885 286 96 83 73
224 886 284 103 88 77
224 888 272 143 116 101
224 888 273 144 116 101
224 889 272 142 116 101
224 889 273 144 116 101
224 888 274 146 117 102
224 888 275 147 118 103
224 889 274 146 118 103
224 889 275 146 117 102
224 890 272 141 115 100
224 890 273 143 116 102
224 891 272 140 114 100
224 891 273 142 115 101
224 890 274 145 117 102
224 888 276 148 119 103
224 888 277 147 118 102
224 889 276 146 118 102
224 888 278 143 115 99
224 892 272 139 113 99
224 892 273 140 113 99
224 893 272 137 111 98
224 893 273 138 112 99
224 894 272 135 110 97
224 895 272 134 110 97
224 888 280 130 106 91
231 867 288 135 108 89
231 868 288 133 107 88
231 869 288 130 105 86
231 869 289 127 102 84
230 871 288 126 102 83
231 870 288 128 103 84
231 870 289 125 102 83
231 871 288 126 102 83
231 871 289 124 102 83
231 870 290 123 102 83
231 871 290 121 100 81
231 871 291 118 98 81
231 871 292 114 96 81
231 871 297 104 90 79
231 871 298 103 90 79
231 871 299 102 89 79
230 871 301 101 90 82
231 870 300 103 91 81
231 870 301 102 91 82
231 871 300 102 90 81
231 871 301 102 90 81
230 871 302 101 90 82
230 871 303 100 90 82
231 870 302 102 91 83
231 870 303 101 90 82
231 871 302 101 90 82
231 871 303 101 90 82
225 879 291 97 85 76
227 877 288 117 99 82
227 877 289 113 96 81
227 877 290 111 95 81
227 877 291 108 93 81
226 879 288 109 93 80
226 879 289 105 91 79
227 878 288 115 97 82
227 878 289 111 95 82
227 879 288 112 95 80
227 879 289 109 93 80
226 879 290 103 90 78
226 879 291 101 88 78
227 878 290 108 93 81
227 878 291 105 91 80
227 879 290 106 92 80
225 879 292 97 85 76
225 879 293 97 85 77
224 879 294 96 85 77
224 879 295 95 85 77
225 878 294 98 87 79
225 878 295 97 86 79
225 879 294 97 86 78
225 879 295 96 86 78
227 877 292 106 92 81
227 877 293 103 91 81
226 877 294 99 88 80
226 877 295 99 88 80
227 876 294 103 91 82
227 876 295 102 90 82
227 877 294 102 90 81
227 877 295 100 89 81
226 878 292 100 88 78
226 878 293 99 88 78
226 879 292 99 87 78
226 879 293 98 87 78
227 878 292 103 89 79
227 878 293 101 89 79
226 878 294 99 87 79
226 878 295 98 87 80
229 873 288 125 102 84
228 875 288 121 100 83
228 875 289 117 99 82
229 874 288 123 101 83
229 874 289 119 100 82
229 875 288 121 100 83
229 875 289 118 99 82
228 875 290 115 97 82
229 874 290 117 97 80
229 874 291 114 97 81
229 875 290 115 97 81
229 875 291 112 96 82
230 872 288 125 101 83
230 872 289 122 100 82
230 873 288 124 101 83
230 873 289 121 100 81
231 872 289 122 101 83
230 872 290 120 99 82
230 872 291 118 99 82
230 873 290 118 99 82
