ply
format ascii 1.0
comment PCL generated
element vertex 2040
property float x
property float y
property float z
property uchar red
property uchar green
property uchar blue
element camera 0
property float view_px
property float view_py
property float view_pz
property float x_axisx
property float x_axisy
property float x_axisz
property float y_axisx
property float y_axisy
property float y_axisz
property float z_axisx
property float z_axisy
property float z_axisz
property float focal
property float scalex
property float scaley
property float centerx
property float centery
property int viewportx
property int viewporty
property float k1
property float k2
end_header
298 571 217 167 131 118
298 570 218 167 131 117
298 570 219 173 136 122
298 571 218 170 133 120
298 571 219 172 135 121
299 570 219 177 138 124
299 571 219 176 137 124
297 568 220 172 136 121
298 568 220 174 137 122
298 568 221 178 139 125
298 569 220 177 138 124
299 568 221 182 141 127
299 569 220 181 141 127
299 569 221 183 142 128
299 568 222 184 142 129
299 570 220 180 139 126
297 572 216 161 127 112
297 573 216 162 127 112
298 572 216 165 130 115
298 572 217 167 133 117
298 573 216 165 130 115
298 573 217 168 132 117
299 573 217 171 133 120
298 572 218 171 134 121
299 572 218 173 134 122
299 572 219 175 134 123
299 573 218 173 133 122
298 574 216 165 130 116
298 575 216 167 132 117
299 574 216 170 134 119
299 574 217 172 134 121
299 575 216 172 134 121
300 571 219 180 138 125
301 571 219 183 140 126
300 569 221 186 144 130
301 569 221 189 146 131
300 568 222 188 144 130
300 569 222 188 145 130
301 568 222 192 147 133
301 569 222 191 147 133
300 570 220 183 141 127
300 570 221 186 143 129
300 571 220 182 139 125
301 570 220 186 143 128
301 570 221 188 145 130
301 571 220 185 142 127
302 569 221 190 145 132
303 569 221 190 143 130
302 568 222 193 146 133
302 569 222 192 146 133
303 568 222 194 146 133
303 569 222 192 144 131
302 570 220 187 143 130
302 570 221 188 145 132
302 571 220 187 143 130
303 570 220 187 142 128
303 570 221 187 142 129
303 571 220 186 141 128
300 573 217 174 133 122
300 572 218 176 134 123
300 572 219 178 135 123
300 573 218 176 134 123
301 572 219 181 139 125
301 573 218 180 138 124
300 574 217 175 134 121
300 575 216 175 136 122
300 575 217 176 136 122
301 574 217 179 137 124
301 575 217 179 137 124
301 574 218 179 138 125
302 572 219 186 143 130
302 573 218 185 142 129
302 573 219 185 142 129
303 572 219 184 141 128
303 573 218 185 142 129
303 573 219 184 142 129
302 574 217 185 142 128
302 575 217 184 142 128
303 574 217 185 143 129
303 575 217 185 142 129
302 574 218 184 142 128
303 574 218 185 142 129
304 544 207 87 80 78
304 545 207 86 80 79
305 544 207 84 78 76
305 545 207 82 76 75
304 546 207 83 78 77
304 547 207 82 77 75
305 546 207 80 75 74
305 547 206 79 75 74
305 547 207 79 75 74
306 544 207 81 76 74
306 545 206 78 73 72
306 545 207 79 74 72
307 544 206 75 72 71
307 544 207 79 75 73
307 545 206 74 70 69
306 546 206 78 73 72
306 547 206 77 73 73
307 546 206 75 71 70
307 547 206 76 73 72
304 548 206 82 77 76
304 548 207 81 76 75
304 549 206 83 79 78
304 549 207 83 78 77
305 548 206 80 76 75
305 549 206 81 77 77
304 550 205 81 77 76
304 551 204 82 79 78
304 551 205 83 80 79
305 550 205 80 76 76
305 551 204 81 78 78
305 551 205 82 78 78
304 550 206 83 79 77
304 551 206 84 79 78
306 549 205 79 76 76
307 549 205 79 77 77
306 548 206 77 74 74
306 549 206 80 76 76
307 548 206 77 74 75
306 550 205 80 77 76
306 551 204 81 78 78
307 550 205 81 78 78
307 551 204 81 79 79
307 551 205 81 79 79
308 544 206 72 70 70
308 545 206 72 70 70
309 544 206 70 68 69
309 545 206 73 71 72
308 546 206 73 71 71
308 547 206 75 73 73
309 546 206 73 71 72
309 547 206 76 74 74
310 544 206 72 70 71
310 545 206 74 72 73
311 544 206 74 72 72
311 545 206 75 73 74
310 546 206 73 72 73
310 547 206 76 74 74
311 546 206 75 73 73
311 547 206 75 73 74
308 549 205 79 77 77
309 549 205 81 78 79
308 548 206 77 74 75
309 548 206 78 75 75
309 549 206 80 77 78
308 550 205 81 78 79
308 551 204 81 79 79
308 551 205 81 79 79
309 550 205 81 79 79
309 551 204 82 80 81
309 551 205 82 80 80
310 549 205 80 78 79
311 548 205 78 76 77
311 549 205 79 77 78
310 548 206 78 76 76
311 548 206 76 75 75
310 550 205 81 79 80
310 551 204 81 80 81
310 551 205 82 80 81
311 550 205 79 78 79
311 551 204 79 78 80
311 551 205 80 79 80
304 558 195 82 81 84
305 558 195 80 80 83
306 558 195 80 79 82
307 558 195 79 78 81
304 557 196 81 81 84
304 557 197 82 81 84
305 557 196 80 80 82
305 557 197 82 81 83
304 556 198 80 79 82
304 556 199 82 80 82
304 557 198 82 81 83
304 557 199 83 81 83
305 556 198 81 80 82
305 556 199 81 80 81
305 557 198 82 80 83
304 558 196 82 82 85
304 558 197 82 82 85
305 558 196 80 80 83
306 557 196 79 78 80
306 557 197 81 79 81
307 557 196 79 79 81
307 557 197 80 79 81
306 556 198 82 80 82
306 556 199 83 80 81
306 557 198 81 79 81
307 556 198 82 80 81
307 556 199 81 79 80
307 557 198 81 80 81
307 558 196 79 78 81
308 558 195 79 79 82
309 558 194 79 79 82
309 558 195 80 80 83
310 558 195 79 79 82
310 559 195 79 79 82
311 558 195 80 80 83
311 559 194 82 82 84
311 559 195 81 81 84
308 557 197 79 79 82
309 557 197 78 78 82
308 556 199 81 79 81
308 557 198 80 79 82
308 557 199 81 80 82
309 556 199 81 80 83
309 557 198 79 79 83
309 557 199 80 80 83
308 558 196 79 79 82
308 558 197 79 79 82
309 558 196 79 80 83
309 558 197 79 80 83
310 557 198 82 82 85
310 557 199 82 82 84
311 557 198 81 81 84
311 557 199 81 81 84
310 558 196 79 79 82
310 558 197 81 81 84
311 558 196 81 81 84
311 558 197 81 81 84
311 558 198 80 80 83
304 553 203 81 78 78
305 552 203 82 79 79
305 553 203 82 79 80
304 554 201 82 80 81
304 555 200 82 80 81
304 555 201 82 80 81
305 554 201 83 80 81
305 555 200 82 79 80
305 555 201 82 80 80
304 554 202 82 79 80
304 554 203 81 78 79
304 555 202 80 78 80
305 554 202 81 79 79
306 552 203 82 79 79
306 553 202 82 79 79
306 553 203 83 80 80
307 552 203 82 79 80
307 553 203 82 79 80
306 554 201 82 80 80
306 555 200 82 79 79
306 555 201 83 80 80
307 554 201 82 79 79
307 555 200 83 80 79
307 555 201 82 79 79
306 554 202 81 79 79
307 554 202 81 79 79
304 552 204 82 79 79
304 552 205 84 80 80
304 553 204 81 78 79
305 552 204 81 78 78
306 552 204 81 78 78
307 552 204 82 79 80
304 556 200 83 80 82
307 556 200 81 79 80
308 553 203 82 80 80
309 553 203 82 80 80
308 555 201 82 79 80
309 555 201 80 79 81
308 554 202 82 80 80
308 555 202 82 80 81
309 554 202 81 79 80
309 554 203 82 80 81
310 553 203 82 80 82
311 553 203 80 80 82
310 555 201 81 80 82
311 555 201 81 81 83
310 554 202 81 80 82
310 554 203 82 81 83
310 555 202 81 80 82
311 554 202 81 81 83
311 554 203 82 81 83
308 552 204 82 79 80
309 552 204 82 80 80
310 552 204 81 80 81
310 553 204 81 80 82
311 552 204 80 79 81
311 553 204 80 80 82
308 556 200 80 78 80
309 556 200 80 80 82
309 556 201 79 78 81
310 556 200 81 80 83
310 556 201 81 80 83
311 556 200 82 82 84
311 556 201 81 81 83
312 544 206 77 74 74
312 544 207 78 75 75
312 545 206 76 74 74
313 544 206 78 75 74
313 544 207 79 76 75
313 545 206 78 75 74
312 546 206 76 73 73
312 547 206 77 74 75
313 546 206 77 74 74
313 547 206 77 75 75
314 544 207 82 78 77
314 545 206 79 75 75
314 545 207 80 76 76
315 544 207 83 79 77
315 545 207 82 78 76
314 546 206 78 75 75
314 546 207 80 77 76
314 547 206 78 75 75
315 546 207 79 76 76
315 547 206 78 76 77
315 547 207 79 77 77
312 548 205 77 75 76
312 549 205 78 76 77
313 548 205 77 75 76
313 549 205 78 76 77
312 548 206 76 74 75
313 548 206 77 74 75
312 550 205 78 77 78
312 551 204 80 78 80
312 551 205 79 78 79
313 550 205 78 77 78
313 551 204 80 78 80
313 551 205 79 78 79
314 548 205 77 75 76
314 549 205 78 76 77
315 549 205 77 76 77
314 548 206 77 75 75
315 548 206 77 75 77
315 549 206 77 76 77
314 550 205 78 77 78
314 551 204 79 78 79
314 551 205 79 78 79
315 550 205 78 77 78
315 551 204 79 78 80
315 551 205 78 78 79
316 546 207 79 75 74
316 547 207 79 76 76
317 547 207 77 74 73
316 548 206 77 76 77
316 548 207 77 75 76
316 549 206 76 75 77
317 548 207 78 75 75
317 549 206 78 76 77
317 549 207 79 76 76
316 550 205 78 77 78
316 551 205 79 78 79
317 551 205 81 78 78
316 550 206 77 76 78
317 550 206 80 77 77
317 551 206 81 78 77
318 548 207 80 77 77
318 549 207 82 78 77
318 550 206 82 78 77
318 550 207 86 80 78
318 551 206 84 80 77
318 551 207 88 83 79
319 551 207 98 89 83
312 559 194 83 83 86
312 559 195 83 83 86
313 559 194 83 83 86
313 559 195 82 82 85
314 559 194 84 84 86
314 559 195 83 83 85
315 559 194 85 84 85
315 559 195 84 83 84
312 556 199 81 81 84
312 557 198 82 82 85
312 557 199 81 82 84
313 556 199 81 80 83
313 557 198 83 83 85
313 557 199 82 81 84
312 558 196 82 82 85
312 558 197 82 82 85
313 558 196 82 82 84
313 558 197 81 82 85
312 558 198 82 82 85
313 558 198 82 82 85
314 556 199 80 80 82
314 557 198 82 82 84
314 557 199 82 82 84
315 557 198 81 80 83
315 557 199 82 81 83
314 558 196 83 82 85
314 558 197 82 82 84
314 559 196 83 83 85
315 558 197 82 81 82
315 559 196 83 82 84
314 558 198 81 82 85
315 558 198 80 80 82
316 559 195 82 80 81
316 557 199 80 79 80
317 557 199 81 78 79
316 558 197 81 80 81
316 559 196 82 80 81
316 559 197 81 79 80
317 559 196 81 77 76
317 559 197 81 77 76
316 558 198 81 79 80
317 558 198 83 79 77
317 558 199 82 79 79
317 559 198 82 78 76
318 558 199 86 80 78
318 559 198 85 80 77
318 559 199 88 82 78
319 559 199 90 83 79
312 553 203 80 80 82
313 553 202 81 81 82
313 553 203 81 80 82
312 554 201 81 81 83
312 555 201 82 82 84
313 554 201 81 80 82
313 555 201 82 82 84
312 554 202 81 80 82
313 554 202 81 80 82
314 553 202 81 80 82
314 553 203 81 80 81
315 553 203 81 79 80
314 554 201 82 81 83
314 555 201 82 81 83
315 555 200 83 82 83
315 555 201 82 81 82
314 554 202 82 81 82
315 554 202 83 81 82
315 555 202 82 81 82
312 552 204 81 80 82
313 552 204 80 79 81
314 552 204 80 79 80
315 552 204 79 78 80
312 556 200 82 82 85
313 556 200 82 82 84
314 556 200 81 81 83
315 556 200 81 80 82
316 553 203 80 79 80
316 555 201 82 80 81
317 555 201 81 79 80
316 554 202 82 80 81
316 554 203 82 80 81
316 555 202 82 80 81
317 554 203 81 80 81
317 555 202 81 79 80
317 555 203 81 79 80
318 555 202 83 80 80
318 555 203 86 80 79
316 552 204 79 77 79
316 553 204 79 78 79
317 552 204 80 78 78
317 552 205 81 78 78
317 553 204 81 79 78
317 554 204 82 79 79
318 552 205 84 79 77
318 553 205 88 81 77
319 553 205 96 86 78
318 552 206 89 82 78
319 552 206 96 87 82
319 552 207 105 94 86
319 553 206 102 90 81
319 553 207 110 96 85
318 554 204 86 80 78
318 554 205 92 85 80
318 555 204 90 83 79
319 554 205 100 89 81
319 555 204 98 89 83
319 555 205 106 95 86
319 554 206 109 96 85
316 556 200 81 79 81
316 556 201 82 81 81
316 557 200 81 79 80
317 556 200 81 79 79
317 556 201 82 79 79
317 557 200 83 80 79
317 558 200 84 80 78
318 556 201 84 80 80
318 557 201 86 82 81
318 556 202 86 82 81
318 556 203 92 85 82
318 557 202 90 84 81
319 556 203 96 87 82
319 557 202 94 85 81
319 557 203 101 91 84
318 558 200 88 82 79
318 558 201 89 83 80
318 559 200 90 83 80
319 558 201 95 87 82
319 559 200 95 87 82
319 559 201 101 91 84
319 558 202 101 90 83
319 558 203 105 93 85
319 559 202 107 94 85
319 556 204 104 93 85
319 556 205 110 97 87
319 557 204 107 95 86
304 544 208 89 83 80
304 545 208 87 82 80
304 546 208 85 79 78
314 544 208 83 78 76
315 544 208 84 79 77
316 544 208 83 78 76
316 544 209 86 80 77
316 545 208 81 77 75
317 544 209 88 82 78
317 545 208 84 79 76
317 545 209 88 82 78
317 544 210 94 85 80
317 544 211 99 88 80
316 546 208 80 76 75
317 546 208 82 77 76
317 546 209 86 81 79
317 547 208 79 76 76
318 545 209 92 85 80
318 544 210 97 88 81
318 544 211 103 91 82
318 545 210 98 88 82
318 545 211 104 92 83
319 545 211 108 94 84
318 546 209 93 86 81
318 547 208 82 78 77
318 547 209 92 85 80
319 547 209 100 90 83
318 546 210 97 88 82
319 546 210 104 93 85
319 546 211 112 98 86
319 547 210 107 94 85
319 547 211 117 101 88
318 544 212 111 97 86
318 544 213 118 103 90
319 544 212 116 101 88
319 544 213 123 106 92
319 545 212 118 102 89
319 545 213 129 111 95
319 544 214 132 113 96
319 544 215 137 117 100
319 545 214 137 117 99
319 545 215 138 118 100
319 546 212 122 105 92
319 546 213 132 112 96
319 547 212 124 106 92
319 546 214 136 116 97
318 548 208 84 80 78
318 548 209 89 82 78
318 549 208 88 82 78
319 548 209 99 89 82
319 549 208 93 84 79
319 549 209 106 93 84
319 548 210 112 97 86
319 548 211 117 101 87
319 550 208 97 87 80
319 550 209 106 94 85
319 551 208 106 94 85
319 544 216 139 118 101
319 544 217 139 118 100
319 545 216 139 118 101
319 545 217 139 117 100
319 544 218 138 117 99
319 544 219 138 114 96
319 545 218 138 116 97
319 545 219 138 114 95
319 546 217 139 117 100
319 546 218 138 114 97
319 546 219 138 113 94
319 547 218 138 113 96
319 547 219 138 112 94
319 544 220 138 112 94
319 544 221 138 111 93
319 545 220 139 112 93
319 545 221 139 113 92
319 544 222 139 111 92
319 544 223 141 109 93
319 545 222 141 113 92
319 545 223 143 112 93
319 546 220 139 112 91
319 546 221 140 113 91
319 547 220 139 112 93
319 547 221 141 113 93
318 546 223 146 113 92
318 547 223 146 113 92
319 546 222 142 114 91
319 546 223 144 113 92
319 547 222 142 114 93
319 547 223 143 114 92
319 548 219 138 111 92
319 549 219 140 112 93
319 550 219 141 113 93
319 551 219 142 111 91
317 551 223 150 113 96
319 548 220 139 112 93
319 548 221 141 113 93
319 549 220 140 112 92
319 549 221 142 112 92
318 548 223 146 113 93
318 549 222 144 112 93
318 549 223 146 112 93
319 548 222 142 112 92
319 548 223 143 113 92
319 549 222 143 113 93
319 550 220 142 113 94
319 550 221 143 112 93
319 551 220 143 111 92
319 551 221 145 112 93
318 550 222 146 113 95
318 550 223 148 112 94
318 551 222 147 112 94
318 551 223 149 113 96
319 550 222 145 113 94
319 551 222 146 113 95
315 559 223 155 117 99
319 552 218 141 112 91
319 552 219 143 112 92
319 553 218 142 111 91
319 553 219 144 112 93
319 554 218 142 111 92
319 554 219 144 112 93
319 555 218 145 114 95
319 555 219 146 113 95
317 552 223 151 114 97
317 553 223 151 113 95
317 554 223 152 113 96
317 555 223 152 113 96
318 553 221 147 111 92
319 552 220 144 111 92
319 552 221 147 112 95
319 553 220 146 112 93
319 553 221 147 111 93
318 552 222 148 112 95
318 552 223 150 112 95
318 553 222 149 113 95
318 553 223 150 112 95
318 554 221 149 112 94
318 555 221 150 113 94
319 554 220 147 112 94
319 554 221 148 112 94
319 555 220 150 115 97
319 555 221 149 112 94
318 554 222 149 112 94
318 554 223 151 113 95
318 555 222 150 113 94
318 555 223 151 112 95
319 556 217 146 113 92
319 557 217 147 114 94
319 556 218 148 115 95
319 556 219 150 116 96
319 557 218 150 115 97
319 557 219 151 116 97
319 558 216 150 115 98
319 558 217 152 117 98
319 559 216 153 117 101
319 559 217 157 120 103
318 558 219 157 118 102
318 559 219 161 119 106
319 558 218 153 117 99
319 558 219 154 117 99
319 559 218 158 120 103
319 559 219 159 120 105
316 557 223 155 114 99
317 556 223 152 113 97
317 557 222 154 116 97
317 557 223 154 116 99
317 558 221 155 116 98
317 559 221 155 115 99
316 558 223 155 116 98
316 559 222 155 116 98
316 559 223 154 116 98
317 558 222 155 117 98
317 558 223 155 117 99
317 559 222 154 116 97
318 556 220 153 117 97
318 556 221 153 116 96
318 557 220 154 117 98
318 557 221 155 117 97
319 556 220 152 117 97
319 557 220 153 117 98
318 556 222 153 115 95
318 557 222 154 115 95
318 558 220 156 116 99
318 558 221 155 116 98
318 559 220 159 117 103
318 559 221 156 115 99
314 560 194 87 85 87
315 560 194 84 83 85
316 560 194 83 82 83
316 560 195 82 80 81
316 561 194 83 81 82
317 560 195 81 78 77
317 561 194 82 78 77
317 561 195 81 76 75
317 562 194 81 77 75
318 561 195 82 77 74
318 562 194 82 77 74
318 562 195 83 78 75
319 562 195 84 78 75
319 563 194 86 79 75
319 563 195 87 79 74
317 560 196 81 77 75
317 560 197 82 77 75
318 560 197 84 78 75
318 561 196 84 78 75
318 561 197 86 80 76
318 560 198 88 81 78
318 561 198 88 81 77
319 560 198 92 84 80
319 560 199 94 86 81
319 561 198 92 83 78
319 561 199 100 90 82
318 562 196 85 79 75
319 562 196 88 80 75
319 562 197 90 82 76
319 563 196 92 82 75
319 563 197 97 86 78
319 562 198 98 87 79
319 562 199 105 93 83
319 563 198 102 89 79
319 564 195 91 82 77
319 565 195 94 84 78
319 564 196 96 85 76
319 560 200 100 90 84
319 560 201 105 93 85
319 561 200 105 93 83
319 575 199 140 115 98
319 569 205 143 116 101
319 568 207 143 114 99
319 569 206 144 115 101
319 569 207 145 115 100
319 570 205 144 116 100
319 571 204 142 114 100
319 571 205 145 116 101
319 570 206 146 117 102
319 570 207 148 117 102
319 571 206 148 118 102
319 571 207 150 119 104
319 573 201 141 114 99
319 572 203 142 113 98
319 573 202 142 114 99
319 573 203 144 115 100
319 574 200 140 113 98
319 574 201 142 115 100
319 575 200 141 114 98
319 575 201 143 114 100
319 574 202 144 115 101
319 574 203 147 116 101
319 575 202 146 116 102
319 575 203 149 117 103
317 574 207 148 114 99
317 575 206 151 117 101
317 575 207 149 115 99
318 573 205 150 118 104
319 572 204 145 115 101
319 572 205 148 117 103
319 573 204 148 117 103
319 573 205 149 118 104
318 572 207 151 118 103
318 573 206 150 117 102
318 573 207 149 116 100
319 572 206 148 117 102
319 572 207 150 118 103
319 573 206 149 118 103
318 574 205 153 121 107
318 575 204 150 118 104
318 575 205 153 121 106
319 574 204 150 118 105
319 574 205 150 119 106
319 575 204 149 117 103
318 574 206 150 117 103
318 574 207 148 114 99
318 575 206 152 119 105
304 566 223 198 149 135
304 567 223 197 149 135
305 566 223 196 146 132
305 567 223 196 146 132
306 566 223 194 143 129
306 567 222 193 143 130
306 567 223 194 144 131
307 566 223 190 139 126
307 567 222 189 138 125
307 567 223 190 139 126
308 566 223 188 137 123
308 567 222 188 138 124
308 567 223 187 137 122
309 566 223 186 137 121
309 567 222 186 137 121
311 565 223 183 135 117
311 567 221 178 131 114
310 566 223 185 137 121
310 567 222 184 137 121
311 566 222 181 133 116
311 566 223 183 136 118
311 567 222 180 133 117
308 575 215 176 131 114
309 575 215 173 131 112
310 575 215 170 128 112
311 574 215 166 124 111
311 575 214 164 123 109
311 575 215 167 125 112
305 571 219 185 140 127
306 571 219 185 139 126
307 571 219 185 138 124
304 569 221 191 144 131
305 569 221 191 143 131
304 568 222 195 148 134
304 569 222 194 146 133
305 568 222 195 146 133
305 569 222 194 145 133
304 570 220 186 140 127
304 570 221 188 142 129
304 571 220 185 140 127
305 570 220 187 139 127
305 570 221 188 141 128
305 571 220 186 140 127
306 569 221 190 140 128
307 569 221 188 137 125
306 568 222 192 142 129
307 568 222 189 138 126
306 570 220 187 139 126
306 571 220 187 140 127
307 570 220 187 139 127
307 571 220 186 138 125
304 572 219 184 141 127
304 573 218 183 140 127
304 573 219 183 140 127
305 572 219 185 140 127
305 573 218 183 139 126
304 574 217 182 139 127
304 575 217 181 139 125
305 574 217 181 137 124
305 575 216 179 135 121
305 575 217 180 136 123
304 574 218 183 140 127
305 574 218 182 139 126
307 573 217 181 136 120
306 572 219 184 138 124
306 573 218 182 137 123
307 572 218 183 136 121
307 572 219 184 137 123
307 573 218 181 135 120
306 574 217 180 136 122
306 575 216 180 136 120
306 575 217 179 135 120
307 574 216 179 134 117
307 574 217 180 136 119
307 575 216 179 134 118
308 571 219 184 137 122
309 570 219 181 133 119
309 571 219 182 135 120
311 569 219 172 128 115
310 570 219 179 132 118
310 571 218 175 130 116
310 571 219 178 132 117
311 570 219 173 128 115
311 571 218 170 126 113
311 571 219 174 129 116
308 568 221 186 136 122
308 569 220 186 137 125
308 569 221 186 135 123
309 568 221 184 134 120
309 569 220 185 136 123
309 569 221 185 135 122
308 568 222 187 137 123
309 568 222 185 136 122
308 570 220 186 137 124
309 570 220 184 135 122
310 568 221 182 134 120
310 569 220 181 132 118
310 569 221 183 134 121
311 568 221 178 131 115
311 569 220 175 129 114
311 569 221 179 131 116
310 568 222 184 136 121
310 570 220 179 131 117
308 573 217 180 133 118
309 573 217 178 131 116
308 572 218 182 136 120
308 572 219 182 135 120
308 573 218 181 134 118
309 572 218 181 135 120
309 573 218 181 133 119
308 574 216 178 132 116
308 574 217 180 133 118
308 575 216 177 131 114
309 574 216 176 130 113
309 575 216 174 130 112
310 573 216 173 130 111
310 573 217 174 129 112
311 572 217 169 127 111
311 573 216 168 127 110
311 573 217 170 128 110
310 572 218 176 131 117
311 572 218 172 128 114
310 574 216 171 128 110
311 574 216 168 126 109
319 560 215 153 118 102
319 561 215 156 121 106
319 562 213 157 125 106
319 563 213 158 125 107
319 562 214 158 125 108
319 562 215 159 124 108
319 563 214 160 126 110
319 563 215 161 125 109
319 565 211 154 122 104
319 566 209 148 116 101
319 567 208 146 116 102
319 567 209 149 117 103
319 566 210 152 120 104
319 566 211 154 121 104
319 567 210 153 120 106
319 567 211 157 124 108
317 566 215 161 122 106
317 567 214 159 120 104
317 567 215 159 118 102
319 564 212 155 121 104
319 564 213 157 123 107
319 565 212 156 123 106
319 565 213 157 122 106
318 564 215 163 126 111
318 565 214 160 123 108
318 565 215 162 125 110
319 564 214 160 125 110
319 564 215 162 127 111
319 565 214 159 123 108
318 566 212 160 124 109
318 566 213 160 123 108
318 567 212 159 123 108
318 567 213 160 123 107
319 566 212 157 123 107
319 566 213 159 123 108
319 567 212 156 122 106
318 566 214 160 122 106
318 566 215 161 123 108
318 567 214 159 121 104
313 563 223 168 124 108
314 561 223 156 117 101
315 560 223 155 116 99
315 561 223 155 116 100
315 562 221 156 115 101
315 563 221 157 115 99
314 562 223 160 118 104
314 563 222 161 119 103
314 563 223 163 120 105
315 562 222 155 115 100
315 562 223 156 115 100
315 563 222 158 116 101
315 565 219 157 116 100
315 567 217 158 120 105
314 566 219 159 117 100
314 567 219 160 119 101
315 566 218 157 117 101
315 566 219 158 118 101
315 567 218 158 118 101
315 567 219 158 118 102
312 564 223 176 130 113
312 565 223 178 131 114
313 564 223 171 127 111
313 565 222 171 126 108
313 565 223 174 127 111
312 567 221 173 128 109
313 566 221 170 127 108
313 567 220 165 122 103
313 567 221 169 125 106
312 566 222 177 130 114
312 566 223 180 132 115
312 567 222 177 130 113
313 566 222 173 128 110
314 565 221 163 119 102
315 564 220 157 114 97
315 564 221 159 117 99
315 565 220 158 115 99
315 565 221 160 117 100
314 564 222 163 120 103
314 564 223 166 122 106
314 565 222 166 123 104
314 566 220 160 117 100
314 566 221 165 122 104
314 567 220 162 119 102
315 566 220 159 116 100
317 561 219 160 117 105
317 563 217 158 120 101
316 563 219 157 115 100
317 562 218 160 119 103
317 562 219 159 117 103
317 563 218 158 119 102
317 563 219 158 117 100
318 561 217 160 121 104
319 560 216 155 119 103
319 560 217 159 121 104
319 561 216 158 121 105
319 561 217 160 121 104
318 560 218 160 119 104
318 560 219 161 119 106
318 561 218 161 120 105
318 561 219 161 118 105
319 560 218 159 120 104
318 562 216 161 123 105
318 562 217 162 123 107
318 563 216 161 123 106
318 563 217 159 120 103
319 562 216 160 123 106
318 562 218 161 120 105
316 561 221 156 116 101
317 560 220 159 117 104
317 560 221 156 116 100
317 561 220 158 117 103
317 561 221 157 116 102
316 560 222 154 115 97
316 560 223 154 116 99
316 561 222 155 116 100
317 560 222 154 116 97
316 562 220 157 114 100
316 562 221 156 115 101
316 563 220 157 114 100
316 563 221 156 114 98
317 562 220 159 117 104
316 562 222 156 117 102
318 560 220 160 117 105
317 564 216 161 123 105
317 564 217 160 122 104
317 565 216 162 123 107
317 565 217 160 120 105
316 564 218 155 115 97
316 564 219 156 114 98
316 565 218 157 116 102
316 565 219 155 115 99
317 564 218 157 118 100
317 565 218 158 117 104
316 566 216 159 120 105
316 566 217 159 119 105
316 567 216 159 120 105
316 567 217 158 120 104
317 566 216 161 122 106
317 566 217 160 121 106
317 567 216 160 119 104
316 566 218 158 118 103
316 566 219 157 118 102
318 564 216 162 124 107
318 565 216 162 124 107
316 564 220 156 113 97
314 571 215 156 119 104
315 570 215 156 119 104
315 571 214 157 120 104
315 571 215 156 118 103
315 574 211 154 117 100
315 575 210 156 120 104
315 575 211 157 120 103
312 573 215 163 120 110
313 573 214 159 121 104
313 573 215 159 119 104
313 575 213 158 120 105
312 574 214 160 120 106
312 574 215 162 121 109
312 575 214 161 121 107
313 574 214 159 121 104
313 575 214 158 120 105
314 573 213 157 119 104
315 572 213 157 119 103
315 573 212 156 119 105
315 573 213 157 119 104
314 572 214 157 120 105
314 572 215 157 120 106
314 573 214 158 121 104
314 573 215 157 119 103
315 572 214 157 120 103
314 574 212 156 119 104
314 574 213 157 120 104
314 575 212 156 119 102
314 575 213 157 121 105
315 574 212 155 117 101
315 575 212 154 116 97
314 574 214 157 120 103
317 570 211 157 122 107
317 571 210 155 121 105
317 571 211 156 120 105
318 569 209 154 121 107
319 568 208 146 116 101
319 568 209 150 118 105
319 569 208 148 117 102
319 569 209 150 118 104
318 568 211 158 124 109
318 569 210 156 122 107
318 569 211 158 124 109
319 568 210 155 121 107
319 568 211 157 123 109
319 569 210 155 121 108
318 570 209 154 121 106
318 571 208 154 122 106
318 571 209 155 122 105
319 570 208 150 119 103
319 570 209 151 119 103
319 571 208 154 122 106
318 570 210 156 121 106
318 570 211 158 123 108
318 571 210 155 121 106
317 568 213 160 123 108
317 569 212 160 123 107
317 569 213 160 122 106
316 568 215 158 117 103
316 569 214 160 121 107
316 569 215 158 119 105
317 568 214 159 121 104
317 568 215 158 117 102
317 569 214 160 121 105
316 570 213 159 121 106
316 571 212 157 120 104
316 571 213 158 121 106
317 570 212 158 122 106
317 570 213 158 121 105
317 571 212 157 120 105
316 570 214 159 120 105
316 570 215 157 118 104
316 571 214 158 119 104
318 568 212 159 124 109
318 568 213 160 123 108
318 569 212 160 124 109
317 572 209 155 121 105
317 573 208 152 118 103
317 573 209 155 121 104
316 572 211 154 117 101
316 573 210 155 120 104
316 573 211 155 118 103
317 572 210 155 121 104
317 572 211 155 119 103
317 573 210 155 120 102
316 574 209 154 119 103
316 575 208 150 114 100
316 575 209 152 117 102
317 574 208 150 115 100
317 574 209 153 117 101
317 575 208 149 114 99
316 574 210 155 120 104
316 574 211 154 118 102
316 575 210 155 120 104
318 572 208 155 122 106
318 572 209 156 123 107
318 573 208 153 120 105
316 572 212 157 119 104
316 572 213 157 119 104
316 573 212 156 119 105
312 569 219 167 123 111
313 568 219 163 120 104
313 569 218 162 121 106
313 569 219 163 120 105
312 571 217 164 124 107
313 570 217 161 122 106
313 571 216 160 121 106
313 571 217 161 122 106
312 570 218 165 122 110
312 570 219 169 125 113
312 571 218 166 123 110
313 570 218 162 121 106
314 569 217 160 120 104
315 568 216 156 120 104
315 568 217 157 120 104
315 569 216 156 120 103
315 569 217 158 120 103
314 568 218 159 117 101
314 568 219 159 118 100
314 569 218 160 119 103
315 568 218 159 119 103
314 570 216 158 122 106
314 570 217 161 121 105
314 571 216 158 120 105
315 570 216 156 120 104
312 568 220 171 126 109
312 568 221 172 127 109
312 569 220 170 125 110
313 568 220 168 124 107
312 572 216 163 125 108
312 572 217 165 126 107
312 573 216 164 124 111
313 572 216 160 121 106
314 572 216 159 121 107
316 568 216 156 118 102
316 569 216 157 120 104
288 544 227 161 128 113
288 545 227 175 139 127
289 544 226 160 128 112
289 544 227 161 128 113
289 545 226 162 129 113
289 545 227 163 129 114
288 546 227 174 138 127
288 547 227 174 137 127
289 546 226 163 130 115
289 546 227 164 130 115
289 547 226 164 138 130
289 547 227 174 138 128
290 544 225 157 125 110
290 545 225 160 127 112
291 544 224 155 124 109
291 544 225 156 124 109
291 545 224 157 126 110
291 545 225 159 127 112
290 544 226 159 126 111
290 545 226 160 128 112
290 546 225 170 136 126
290 547 225 168 134 121
291 546 224 164 131 118
291 546 225 170 136 126
291 547 224 171 138 126
291 547 225 172 138 127
290 546 226 163 130 115
290 547 226 162 136 128
288 544 228 163 129 115
288 545 228 171 137 124
288 546 228 173 138 128
288 547 228 172 139 130
288 548 227 176 140 130
289 548 226 171 139 127
289 548 227 176 141 130
289 549 226 179 144 128
289 549 227 176 144 131
289 550 227 178 145 131
289 551 227 180 147 133
290 548 225 165 137 125
290 549 225 166 140 129
291 548 224 174 141 124
291 548 225 167 133 118
291 549 224 167 134 116
291 549 225 168 140 128
290 548 226 168 140 131
290 549 226 175 143 127
291 550 224 168 139 126
291 550 225 177 144 126
291 551 225 173 140 124
290 550 226 174 142 126
290 550 227 179 146 131
290 551 226 177 145 131
290 551 227 182 148 133
291 551 226 174 143 129
288 548 228 175 142 131
288 548 229 177 142 132
288 549 228 178 145 133
288 549 229 180 146 134
289 549 228 181 144 130
288 549 230 184 149 136
288 549 231 189 153 140
288 550 229 183 148 135
289 550 228 181 147 133
289 550 229 185 151 138
289 551 228 184 150 136
289 551 229 188 153 140
288 550 230 187 151 138
288 550 231 190 154 141
289 550 230 189 153 140
289 550 231 194 156 143
289 551 230 192 155 143
289 551 231 196 157 145
290 551 228 184 150 136
290 551 229 191 155 142
290 551 230 196 157 144
290 551 231 201 161 147
291 551 231 206 163 150
292 549 224 175 143 122
292 550 224 164 133 119
292 551 224 175 141 125
292 551 225 164 130 113
288 545 239 205 157 144
289 545 239 205 154 143
288 546 237 207 161 147
288 547 236 206 162 148
288 547 237 207 162 149
289 546 237 207 160 146
289 547 236 208 162 148
289 547 237 208 161 147
288 546 238 207 159 146
289 546 238 207 159 146
289 546 239 206 156 144
290 545 239 204 153 141
290 547 237 209 160 146
291 547 237 210 160 146
290 546 238 207 157 144
290 546 239 205 155 143
291 546 238 206 156 142
291 546 239 204 153 140
288 549 232 193 155 142
288 549 233 195 154 140
289 549 232 196 157 144
289 549 233 199 158 145
288 548 234 199 158 145
288 548 235 202 160 146
288 549 234 198 157 144
289 548 234 203 160 146
289 548 235 207 162 146
289 549 234 204 160 146
289 550 232 198 158 145
289 550 233 203 160 147
290 548 235 211 163 148
290 549 234 209 163 148
290 549 235 211 163 148
291 548 235 212 163 147
291 549 234 213 164 149
291 549 235 213 164 148
290 550 232 204 161 148
290 550 233 208 163 149
290 551 232 204 162 149
291 550 233 211 165 150
291 551 232 209 165 151
291 551 233 212 166 151
290 550 234 210 164 149
291 550 234 212 165 149
288 548 236 205 161 147
289 548 236 208 162 147
290 548 236 211 162 148
291 548 236 213 163 148
292 547 237 209 158 144
293 547 237 206 154 140
292 546 238 205 153 140
292 546 239 203 152 139
292 547 238 206 156 142
293 546 238 203 150 137
293 546 239 201 148 136
293 547 238 204 153 139
294 547 237 204 152 138
295 547 237 203 151 137
294 546 238 202 149 136
294 546 239 201 146 135
294 547 238 204 151 137
295 546 238 202 149 135
295 546 239 200 146 134
295 547 238 201 148 134
292 549 234 214 165 149
292 549 235 213 163 148
293 549 234 213 163 148
293 549 235 211 161 146
292 550 233 214 166 151
292 551 232 212 165 151
292 551 233 214 166 151
293 551 232 214 166 151
293 551 233 214 165 150
292 550 234 214 165 150
293 550 234 213 163 148
294 549 235 209 158 144
295 549 235 208 156 142
294 551 233 212 162 148
295 551 233 211 160 147
294 550 234 210 159 146
294 550 235 209 157 144
294 551 234 211 161 147
295 550 234 209 158 144
295 550 235 208 156 143
295 551 234 210 159 146
292 548 236 212 162 147
292 548 237 211 160 147
293 548 236 210 159 144
293 548 237 207 156 141
293 549 236 210 159 145
294 548 236 207 156 142
294 548 237 206 153 140
294 549 236 208 157 143
295 548 237 204 152 139
295 549 236 206 154 140
291 552 225 175 141 128
290 552 227 184 149 136
291 552 226 181 145 131
291 552 227 185 150 137
291 553 226 182 147 134
291 553 227 185 149 136
290 552 228 188 152 139
290 552 229 191 154 141
291 552 228 188 152 139
291 553 228 191 153 140
291 553 229 194 155 142
290 552 230 195 156 144
291 552 230 200 160 146
291 552 231 205 163 149
291 553 230 200 159 144
292 552 224 168 134 120
292 552 225 176 138 123
292 553 224 178 140 124
292 553 225 181 143 127
293 552 224 178 140 126
293 553 224 175 139 121
292 553 226 182 146 132
292 554 225 182 144 126
293 554 224 172 138 123
293 554 225 176 141 126
293 555 224 179 140 123
293 555 225 178 141 126
292 554 226 184 146 131
292 554 227 189 151 138
292 555 227 192 153 139
293 554 226 180 144 129
293 555 226 184 146 131
293 555 227 192 152 137
294 555 224 173 137 122
294 555 225 178 140 126
292 553 229 198 158 144
292 552 230 205 162 148
292 552 231 209 163 150
292 553 230 204 161 146
293 552 231 212 164 150
293 553 230 209 163 149
293 553 231 212 164 150
292 554 228 195 155 141
292 554 229 201 160 144
293 554 228 199 158 143
293 554 229 203 161 144
293 555 228 198 157 141
293 555 229 202 160 143
293 554 230 207 162 147
294 553 231 212 164 149
295 553 231 211 163 147
294 555 228 201 159 142
294 555 229 206 161 145
295 555 229 209 162 147
294 554 230 212 164 149
294 555 230 209 162 147
295 554 230 211 163 147
295 554 231 210 162 146
295 555 230 209 162 147
293 556 227 191 150 135
294 556 224 173 136 121
294 556 225 179 141 126
294 557 225 181 142 127
295 557 224 173 136 121
295 557 225 178 139 125
294 556 226 187 147 132
294 556 227 196 155 138
294 557 226 188 148 133
295 556 227 199 157 140
295 557 226 189 148 133
295 557 227 197 154 138
295 558 224 173 135 121
295 558 225 180 140 126
295 558 226 188 148 133
294 556 228 201 159 142
295 556 228 202 159 143
295 556 229 206 160 145
292 552 232 212 165 151
293 552 232 213 165 150
294 552 232 212 163 148
295 552 232 212 162 147
295 552 233 212 161 147
295 553 232 211 161 146
296 546 239 199 145 131
296 547 238 198 145 131
297 546 239 197 143 128
297 547 238 195 143 128
297 547 239 196 144 128
298 546 239 196 142 128
298 547 238 194 143 127
298 547 239 194 144 127
299 546 239 195 142 128
299 547 239 194 143 127
296 551 233 210 159 145
296 550 234 207 155 141
296 550 235 205 153 138
296 551 234 207 156 142
297 550 235 202 150 134
297 551 234 204 152 138
298 550 235 200 148 132
298 551 234 201 148 134
298 551 235 200 147 132
299 550 235 198 146 130
299 551 234 199 146 131
299 551 235 199 147 132
296 548 237 201 149 135
296 549 236 202 151 136
296 549 237 200 149 134
297 548 237 198 146 132
297 549 236 199 148 131
297 549 237 199 147 131
296 548 238 199 146 132
297 548 238 196 143 129
297 550 236 200 149 133
298 548 237 197 144 130
298 549 237 197 144 129
299 549 237 197 143 128
298 548 238 196 143 128
299 548 238 196 144 129
298 550 236 199 146 130
299 550 236 198 146 130
300 547 239 194 142 127
301 547 239 195 142 127
302 546 239 193 141 125
302 547 239 194 142 126
303 546 239 193 141 124
303 547 239 194 142 125
300 551 234 197 144 128
300 551 235 197 144 128
301 551 234 196 142 127
301 551 235 196 142 127
302 551 234 194 140 126
302 551 235 195 140 126
303 551 234 193 139 126
303 551 235 195 140 127
300 549 237 196 142 127
301 549 237 195 142 125
300 548 238 197 143 129
300 548 239 196 143 128
301 548 238 195 140 125
301 548 239 196 142 126
300 550 236 197 144 128
300 550 237 195 143 126
301 550 236 196 143 126
301 550 237 195 143 125
302 549 237 196 141 126
303 548 237 196 140 124
303 549 236 196 142 127
303 549 237 196 141 126
302 548 238 196 140 126
303 548 238 195 139 125
302 550 236 196 142 127
303 550 236 196 141 127
296 553 231 209 160 144
297 553 231 208 158 144
296 555 229 207 160 145
297 555 229 205 157 142
296 554 230 208 160 145
296 554 231 209 160 145
296 555 230 208 160 144
297 554 230 207 158 144
297 554 231 208 158 144
297 555 230 206 157 143
298 553 231 205 156 142
299 553 231 203 152 139
298 555 229 204 156 141
299 555 229 202 154 140
298 554 231 206 155 142
298 555 230 205 156 142
299 554 231 203 152 139
299 555 230 203 153 140
296 557 227 199 154 139
296 558 224 174 136 122
296 558 225 182 142 127
296 559 224 174 136 121
296 559 225 182 142 127
297 559 225 184 144 129
296 558 226 191 149 134
296 558 227 197 152 137
296 559 226 189 148 133
297 558 226 193 149 134
297 558 227 196 151 136
297 559 226 190 147 132
298 558 227 195 150 134
298 559 226 191 147 132
298 559 227 192 148 132
299 558 227 194 149 133
299 559 226 191 147 131
299 559 227 192 147 131
296 556 228 204 157 142
296 556 229 206 159 143
296 557 228 202 156 140
297 556 228 204 157 141
297 556 229 204 157 142
297 557 228 201 154 139
298 556 229 202 156 141
298 557 228 199 154 138
299 556 229 201 154 139
299 557 228 198 152 136
298 558 228 197 152 136
299 558 228 196 151 135
300 554 231 200 149 134
300 555 230 200 150 136
301 554 231 199 147 132
301 555 230 197 147 133
301 555 231 198 147 132
302 554 231 196 144 129
302 555 230 196 146 132
302 555 231 197 146 131
303 554 231 194 143 128
303 555 230 193 142 129
303 555 231 194 144 128
300 558 227 193 147 132
300 559 227 193 147 131
301 559 227 193 146 131
300 556 229 198 150 135
300 557 228 196 150 134
300 557 229 196 149 133
301 556 229 195 146 131
301 557 229 193 144 128
300 558 228 195 149 134
301 558 228 193 145 129
301 559 228 192 144 128
302 556 229 193 143 128
302 557 229 193 143 128
303 556 229 192 142 127
303 557 229 191 141 126
302 556 230 194 144 130
303 556 230 192 142 128
302 558 228 192 142 127
302 558 229 192 142 127
302 559 228 192 143 126
303 558 228 190 140 124
303 558 229 190 140 125
303 559 228 189 139 121
296 552 232 209 159 144
296 552 233 209 158 144
296 553 232 210 160 145
297 552 232 206 155 142
297 552 233 205 154 141
297 553 232 207 157 143
298 552 232 204 153 140
298 552 233 203 151 138
298 553 232 204 154 140
299 552 233 201 149 135
299 553 232 202 152 138
298 552 234 201 148 135
299 552 234 200 148 134
300 552 233 198 147 132
300 553 232 200 149 135
300 553 233 197 146 131
301 552 233 196 144 129
301 553 232 197 145 130
301 553 233 196 145 130
300 552 234 197 145 130
301 552 234 197 144 130
302 552 233 195 144 129
302 553 232 196 143 127
302 553 233 196 144 130
303 552 233 196 142 128
303 553 232 195 141 126
303 553 233 196 141 126
302 552 234 195 142 128
303 552 234 194 141 127
303 554 232 195 142 127
288 544 240 204 154 142
288 544 241 202 152 138
288 545 240 204 156 143
289 544 240 203 153 141
289 544 241 201 150 137
289 545 240 203 153 141
290 544 241 200 149 136
290 545 240 203 151 139
291 544 241 199 147 134
291 545 240 202 150 137
291 545 241 201 149 135
290 544 242 198 146 134
291 544 242 198 146 133
292 544 241 199 146 133
292 545 240 201 149 136
292 545 241 200 147 133
293 544 241 198 144 132
293 545 240 200 147 135
293 545 241 198 145 133
294 544 241 197 142 130
294 545 240 199 146 134
294 545 241 198 144 133
295 544 241 196 142 129
295 545 240 199 145 133
295 545 241 198 143 131
296 544 241 196 142 127
296 545 240 198 144 130
296 545 241 198 145 131
297 544 241 196 143 127
297 545 240 197 143 127
297 545 241 196 143 126
297 546 240 197 143 128
298 544 241 195 144 125
298 545 240 195 142 126
298 545 241 195 143 125
299 544 241 195 143 125
299 545 240 195 142 127
299 545 241 195 142 125
298 544 242 197 144 126
299 544 242 195 143 124
298 546 240 196 143 128
299 546 240 196 143 128
300 544 241 194 142 125
300 545 240 194 142 128
300 545 241 194 142 126
301 544 241 194 141 126
301 545 240 195 143 129
301 545 241 194 142 128
300 544 242 195 143 126
301 544 242 195 143 128
300 546 240 194 142 127
301 546 240 194 142 128
302 544 241 194 141 128
302 545 240 194 141 128
302 545 241 194 142 129
303 544 241 194 141 129
303 545 240 194 141 128
303 545 241 195 142 129
302 544 242 195 142 129
303 544 242 194 142 129
302 546 240 194 141 127
303 546 240 193 140 125
296 560 224 175 135 120
296 560 225 181 141 126
296 561 224 175 135 119
297 560 225 185 144 129
297 561 224 178 138 122
297 561 225 184 143 129
297 560 226 188 146 131
297 562 224 180 140 125
297 562 225 184 143 129
298 561 225 187 145 130
299 561 225 190 147 131
298 560 226 189 146 131
299 560 226 190 146 130
299 561 226 190 146 131
298 562 224 186 144 130
298 562 225 186 144 130
298 563 224 185 143 130
299 562 225 190 147 133
299 563 224 189 147 133
299 563 225 191 148 133
298 564 224 185 144 130
299 564 224 189 146 132
299 565 224 188 146 132
300 560 226 191 146 131
300 560 227 191 146 130
300 561 226 192 147 132
301 560 227 192 146 130
301 561 226 194 148 132
301 561 227 194 147 131
300 562 225 193 149 134
300 563 224 192 149 135
300 563 225 194 150 136
301 562 225 197 151 136
301 563 225 198 152 138
300 562 226 193 148 133
301 562 226 195 150 134
302 560 227 194 146 130
302 561 226 195 148 132
302 561 227 194 147 131
303 560 227 193 143 126
303 561 227 194 145 128
302 563 225 199 151 135
303 563 225 200 151 135
302 562 226 197 150 134
303 562 226 198 148 132
303 562 227 195 145 129
303 563 226 199 150 134
303 560 228 191 141 124
300 564 224 194 150 136
300 564 225 196 151 137
300 565 224 193 149 135
301 564 224 197 152 137
301 564 225 199 153 138
301 565 224 197 152 138
300 566 224 193 148 135
301 566 224 196 150 137
302 564 225 200 152 137
302 565 224 199 151 136
303 564 225 200 150 134
303 565 224 199 150 134
303 565 225 200 150 135
302 566 224 197 150 136
303 566 224 197 149 134
305 547 237 193 142 124
304 546 239 194 140 126
304 547 238 194 141 126
304 547 239 195 141 127
305 546 239 193 140 125
305 547 238 192 141 125
306 545 239 190 140 124
307 545 239 188 140 123
306 547 237 191 138 120
307 546 237 188 138 120
307 547 237 188 137 119
306 546 238 191 142 125
306 546 239 190 140 124
306 547 238 191 141 123
307 546 238 189 139 122
307 546 239 189 140 123
304 550 235 193 137 124
304 551 234 194 139 125
304 551 235 193 138 126
305 550 235 192 138 123
305 551 234 191 138 123
305 551 235 192 138 123
306 549 235 190 138 122
307 548 235 189 136 124
307 549 235 189 137 123
306 551 233 189 137 123
307 551 233 188 136 124
306 550 235 190 137 122
306 551 234 188 135 121
307 550 234 187 135 122
307 550 235 188 135 121
307 551 234 188 136 122
304 548 237 194 140 123
304 549 236 194 141 126
304 549 237 195 141 125
305 548 236 192 142 122
305 548 237 192 142 121
305 549 236 193 141 124
304 548 238 195 141 125
304 550 236 193 139 124
306 548 236 190 137 121
306 548 237 191 140 121
306 549 236 191 138 123
307 548 236 188 136 121
307 548 237 189 137 120
310 547 235 181 132 116
311 546 235 177 130 114
311 547 235 179 132 115
308 544 239 187 137 122
308 545 238 187 137 120
308 545 239 187 139 123
309 544 239 185 136 122
309 545 238 184 135 119
309 545 239 185 136 121
308 546 237 186 136 118
308 547 236 185 134 118
308 547 237 185 134 117
309 546 237 184 135 119
309 547 236 184 134 119
309 547 237 184 134 119
308 546 238 187 137 120
310 545 237 182 134 118
311 544 237 176 131 115
311 545 236 177 131 114
311 545 237 179 133 117
310 544 238 181 133 118
310 544 239 182 133 119
310 545 238 182 134 119
311 544 238 178 132 117
310 546 236 180 132 115
310 546 237 181 133 117
310 547 236 182 133 118
311 546 236 178 131 114
311 547 236 180 131 115
308 548 235 189 136 124
308 549 235 188 135 123
309 548 235 187 135 123
309 549 234 187 135 121
309 549 235 188 135 122
308 551 233 185 135 121
309 551 233 184 135 118
308 550 234 187 136 123
308 551 234 187 136 123
309 550 234 185 135 119
309 551 234 185 135 119
310 548 235 185 134 119
310 549 234 184 134 119
311 548 234 179 132 116
311 548 235 180 133 116
311 549 234 180 131 116
310 551 233 183 133 117
311 550 233 180 132 117
311 551 232 180 131 117
311 551 233 181 132 118
310 550 234 183 132 117
311 550 234 181 132 117
308 548 236 187 135 121
309 548 236 185 135 120
304 554 231 191 141 126
304 555 230 190 140 125
304 555 231 190 140 125
305 554 231 189 138 124
305 555 230 187 138 123
305 555 231 187 137 124
306 554 231 186 136 123
306 555 230 185 137 121
306 555 231 184 135 122
307 554 231 182 133 118
307 555 230 181 134 117
307 555 231 182 134 117
304 556 229 190 141 126
304 557 229 189 139 125
305 557 229 187 139 123
304 556 230 190 141 126
305 556 230 187 139 121
304 558 228 188 138 123
304 558 229 188 138 124
304 559 228 187 137 121
305 558 229 186 136 121
305 559 228 186 135 119
306 557 229 186 137 121
307 557 229 183 135 119
306 556 230 185 136 119
307 556 230 183 135 120
307 557 230 182 134 118
306 558 229 184 134 117
306 559 228 185 135 119
307 558 229 181 131 114
307 559 228 183 133 116
308 554 231 181 133 114
308 555 230 180 133 116
308 555 231 180 133 115
309 554 231 180 134 116
309 555 230 179 132 117
309 555 231 179 133 116
310 553 231 179 133 117
311 552 231 177 129 115
311 553 231 176 130 115
311 555 229 174 129 116
310 554 231 179 133 116
310 555 230 177 129 117
310 555 231 177 130 115
311 554 230 173 127 113
311 554 231 176 130 116
311 555 230 174 128 115
311 559 227 171 127 109
308 557 229 179 131 115
309 557 229 176 130 114
308 556 230 180 133 117
308 557 230 179 132 116
309 556 230 177 130 115
309 557 230 177 130 115
308 558 229 180 131 114
308 559 228 182 133 117
309 558 229 178 130 115
309 559 228 180 131 115
310 557 229 174 127 112
311 556 229 173 127 113
311 557 228 172 127 112
311 557 229 173 127 113
310 556 230 176 128 115
311 556 230 175 128 116
310 558 228 177 129 113
310 558 229 175 127 112
310 559 228 178 129 114
311 558 228 172 127 110
311 558 229 173 126 111
311 559 228 174 129 112
304 552 233 194 140 126
304 553 232 192 139 124
304 553 233 194 141 126
305 552 233 191 137 123
305 553 232 188 135 121
305 553 233 190 137 123
304 552 234 195 140 126
304 554 232 191 140 124
305 554 232 189 136 122
306 552 233 189 136 124
306 553 232 188 136 123
307 552 233 187 134 122
307 553 232 186 135 122
306 554 232 187 135 123
307 554 232 185 135 121
308 552 233 184 134 120
308 553 232 184 135 119
309 552 232 183 134 116
309 552 233 183 134 117
309 553 232 182 135 116
308 554 232 182 134 115
310 552 232 181 133 115
310 552 233 183 134 116
310 553 232 181 134 116
311 552 232 179 131 116
311 553 232 178 131 115
315 544 231 157 115 100
315 545 230 157 116 100
315 545 231 158 116 101
315 547 229 159 120 100
315 546 230 158 118 100
315 546 231 160 119 102
315 547 230 160 121 101
315 547 231 162 122 103
315 549 227 160 119 102
315 550 227 161 119 102
315 551 227 162 121 103
313 549 231 171 128 109
312 551 231 175 129 114
313 550 231 172 128 111
313 551 230 171 126 111
313 551 231 173 128 111
315 548 228 159 118 101
315 548 229 160 120 103
315 549 228 160 120 103
315 549 229 162 121 104
314 548 230 164 123 105
314 548 231 165 124 105
314 549 230 166 124 108
314 549 231 169 127 109
315 548 230 162 122 103
315 548 231 162 123 103
315 549 230 163 121 105
314 550 229 166 124 108
314 551 228 165 125 108
314 551 229 166 123 107
315 550 228 162 120 103
315 550 229 162 119 103
315 551 228 164 123 106
314 550 230 167 124 108
314 550 231 170 127 110
314 551 230 168 124 108
316 545 227 152 113 94
317 544 226 149 111 91
317 544 227 150 112 91
317 545 226 149 110 90
317 545 227 151 113 93
317 546 225 149 111 89
317 547 225 150 112 91
316 546 227 153 113 94
316 547 226 153 113 93
316 547 227 154 113 94
317 546 226 151 111 90
317 546 227 152 113 94
317 547 226 152 112 92
318 544 224 144 109 91
318 544 225 145 110 92
318 545 224 146 111 92
318 545 225 147 111 91
319 544 224 144 109 93
319 545 224 145 110 92
318 544 226 148 111 91
318 545 226 149 111 92
318 546 224 147 112 92
318 546 225 148 111 90
318 547 224 148 113 92
316 544 228 153 113 95
316 544 229 153 112 95
316 545 228 153 113 95
316 545 229 156 116 100
317 544 228 152 113 93
317 544 229 152 112 93
316 544 230 154 114 98
316 544 231 156 114 99
316 545 230 156 116 100
316 546 228 155 116 98
316 546 229 157 117 100
316 547 228 156 117 97
316 547 229 157 118 99
316 546 230 157 117 100
317 548 224 150 113 95
317 548 225 151 113 93
317 549 224 149 113 94
317 549 225 152 114 94
316 548 226 155 116 93
316 548 227 156 117 96
316 549 226 156 117 95
316 549 227 158 118 99
317 548 226 153 114 93
317 549 226 153 114 94
316 551 225 157 118 100
317 550 224 151 114 96
317 550 225 153 115 97
317 551 224 153 116 98
317 551 225 155 117 100
316 550 226 157 117 97
316 550 227 160 119 99
316 551 226 159 120 100
318 548 224 148 112 93
318 549 224 149 113 94
316 548 228 158 118 99
312 545 235 176 130 117
313 544 235 170 126 113
313 545 234 168 123 110
313 545 235 172 128 115
313 547 233 169 124 106
312 546 235 175 129 115
312 547 234 173 129 112
312 547 235 176 130 113
313 546 234 171 126 112
313 546 235 173 128 115
313 547 234 171 126 110
314 545 233 162 120 104
315 544 232 157 115 100
315 544 233 158 117 100
315 545 232 159 117 102
315 545 233 160 118 101
314 544 234 165 123 109
314 544 235 168 125 111
314 545 234 165 121 108
315 544 234 162 121 104
314 546 233 164 121 104
