ply
format ascii 1.0
comment PCL generated
element vertex 1170
property float x
property float y
property float z
property uchar red
property uchar green
property uchar blue
element camera 1
property float view_px
property float view_py
property float view_pz
property float x_axisx
property float x_axisy
property float x_axisz
property float y_axisx
property float y_axisy
property float y_axisz
property float z_axisx
property float z_axisy
property float z_axisz
property float focal
property float scalex
property float scaley
property float centerx
property float centery
property int viewportx
property int viewporty
property float k1
property float k2
end_header
243 581 319 134 115 109
243 582 319 137 118 111
243 583 319 141 121 114
244 581 319 132 114 108
245 580 319 130 112 105
245 581 319 132 113 107
245 583 317 143 123 117
244 582 318 137 118 111
244 582 319 136 117 110
244 583 318 141 120 115
244 583 319 139 119 112
245 582 318 136 117 111
245 583 318 140 121 115
246 580 319 128 110 104
246 581 318 133 115 108
246 581 319 130 112 106
247 580 319 126 109 103
247 581 318 133 116 109
247 581 319 129 112 106
246 582 317 136 118 112
246 583 317 141 122 116
247 582 317 138 120 113
247 583 317 143 123 116
246 582 318 136 117 111
247 582 318 136 118 112
243 584 319 149 125 118
243 585 319 158 129 121
243 586 319 154 125 119
245 584 317 147 127 121
244 584 318 149 127 120
244 585 318 147 127 121
244 585 319 159 130 122
245 584 318 145 125 120
245 585 318 158 130 123
244 586 319 155 126 120
245 586 318 158 127 121
245 586 319 156 126 120
245 587 319 151 123 117
246 584 317 146 126 120
246 585 317 149 125 119
247 584 317 147 126 120
247 585 317 148 126 120
246 585 318 160 129 122
246 586 317 154 120 114
247 586 317 150 124 118
246 586 318 154 124 118
246 586 319 154 123 118
246 587 318 152 119 114
246 587 319 149 120 114
247 586 318 153 119 114
247 587 318 152 119 114
247 587 319 149 117 112
246 588 319 149 120 113
247 588 319 149 118 111
248 580 319 124 108 102
248 581 318 129 113 106
248 581 319 127 110 104
249 580 319 119 104 97
249 581 318 123 107 100
249 581 319 121 104 97
248 582 317 138 120 113
248 583 316 145 125 118
248 583 317 141 122 115
249 582 317 136 118 111
249 583 316 144 124 117
249 583 317 142 124 116
248 582 318 129 112 105
249 582 318 126 109 102
250 580 319 118 102 95
250 581 318 120 104 97
250 581 319 118 103 96
251 581 318 120 105 97
251 581 319 117 102 95
250 582 317 133 116 109
250 583 316 139 120 113
251 582 317 128 112 104
251 583 316 136 118 110
250 582 318 123 107 100
251 582 318 124 108 101
253 583 315 132 111 105
254 583 315 128 108 102
255 583 315 124 105 99
252 581 318 120 105 98
252 581 319 116 102 95
253 581 319 114 100 93
252 582 317 125 109 102
252 583 316 132 114 107
253 582 317 124 108 100
253 583 316 129 111 104
252 582 318 122 106 99
253 582 318 120 104 97
253 582 319 116 101 94
254 581 319 112 98 91
254 582 317 120 104 98
254 583 316 126 107 101
255 582 317 115 101 94
255 583 316 119 103 97
255 583 317 115 101 94
254 582 318 117 102 95
254 582 319 112 98 91
255 582 318 113 99 92
255 582 319 110 97 90
255 583 318 113 99 92
254 587 311 147 114 111
255 586 311 138 110 106
255 587 310 143 112 108
255 587 311 143 112 109
254 589 309 152 115 113
255 588 309 144 111 108
255 589 308 150 115 112
255 589 309 151 115 112
254 588 310 152 116 113
254 588 311 153 117 115
254 589 310 156 117 115
254 589 311 158 118 117
255 588 310 146 113 110
254 590 309 158 118 116
254 591 309 169 125 121
255 590 308 155 119 116
255 590 309 158 119 116
254 590 310 163 118 117
254 590 311 177 123 124
250 585 315 147 126 118
251 584 315 142 123 114
251 585 315 148 126 118
250 586 315 150 127 119
251 586 315 151 128 120
251 587 315 170 136 125
248 584 316 147 126 119
248 585 316 147 125 119
248 585 317 148 126 120
249 584 316 145 125 119
249 585 316 147 126 119
248 586 317 153 125 120
248 587 317 156 122 118
249 586 316 149 126 119
249 586 317 148 125 119
249 587 317 160 127 122
248 587 318 156 123 119
249 587 318 158 125 121
250 584 316 144 125 117
250 585 316 147 126 119
250 586 316 155 128 121
250 587 316 163 130 123
250 587 317 161 128 123
251 587 316 168 136 125
248 588 318 153 120 115
248 588 319 149 117 111
248 589 319 149 116 109
249 588 318 156 123 118
249 588 319 150 117 111
249 589 319 152 118 111
249 590 319 158 121 116
250 588 316 163 130 124
250 588 317 160 128 121
250 589 317 158 127 119
251 588 316 167 135 126
251 589 316 164 133 123
251 589 317 160 130 120
250 588 318 157 124 118
250 589 318 156 125 117
251 590 316 160 130 118
250 590 318 155 124 116
253 585 313 145 117 113
252 584 315 138 118 110
252 585 314 145 119 112
252 585 315 145 124 115
253 584 314 140 116 110
253 584 315 136 114 108
253 585 314 144 118 111
253 586 313 149 119 114
253 587 312 152 118 115
253 587 313 154 122 117
252 586 314 152 126 118
252 586 315 152 128 119
252 587 314 162 134 126
252 587 315 169 137 128
253 586 314 151 121 116
253 587 314 161 130 123
254 584 313 135 110 105
254 585 313 139 112 107
255 584 313 130 107 102
255 585 312 134 108 103
255 585 313 133 107 103
254 584 314 133 110 105
254 584 315 131 110 104
255 584 314 127 106 101
254 586 312 144 114 110
254 586 313 145 116 112
254 587 312 150 117 113
255 586 312 138 110 106
253 588 312 170 128 127
253 588 313 170 133 129
253 589 312 172 127 125
253 589 313 170 130 126
252 588 314 172 137 130
252 588 315 171 138 128
252 589 314 168 134 126
252 589 315 167 134 126
253 588 314 173 137 131
253 589 314 168 132 125
253 590 312 169 120 120
253 590 313 162 122 117
254 588 312 155 118 116
254 589 312 167 123 122
252 589 316 166 133 124
239 579 323 148 127 121
237 577 326 144 119 113
237 577 327 143 119 113
237 579 325 151 126 119
236 578 327 147 121 116
236 579 326 153 125 119
236 579 327 151 123 118
237 578 326 147 122 116
237 578 327 147 121 116
237 579 326 151 125 119
238 577 325 142 119 113
239 576 325 138 116 110
239 577 324 140 118 112
239 577 325 140 117 112
238 576 326 140 117 111
238 576 327 141 117 111
238 577 326 143 119 113
239 576 326 139 116 110
239 576 327 139 116 110
238 578 325 145 122 116
238 579 325 140 118 111
239 578 324 145 124 119
239 578 325 143 121 115
239 579 324 147 125 119
238 580 323 151 127 121
238 581 323 154 127 121
239 580 322 150 127 121
239 580 323 149 127 121
239 581 322 150 127 121
239 581 323 152 127 121
238 582 323 154 127 120
238 583 323 152 127 116
239 582 322 155 129 118
239 582 323 153 129 121
239 583 322 152 126 115
239 583 323 152 127 116
237 580 325 156 126 123
237 581 324 154 126 121
237 581 325 156 127 123
236 580 326 154 123 119
236 580 327 154 123 120
236 581 326 151 120 115
236 581 327 152 121 117
237 580 326 155 125 121
237 581 326 154 123 119
237 582 324 154 126 120
237 582 325 154 126 121
237 583 324 152 126 118
237 583 325 153 127 119
236 582 326 155 124 119
236 582 327 153 121 116
236 583 326 157 127 120
236 583 327 156 124 118
237 582 326 155 126 121
237 583 326 156 128 120
237 583 327 161 130 123
238 580 324 150 125 119
238 580 325 149 124 118
238 581 324 154 126 121
238 582 324 153 125 119
238 583 324 151 125 115
235 579 329 152 123 119
235 579 330 159 129 128
235 580 328 161 127 125
235 580 329 163 131 130
235 581 329 165 129 128
234 580 330 168 136 139
234 580 331 166 132 133
234 581 330 169 137 141
234 581 331 172 138 142
235 580 330 164 133 134
235 580 331 164 134 133
235 581 330 170 133 136
235 581 331 171 139 139
235 582 329 171 136 139
235 582 330 173 137 140
235 582 331 172 140 140
235 581 332 169 137 135
235 582 332 174 141 141
237 577 328 143 118 113
237 577 329 143 118 113
236 578 328 147 120 116
236 578 329 145 119 115
236 579 328 150 122 118
236 579 329 152 124 120
237 578 329 143 118 113
236 578 330 152 125 125
236 579 330 154 125 125
237 578 330 142 117 114
237 579 330 143 119 116
237 579 331 142 119 115
238 576 328 141 117 111
238 577 328 141 116 111
238 577 329 140 116 111
239 576 328 139 116 109
239 577 328 138 115 109
239 577 329 137 114 108
238 578 329 139 115 110
239 578 329 127 108 103
238 578 330 135 115 111
238 579 330 133 113 107
238 579 331 134 115 110
239 578 330 127 109 103
239 579 330 126 108 101
239 579 331 129 109 105
236 580 328 159 127 124
236 581 328 164 131 130
236 580 331 155 129 125
237 580 331 142 119 114
236 582 328 161 128 124
236 582 329 167 132 132
236 583 328 163 128 124
236 583 329 173 134 134
236 583 330 181 140 141
236 583 331 170 134 131
238 580 331 130 109 103
239 580 331 124 105 98
239 581 331 123 105 96
236 581 332 159 130 126
237 581 332 144 119 114
236 582 332 164 133 130
236 583 332 160 130 124
237 582 332 146 119 113
237 583 332 142 117 105
238 581 332 133 111 104
239 581 332 125 106 97
238 582 332 137 114 105
238 583 332 133 110 98
238 583 333 126 105 90
239 582 332 126 107 97
239 583 332 128 108 96
239 583 333 128 108 95
238 584 323 149 127 115
239 584 322 148 124 112
239 584 323 149 126 115
239 585 322 149 126 115
239 585 323 147 124 112
237 584 325 153 128 118
237 584 326 160 131 122
237 584 327 167 133 128
238 584 324 149 127 115
238 584 325 150 128 116
238 585 325 152 129 117
239 585 324 150 126 115
239 585 325 153 127 117
238 584 326 158 131 120
238 585 326 164 134 125
238 585 327 174 137 132
239 585 326 165 133 125
239 585 327 177 139 135
239 586 324 152 126 117
239 586 325 157 128 121
239 586 326 169 134 127
239 586 327 180 140 136
232 585 335 160 123 121
233 585 335 159 123 120
233 586 335 159 123 120
234 586 335 158 122 119
237 584 328 174 134 132
237 584 329 181 137 136
237 585 328 178 136 134
237 585 329 181 136 136
237 584 330 189 143 144
237 584 331 188 142 144
238 585 328 182 139 138
238 585 329 187 141 141
238 585 330 190 142 142
238 585 331 187 141 140
239 586 328 187 143 141
239 586 329 192 144 145
238 586 331 187 143 140
239 586 330 191 143 143
239 586 331 188 143 141
239 587 330 191 145 144
239 587 331 183 141 138
237 584 332 150 119 115
237 587 335 155 127 119
238 584 332 142 114 106
238 584 333 125 103 89
238 585 332 161 126 123
238 585 333 151 120 116
239 584 333 127 106 93
238 585 334 147 121 116
239 585 334 133 113 103
239 585 335 139 119 111
238 586 332 186 142 139
238 586 333 175 134 130
238 587 332 179 141 135
238 587 333 175 140 132
239 587 332 177 141 134
238 586 334 144 117 112
238 586 335 140 115 109
238 587 334 172 135 128
238 587 335 150 119 115
239 586 335 140 119 112
239 588 331 177 140 134
237 588 335 163 133 123
237 589 335 158 131 120
238 588 333 168 139 130
239 588 332 174 141 133
239 588 333 169 140 130
239 589 332 172 141 133
239 589 333 167 139 130
238 588 334 159 133 123
238 588 335 163 133 123
238 589 334 164 136 126
238 589 335 158 131 121
239 590 333 169 140 130
238 590 334 161 134 125
238 590 335 158 131 122
238 591 335 158 131 122
239 590 334 166 137 128
239 591 334 164 135 127
231 586 338 156 122 120
231 586 339 157 123 121
231 587 338 157 123 121
231 587 339 158 124 123
230 587 341 161 126 125
231 586 340 157 124 122
231 586 341 159 125 123
231 587 340 160 125 124
231 587 341 161 126 125
231 587 342 161 128 126
231 588 339 161 126 125
230 588 341 163 128 128
230 589 341 168 132 130
231 588 340 165 129 128
231 588 341 165 129 128
231 589 340 167 131 129
231 589 341 168 132 130
230 588 342 164 130 128
230 589 342 167 132 130
231 588 342 161 128 126
231 588 343 163 131 128
231 589 343 167 132 130
231 590 341 170 133 131
231 591 341 172 135 133
230 590 342 168 132 130
230 590 343 169 133 131
231 590 342 168 133 130
231 590 343 169 133 131
231 591 342 172 134 133
231 591 343 171 134 133
232 585 336 159 123 120
232 585 337 157 122 120
233 585 336 158 123 120
233 585 337 156 122 119
232 585 338 155 122 119
232 585 339 155 123 120
233 585 338 154 121 118
233 585 339 152 121 117
232 586 336 162 125 122
232 586 337 159 123 121
232 587 337 159 124 121
233 586 336 163 126 123
233 587 336 171 131 128
233 587 337 160 124 122
232 586 338 157 122 120
232 586 339 156 122 120
232 587 338 159 124 122
234 585 336 156 122 118
234 585 337 153 121 117
235 585 336 152 121 116
235 585 337 150 119 115
234 585 338 152 121 116
234 585 339 151 121 116
235 585 338 148 119 113
234 586 336 157 123 120
234 587 336 158 124 121
234 587 337 157 127 121
235 586 336 154 121 118
235 587 336 154 124 119
235 587 337 156 134 122
234 586 339 150 120 115
235 586 339 143 115 108
232 586 340 155 123 120
232 586 341 155 124 120
232 587 341 155 127 124
233 586 340 152 121 117
233 586 341 149 121 116
233 587 341 145 123 117
232 587 342 158 129 126
233 587 342 149 127 121
234 586 340 143 115 110
234 586 341 141 118 112
234 587 341 140 116 110
235 586 340 141 115 107
235 587 340 139 114 103
235 587 341 136 112 103
234 587 342 142 119 112
233 588 337 156 126 121
232 588 338 162 128 123
232 588 339 165 130 126
232 589 339 158 129 122
233 588 338 158 131 123
233 589 338 149 127 119
233 589 339 151 126 118
233 590 339 161 129 123
234 588 337 154 132 122
235 588 337 152 131 121
234 588 338 145 122 115
234 589 338 149 127 119
234 589 339 146 123 115
235 589 338 145 124 116
234 590 339 150 126 118
235 590 339 148 125 117
232 589 340 168 131 126
232 588 343 160 132 128
232 589 343 163 131 128
233 588 342 148 126 118
233 588 343 151 130 124
233 589 343 146 123 117
232 590 340 162 129 123
232 590 341 171 133 131
232 591 341 178 136 134
233 590 340 162 130 124
233 591 340 174 135 131
233 591 341 179 136 135
232 591 342 178 135 135
232 591 343 173 134 133
235 588 341 138 114 104
234 588 342 141 117 109
234 588 343 143 119 111
234 589 343 144 118 111
235 588 342 141 116 106
235 589 343 142 116 105
234 590 340 146 123 115
234 591 340 165 131 125
234 591 341 181 139 137
235 590 340 155 130 122
235 591 340 165 132 125
235 591 341 177 136 134
236 585 337 144 115 110
236 586 336 146 117 112
236 586 337 140 113 107
236 587 336 150 124 116
237 586 336 139 113 107
237 586 337 136 110 104
237 587 336 150 127 117
236 586 338 136 109 98
236 586 339 135 110 97
236 587 339 131 108 93
237 586 338 130 107 92
237 586 339 129 106 90
237 587 339 129 106 92
238 586 336 138 116 108
238 586 337 134 113 104
239 586 336 138 118 110
239 586 337 126 105 95
238 586 338 132 110 100
238 587 338 126 104 91
238 587 339 129 107 95
239 587 338 127 106 96
239 587 339 129 109 100
236 587 340 133 110 98
236 587 341 134 112 101
237 587 340 131 109 96
236 588 336 149 129 118
236 588 337 148 129 118
236 589 337 142 123 113
237 588 336 155 131 120
237 589 336 157 130 120
237 589 337 151 127 117
236 589 338 142 121 113
237 590 337 147 124 116
236 590 338 144 121 113
236 590 339 147 123 115
237 590 338 144 120 112
237 590 339 150 123 115
239 588 339 132 113 103
239 589 339 134 114 104
238 590 336 156 129 120
238 590 337 154 128 120
238 591 336 155 127 118
238 590 338 150 123 116
236 588 341 132 110 99
237 588 340 133 112 100
237 588 341 133 112 101
237 589 341 136 115 104
236 588 342 137 114 103
236 589 342 133 111 99
236 589 343 135 112 100
237 589 342 130 110 101
236 590 340 155 129 119
237 590 340 144 121 111
238 588 340 136 115 104
238 589 340 137 116 105
239 588 340 135 116 106
232 589 344 164 133 130
233 589 344 154 128 124
232 590 344 167 132 129
232 591 344 171 133 131
233 590 344 166 130 127
233 591 344 169 132 130
234 589 344 145 119 112
235 589 344 144 116 106
234 590 344 149 122 115
236 589 344 141 114 103
233 592 341 187 140 142
232 592 342 180 137 137
232 592 343 175 134 134
233 592 342 188 141 142
241 577 323 137 117 110
240 578 323 146 125 119
240 579 322 147 126 120
240 579 323 147 127 122
241 578 322 146 126 120
241 578 323 145 125 119
241 579 322 146 126 120
242 577 323 134 114 107
243 577 323 130 112 105
242 579 321 135 116 110
243 579 321 132 114 108
242 578 322 142 123 117
242 578 323 142 122 117
242 579 322 140 120 114
243 578 322 131 114 107
243 578 323 128 110 103
243 579 322 132 114 108
240 576 324 136 115 109
240 576 325 136 115 109
240 577 324 139 117 111
241 576 324 134 113 106
241 576 325 135 113 106
241 577 324 134 113 106
240 576 326 137 115 109
240 576 327 138 114 108
241 576 326 135 113 106
241 576 327 135 113 106
241 577 327 135 111 105
240 578 324 145 124 119
242 576 324 133 113 105
242 576 325 135 113 106
243 576 324 135 115 108
243 576 325 134 113 106
243 577 324 129 111 104
242 576 326 134 112 105
242 576 327 133 111 104
242 577 327 130 108 101
243 576 326 133 112 105
243 577 326 131 111 103
243 577 327 131 111 104
240 581 321 149 126 120
241 580 321 145 124 117
241 581 320 138 118 112
241 581 321 144 123 116
240 580 322 148 126 120
240 581 322 149 127 120
241 580 322 146 125 119
240 582 321 149 127 119
240 583 321 152 127 116
241 582 320 142 121 114
241 582 321 147 125 118
241 583 320 146 123 116
241 583 321 154 128 119
242 580 320 134 116 109
242 580 321 135 116 110
242 581 320 136 116 110
243 580 320 133 115 108
243 580 321 132 114 108
243 581 320 134 116 109
242 582 320 138 118 112
242 583 320 144 122 115
243 582 320 137 118 111
244 577 323 128 111 104
245 577 323 127 110 102
244 579 321 129 112 106
245 578 321 127 110 103
245 579 320 128 111 104
245 579 321 128 111 105
244 578 322 128 112 105
245 578 322 127 110 103
246 577 323 126 109 102
246 579 320 125 108 101
246 579 321 124 108 101
247 579 320 123 108 101
247 579 321 123 107 100
246 578 322 125 109 102
246 578 323 125 109 101
247 578 322 123 108 100
247 578 323 123 107 100
247 579 322 124 108 101
244 576 325 127 109 102
244 577 324 127 110 103
244 577 325 128 110 103
245 577 324 126 109 101
245 577 325 124 108 100
244 577 326 129 110 102
244 577 327 131 111 103
245 577 326 124 107 98
244 578 327 125 107 97
245 578 326 125 107 100
245 578 327 122 105 92
245 579 327 123 105 94
246 577 324 125 109 101
246 577 325 123 107 99
246 578 324 123 108 100
246 578 325 122 106 98
247 578 324 122 107 99
247 578 325 122 107 98
247 579 325 124 108 99
246 578 326 124 106 97
246 578 327 122 104 93
246 579 326 120 101 90
246 579 327 121 104 92
247 578 326 121 105 96
247 579 326 121 103 93
247 579 327 122 103 91
244 580 320 130 113 106
245 580 320 129 111 105
246 580 320 126 109 102
247 580 320 125 109 102
247 580 327 120 103 92
240 576 328 136 113 107
240 577 328 133 112 104
240 577 329 132 115 107
241 577 328 126 107 99
240 578 329 125 109 101
241 578 328 123 106 96
241 578 329 124 108 98
241 579 329 123 107 96
240 579 330 123 107 97
241 579 330 123 106 95
242 577 328 124 105 96
242 578 328 124 106 97
242 578 329 124 106 97
242 579 329 124 106 95
243 578 328 124 107 97
243 579 328 123 106 93
243 579 329 124 107 94
240 580 330 123 107 97
240 580 331 123 105 96
240 581 331 123 105 95
241 580 330 123 107 96
241 580 331 123 106 95
241 581 331 122 106 95
241 582 331 122 105 94
243 580 329 123 106 94
242 580 330 124 106 95
242 581 330 123 106 94
242 581 331 122 106 95
243 580 330 123 106 94
243 581 330 122 105 93
243 581 331 121 105 93
242 582 331 121 105 93
242 583 331 121 105 93
243 582 330 121 104 92
243 582 331 121 104 92
243 583 331 121 104 91
240 582 332 123 105 95
240 583 332 126 109 98
240 583 333 128 111 98
241 582 332 123 106 95
241 583 332 125 108 96
242 583 332 124 108 95
243 583 332 123 106 93
244 578 328 123 106 95
244 579 328 124 106 94
244 579 329 125 107 94
245 579 328 124 106 93
246 579 328 122 105 93
244 580 329 123 106 93
245 580 328 124 107 95
245 580 329 124 107 94
245 581 329 123 106 94
244 581 330 122 105 93
245 581 330 122 106 93
244 582 330 120 104 91
244 583 331 120 103 90
245 582 330 121 105 92
245 583 330 119 103 91
245 583 331 119 102 89
246 580 328 122 105 92
246 580 329 122 105 92
246 581 329 122 105 92
247 580 328 121 104 92
247 581 328 121 104 91
247 581 329 120 103 91
246 582 329 120 103 91
247 582 329 119 102 90
247 583 329 118 100 89
246 582 330 119 103 91
246 583 330 117 100 88
246 583 331 116 100 88
247 583 330 117 99 88
240 584 321 152 127 117
241 584 320 156 129 122
241 584 321 155 129 121
241 585 321 152 125 119
240 584 322 149 124 114
240 585 322 148 122 113
240 585 323 148 124 113
241 585 322 148 121 113
241 586 321 149 120 115
240 586 323 149 123 114
241 586 322 146 119 112
241 586 323 147 121 112
241 587 323 148 120 112
242 584 320 157 129 122
242 585 320 154 126 121
243 585 320 154 126 119
242 586 320 152 123 118
242 586 321 149 119 117
243 586 320 149 122 116
243 586 321 148 118 116
243 587 320 146 119 113
243 587 321 145 115 113
242 586 322 146 119 114
242 587 322 146 119 114
242 587 323 150 121 113
243 587 322 147 119 114
243 587 323 149 121 113
240 586 324 155 126 119
240 586 325 161 129 124
240 587 325 165 130 127
241 587 324 159 126 121
241 587 325 169 130 129
240 586 326 172 136 130
240 586 327 183 141 138
240 587 326 174 135 130
240 587 327 185 142 139
241 587 326 178 136 133
241 587 327 188 144 140
242 587 324 163 127 123
242 587 325 173 132 132
242 587 326 182 139 136
242 588 323 156 124 117
243 588 322 147 118 112
243 588 323 158 125 118
242 588 324 165 126 123
242 588 325 175 132 133
243 588 324 167 125 122
243 588 325 176 129 131
243 589 324 170 124 122
243 589 325 177 128 129
242 588 326 184 139 138
242 588 327 190 145 142
243 588 326 185 139 139
243 588 327 192 146 144
243 589 326 187 140 140
243 589 327 192 147 145
244 586 320 149 122 115
244 587 320 147 120 114
244 587 321 145 115 112
245 587 320 148 121 114
244 588 321 146 116 111
245 588 320 148 122 114
245 588 321 149 121 115
244 588 322 148 118 111
244 588 323 160 126 119
244 589 323 166 127 122
245 588 322 151 119 112
245 589 322 155 121 114
245 589 323 167 126 121
245 590 323 174 129 127
246 588 320 149 121 113
246 588 321 155 125 119
246 589 321 159 127 120
247 588 320 148 118 110
247 589 320 153 121 114
247 589 321 162 126 120
246 589 322 163 128 122
246 589 323 168 128 123
246 590 322 172 133 128
246 590 323 178 132 129
247 590 322 174 134 129
247 590 323 182 136 133
244 589 324 173 128 126
244 589 325 178 129 129
245 589 324 176 131 129
244 589 326 186 139 138
244 590 325 181 132 131
245 590 324 180 133 132
245 590 325 184 137 136
244 590 326 186 138 138
244 590 327 190 147 144
245 590 326 185 138 137
246 590 324 183 136 135
240 586 328 191 144 143
240 586 329 194 146 146
240 587 328 192 145 143
240 587 329 195 147 147
241 587 328 193 146 145
241 587 329 194 148 147
240 587 330 191 145 145
240 587 331 187 144 142
241 587 330 193 147 147
242 587 328 193 147 144
240 584 333 130 113 100
241 584 333 131 114 102
240 584 334 130 112 100
240 585 334 127 109 96
240 585 335 142 123 114
241 584 334 133 116 103
241 585 334 136 117 105
241 585 335 145 126 117
242 584 333 134 117 105
243 584 332 125 108 96
243 584 333 133 116 105
243 585 333 136 118 109
242 585 334 140 121 111
242 585 335 144 124 115
243 585 334 137 118 107
242 586 335 141 120 111
243 586 334 136 116 105
243 586 335 138 118 108
241 588 329 193 148 147
240 588 330 184 142 140
240 588 331 179 143 139
240 589 331 180 144 139
241 588 330 188 145 144
241 589 330 183 146 143
241 589 331 182 146 142
241 590 331 177 144 138
241 591 331 176 143 137
242 588 328 193 147 144
242 588 329 192 146 144
242 589 329 188 146 142
243 588 328 193 147 144
243 589 328 192 148 144
243 589 329 190 148 144
242 589 330 183 145 141
243 590 328 188 147 142
243 590 329 186 146 142
242 590 330 184 147 143
243 590 330 183 147 141
240 589 332 175 142 134
240 590 332 175 142 136
240 590 333 169 139 131
240 591 332 172 141 133
245 584 331 118 102 89
246 584 331 115 99 87
246 585 331 114 98 86
247 584 330 115 99 87
247 584 331 114 98 86
247 585 331 113 98 86
244 584 332 123 106 93
244 585 333 130 113 101
245 584 332 120 104 91
245 585 332 122 106 93
245 585 333 125 108 96
244 585 334 134 116 105
245 585 334 133 115 103
244 586 334 137 118 108
244 586 335 137 117 106
245 586 334 131 113 101
245 586 335 131 112 100
246 585 332 118 102 90
246 585 333 121 105 92
247 585 332 114 99 87
246 586 333 121 105 93
247 586 332 114 99 88
246 586 334 124 107 95
244 590 328 189 148 144
248 579 320 122 106 99
248 579 321 122 107 100
249 579 321 119 104 97
248 578 323 121 106 98
248 579 322 122 107 99
248 579 323 122 107 98
249 579 322 121 106 98
249 579 323 121 106 98
250 579 321 120 104 96
250 579 322 119 104 96
250 579 323 120 104 96
248 578 324 121 106 98
248 579 324 121 106 98
248 579 325 123 107 97
249 579 324 123 107 98
249 579 325 123 108 99
248 579 326 119 100 89
248 580 320 122 106 100
249 580 320 120 105 98
250 580 320 117 103 96
250 580 321 117 102 95
251 580 320 115 101 93
251 580 321 115 101 94
250 580 322 118 104 96
250 580 323 119 104 95
251 580 322 116 102 94
251 580 323 117 102 94
251 581 323 115 101 91
249 580 325 119 102 90
248 580 326 119 102 91
248 580 327 120 102 91
248 581 327 117 100 88
249 580 326 119 102 91
249 581 326 117 101 90
249 581 327 117 100 89
249 582 327 115 99 87
250 580 324 119 104 94
250 580 325 117 101 89
250 581 324 115 100 88
250 581 325 115 99 87
251 581 324 114 99 88
251 581 325 114 99 87
250 581 326 117 100 89
251 582 325 112 97 86
250 582 326 114 97 86
250 582 327 115 99 87
250 583 327 114 96 85
251 582 326 112 97 85
251 583 326 113 97 85
251 583 327 112 95 83
252 580 321 114 99 92
252 581 320 114 100 93
252 581 321 113 99 91
253 581 320 113 99 92
253 581 321 111 98 91
252 580 322 114 100 92
252 581 322 114 100 92
252 581 323 114 100 90
253 581 322 111 98 90
253 581 323 112 98 90
253 582 322 110 97 89
253 582 323 112 97 87
254 581 320 111 97 90
254 581 321 110 96 90
254 582 320 111 97 90
254 582 321 109 96 89
255 582 320 110 96 89
255 582 321 109 96 88
255 583 320 108 95 88
255 583 321 109 94 88
254 582 322 109 96 88
254 582 323 112 97 86
254 583 323 113 99 88
255 583 322 111 97 89
255 583 323 113 99 89
252 581 324 112 98 87
252 582 324 112 97 86
252 582 325 111 96 85
252 583 325 109 94 83
253 582 324 111 97 85
253 583 324 111 97 87
253 583 325 111 96 86
252 583 326 111 96 84
253 583 326 111 96 85
254 583 324 112 97 86
254 583 325 110 95 85
248 581 328 118 102 90
248 582 328 118 101 90
248 582 329 119 101 91
248 583 329 117 98 87
249 582 328 116 99 88
249 583 328 116 98 86
249 583 329 114 96 85
250 583 328 115 97 86
251 584 327 112 95 83
248 589 320 156 120 114
248 589 321 162 125 119
248 590 321 169 130 124
255 584 323 113 99 88
253 584 325 110 95 84
252 584 326 112 95 83
252 584 327 112 95 82
253 584 326 112 96 84
254 584 324 112 96 85
254 584 325 112 96 85
249 584 329 113 95 83
249 585 329 110 92 80
248 584 330 114 97 84
248 585 330 112 95 83
248 585 331 112 97 85
249 585 330 110 93 80
248 586 331 112 97 86
250 584 328 112 94 83
250 584 329 111 93 82
250 585 328 109 92 80
250 585 329 109 92 80
251 584 328 112 94 82
251 585 328 109 92 79
240 586 336 138 118 109
240 586 337 127 108 96
240 587 337 131 112 101
241 586 336 137 117 107
241 586 337 134 114 103
241 587 337 136 116 106
240 587 338 130 111 101
241 587 338 137 117 107
242 586 336 137 116 105
242 586 337 137 117 106
242 587 337 138 118 107
243 586 336 138 118 107
243 586 337 137 117 105
243 587 336 137 116 104
243 587 337 138 118 106
242 587 338 137 117 107
240 588 339 135 115 105
241 588 338 136 117 106
244 586 336 136 116 103
245 586 336 135 116 102
256 583 315 119 102 97
256 583 316 115 101 95
256 583 317 114 100 94
257 583 316 113 100 93
257 583 317 112 99 92
256 583 318 112 99 92
256 583 319 110 97 90
257 583 318 112 99 93
257 583 319 111 98 91
256 587 309 138 109 105
257 587 309 133 106 101
256 586 311 134 107 103
256 587 310 137 108 104
257 586 311 129 105 100
257 587 310 131 105 101
258 587 309 129 104 99
259 587 309 127 102 97
258 586 311 125 101 96
258 587 310 127 102 97
259 586 311 121 98 94
259 587 310 124 100 95
256 589 307 148 115 111
257 589 307 144 112 108
256 590 307 153 118 115
257 590 306 147 114 110
258 589 307 137 109 104
256 588 308 145 113 109
256 588 309 140 110 106
256 589 308 147 114 111
257 588 308 139 109 105
257 588 309 136 108 103
257 589 308 141 110 106
258 588 308 133 106 101
258 588 309 132 106 101
256 584 313 127 104 99
256 585 312 129 105 101
256 585 313 128 105 100
257 584 313 123 101 97
257 585 312 126 103 98
257 585 313 123 101 96
256 584 314 125 103 98
256 584 315 123 103 98
257 584 314 118 101 95
257 584 315 114 100 94
256 586 312 131 106 102
257 586 312 128 104 100
258 585 312 121 99 95
258 585 313 115 99 93
259 585 312 111 97 91
259 585 313 111 97 91
258 584 314 114 99 93
258 584 315 114 100 93
258 585 314 113 99 92
259 585 314 114 99 93
258 586 312 122 99 95
259 586 312 117 97 92
257 584 316 112 99 92
257 584 317 112 99 92
257 584 318 110 98 91
257 584 319 110 97 89
258 584 316 113 99 92
258 584 317 111 98 91
259 584 316 112 98 91
258 584 318 110 97 90
260 585 313 114 100 94
256 583 320 108 95 87
256 583 321 113 98 90
256 583 322 112 97 89
256 584 320 114 100 90
256 584 321 114 99 90
257 584 320 115 100 90
256 584 322 113 98 89
0 0 0 1 0 0 0 1 0 0 0 1 0 0 0 0 0 1170 1 0 0
