ply
format ascii 1.0
comment PCL generated
element vertex 2253
property float x
property float y
property float z
property uchar red
property uchar green
property uchar blue
element camera 0
property float view_px
property float view_py
property float view_pz
property float x_axisx
property float x_axisy
property float x_axisz
property float y_axisx
property float y_axisy
property float y_axisz
property float z_axisx
property float z_axisy
property float z_axisz
property float focal
property float scalex
property float scaley
property float centerx
property float centery
property int viewportx
property int viewporty
property float k1
property float k2
end_header
295 980 251 59 61 68
293 982 252 54 56 62
293 982 253 51 54 60
293 983 252 57 59 64
293 983 253 54 56 61
293 983 254 53 55 60
293 983 255 53 54 59
294 980 252 57 60 66
294 981 252 56 58 65
294 981 253 53 56 63
295 980 252 56 59 65
295 980 253 55 58 65
295 981 253 52 55 62
295 980 254 55 57 64
295 981 254 51 54 60
295 981 255 52 54 59
294 982 252 55 57 64
294 982 253 53 56 62
294 982 254 53 55 61
294 982 255 53 55 59
294 983 254 51 53 58
294 983 255 51 53 58
295 982 255 53 54 59
288 984 246 69 71 78
288 984 247 68 71 78
288 985 247 65 68 75
289 984 247 69 71 78
288 985 248 67 70 77
288 985 249 65 68 74
289 984 248 67 69 76
289 984 249 66 69 76
289 985 248 68 71 78
289 985 249 66 69 76
289 985 250 66 70 77
289 985 251 66 69 76
288 986 248 63 66 73
288 986 249 64 66 72
288 986 250 64 66 71
288 986 251 62 64 69
288 987 251 61 63 68
289 986 250 65 67 73
289 986 251 63 66 72
290 984 248 64 67 73
290 984 249 66 69 75
291 984 249 61 63 69
290 984 250 66 69 76
290 985 250 67 70 77
290 985 251 67 70 76
291 984 250 60 63 69
291 984 251 61 64 70
291 985 251 63 66 73
288 987 252 61 63 68
289 986 252 64 67 73
289 987 252 61 63 68
289 987 253 62 64 70
289 987 254 61 63 69
289 987 255 60 62 68
290 985 252 67 70 76
291 985 252 66 68 74
291 985 253 68 70 75
290 986 252 66 69 75
290 986 253 66 69 75
291 986 253 69 71 76
290 986 254 67 69 75
290 987 254 65 67 73
290 987 255 62 64 69
291 986 254 70 72 77
291 986 255 68 71 76
288 988 252 60 61 65
288 988 253 59 60 64
288 988 254 58 60 64
288 988 255 56 56 60
288 989 254 58 58 62
288 989 255 59 59 63
289 988 254 62 63 69
289 988 255 62 63 68
292 984 250 54 57 63
292 984 251 59 61 67
292 984 252 60 62 68
292 984 253 63 64 69
292 985 252 65 67 72
292 985 253 67 68 73
293 984 253 57 59 64
292 985 254 67 69 74
292 985 255 69 70 75
293 984 254 59 60 64
293 984 255 57 58 62
293 985 255 65 67 71
292 986 254 71 72 78
292 986 255 71 73 78
296 976 247 58 59 64
296 976 248 58 59 64
296 976 249 62 63 68
296 977 248 49 49 56
296 977 249 52 53 60
297 976 248 63 63 68
297 976 249 60 61 66
296 977 250 57 58 64
296 977 251 56 58 64
297 976 250 59 61 67
297 977 250 63 65 70
297 977 251 61 63 68
296 978 250 50 53 59
296 978 251 53 55 61
296 979 251 53 55 61
298 976 250 53 56 62
298 976 251 55 58 64
298 977 251 57 60 66
299 976 250 55 57 63
299 976 251 55 58 63
299 977 251 57 59 64
297 977 252 59 61 67
296 978 252 56 58 63
296 979 252 56 59 65
296 979 253 61 63 69
297 978 252 58 60 66
297 978 253 60 62 67
297 979 253 59 61 66
296 979 254 61 63 68
297 979 254 57 59 65
297 979 255 54 56 61
298 977 252 58 60 66
299 977 252 56 57 63
298 978 252 57 59 65
298 978 253 56 57 63
299 978 252 57 59 65
299 978 253 54 56 62
298 978 254 55 56 62
298 979 254 55 56 62
298 979 255 51 53 59
299 978 254 54 55 61
299 979 254 52 55 61
299 979 255 51 54 59
296 980 254 61 64 69
296 980 255 57 58 64
297 980 255 55 57 62
300 976 250 54 56 62
300 976 251 54 56 62
301 976 251 55 57 64
302 976 251 60 63 70
300 976 252 56 58 64
300 977 252 56 58 64
300 977 253 58 59 66
301 976 252 58 60 67
301 977 252 59 61 68
301 977 253 61 63 70
300 978 253 56 58 64
300 978 254 55 57 63
300 978 255 55 58 63
300 979 255 54 57 63
301 978 254 59 62 69
301 978 255 58 61 67
302 976 252 62 66 73
302 977 252 62 64 71
302 977 253 64 67 73
303 976 252 68 71 77
303 976 253 67 70 76
303 977 253 67 69 76
302 977 254 63 66 72
303 977 254 67 68 75
303 977 255 63 65 71
302 978 254 62 65 71
302 978 255 62 65 71
303 978 255 64 66 72
304 960 240 64 67 73
304 961 240 66 69 76
304 961 241 66 69 76
305 960 240 63 67 73
305 960 241 64 67 73
305 961 241 64 67 74
305 961 242 62 65 72
304 962 241 69 72 78
304 962 242 71 73 79
304 963 242 73 75 80
304 963 243 72 73 79
305 962 242 63 65 71
305 962 243 61 64 69
305 963 243 65 67 73
306 960 241 65 68 74
306 960 242 67 69 76
306 961 242 63 65 72
306 961 243 62 64 70
307 960 242 70 72 78
307 960 243 72 74 80
307 961 243 64 67 73
306 962 243 60 62 69
305 963 244 63 64 70
307 961 244 63 64 70
306 962 244 59 61 67
306 963 244 58 60 66
307 962 244 57 59 64
307 962 245 53 54 59
307 963 244 54 56 62
307 963 245 51 52 57
307 963 246 52 53 57
304 964 243 69 71 76
304 965 243 65 67 72
305 964 243 65 67 72
304 965 244 62 64 69
305 964 244 62 64 70
305 965 244 60 61 67
305 965 245 51 53 59
304 966 244 61 62 68
304 966 245 58 59 65
304 967 245 55 57 63
305 966 244 59 60 66
305 966 245 50 52 58
304 967 246 52 54 60
305 966 246 47 49 56
305 967 246 50 53 59
305 967 247 51 54 61
306 964 244 56 58 64
306 964 245 51 53 59
306 965 245 49 51 58
307 964 245 49 50 56
306 965 246 48 51 57
307 964 246 50 52 57
307 965 246 49 51 57
307 965 247 52 54 60
306 966 246 47 51 57
306 966 247 51 55 61
306 967 247 55 58 64
307 966 247 56 58 63
307 967 247 60 62 68
308 960 244 65 66 72
308 961 244 59 61 66
308 961 245 55 57 62
309 960 244 58 60 66
309 960 245 54 56 62
309 961 245 53 55 60
309 960 246 53 54 60
309 961 246 53 54 59
309 961 247 54 54 59
308 962 245 53 54 59
308 962 246 52 53 58
308 963 246 52 52 57
308 963 247 51 52 57
309 962 246 53 54 59
309 962 247 52 53 58
309 963 247 49 51 55
310 960 246 55 55 61
310 960 247 57 57 62
310 961 247 55 55 60
311 960 247 58 59 64
310 962 247 53 53 58
308 964 246 51 52 57
308 964 247 52 53 58
308 965 247 54 55 60
309 964 247 50 52 57
307 966 248 61 62 67
307 967 248 65 66 71
307 967 249 67 68 72
309 963 248 49 51 56
310 961 248 55 56 60
311 960 248 56 57 62
311 961 248 53 54 59
311 961 249 52 54 58
310 962 248 51 52 56
310 963 248 49 51 55
310 963 249 50 52 56
311 962 248 50 52 56
311 962 249 51 52 56
311 963 249 52 53 57
311 962 250 52 54 58
311 963 250 55 56 60
311 963 251 57 58 62
308 965 248 53 55 59
309 964 248 51 53 58
309 964 249 51 52 58
309 965 248 52 53 58
309 965 249 52 53 58
309 965 250 50 52 56
308 966 248 58 59 64
308 966 249 57 58 63
308 967 249 62 64 68
309 966 249 54 55 60
308 967 250 56 58 62
309 966 250 52 54 58
309 966 251 52 54 58
309 967 250 54 56 60
309 967 251 54 57 62
310 964 249 50 51 56
310 964 250 53 54 57
310 965 250 51 52 56
310 965 251 54 56 60
311 964 250 54 55 58
311 964 251 56 58 62
311 965 251 56 58 63
310 966 250 51 52 57
310 966 251 54 56 61
310 967 251 55 58 64
311 966 251 57 59 65
311 965 252 55 57 63
310 966 252 56 59 64
310 967 252 56 59 65
311 966 252 56 58 64
311 966 253 57 60 65
311 967 253 59 61 67
311 967 254 62 65 70
304 968 246 54 56 62
304 969 246 55 57 63
304 969 247 55 58 64
305 968 246 52 55 61
305 968 247 54 58 64
305 969 247 58 61 68
304 970 247 58 60 66
306 968 247 56 60 66
305 969 248 62 65 72
304 970 248 63 66 71
304 971 248 62 65 71
305 970 248 66 69 74
305 970 249 71 73 79
305 971 248 66 69 75
305 971 249 71 73 79
305 971 250 75 76 82
306 968 248 65 67 72
306 969 248 65 68 74
306 969 249 69 71 76
307 968 248 67 68 73
307 968 249 69 69 74
307 969 249 68 69 74
307 968 250 66 67 72
307 969 250 64 65 71
307 969 251 58 59 64
306 970 249 72 73 79
306 970 250 70 71 77
306 971 250 72 74 79
306 971 251 68 69 74
307 970 250 66 67 73
307 970 251 58 59 65
307 971 251 61 62 67
307 971 252 55 56 62
304 972 248 63 66 73
304 972 249 66 70 76
304 973 249 69 72 79
305 972 249 72 74 81
304 973 250 72 75 82
305 972 250 75 76 82
305 973 250 76 78 85
305 973 251 75 77 83
304 974 250 72 75 82
304 974 251 77 80 86
306 972 251 67 68 73
306 973 251 66 68 73
307 972 251 62 63 68
304 974 252 79 81 87
304 975 252 75 78 84
305 974 252 72 74 80
305 975 252 72 74 80
305 975 253 66 68 74
305 975 254 60 62 68
306 973 252 61 63 68
306 973 253 57 60 65
307 972 252 58 60 65
307 972 253 53 55 61
307 973 252 56 58 63
307 973 253 52 55 60
307 973 254 51 53 59
306 974 252 62 65 71
306 974 253 59 62 68
306 974 254 49 52 59
306 975 254 52 54 61
306 975 255 48 50 57
307 974 254 50 53 60
307 974 255 49 50 58
307 975 255 50 50 59
308 968 250 60 61 66
308 968 251 57 58 63
308 969 250 63 64 70
308 969 251 57 58 64
309 968 251 57 58 64
309 969 251 57 57 63
308 970 251 56 57 62
308 969 252 56 57 62
309 968 252 58 60 66
309 969 252 58 58 64
309 969 253 60 60 65
308 970 252 54 55 60
308 971 252 50 51 57
308 971 253 46 48 53
309 970 253 56 57 62
309 971 253 51 52 57
309 970 254 62 63 68
309 971 254 57 58 63
309 971 255 62 64 69
310 968 252 57 59 65
310 968 253 59 62 67
310 969 253 61 63 68
311 968 253 60 63 69
310 969 254 66 68 74
310 969 255 67 69 74
311 968 254 64 66 72
311 968 255 64 67 73
311 969 254 67 70 76
311 969 255 66 69 75
310 970 254 65 66 71
310 970 255 65 67 72
310 971 255 63 65 70
311 970 255 64 67 73
308 972 253 49 51 57
308 972 254 48 49 55
308 973 254 50 51 58
308 973 255 51 54 59
309 972 254 52 53 59
309 972 255 56 57 63
309 973 255 54 56 62
308 974 255 51 54 60
312 960 248 55 56 61
312 960 249 54 56 61
312 961 249 52 54 59
312 960 250 56 58 63
312 961 250 56 57 62
312 961 251 58 59 64
313 960 250 57 58 63
313 960 251 57 58 63
313 961 251 58 59 64
312 962 250 55 56 61
312 962 251 59 60 65
312 963 251 58 59 63
313 962 251 59 60 64
314 960 251 58 59 63
313 961 252 60 61 64
312 963 252 56 57 62
313 962 252 58 59 63
313 962 253 58 58 62
313 963 252 56 57 62
313 963 253 54 56 61
313 963 254 53 55 60
314 960 252 59 60 64
314 960 253 62 62 67
314 961 252 61 62 65
314 961 253 62 62 67
314 960 254 62 63 68
314 961 254 61 62 67
315 960 254 59 62 67
315 960 255 59 62 68
315 961 255 55 57 62
314 962 253 58 59 63
314 962 254 57 58 62
314 962 255 55 56 60
314 963 254 55 56 60
314 963 255 55 56 61
315 962 255 54 56 61
312 964 251 56 58 63
312 964 252 56 58 63
312 964 253 56 59 64
312 965 252 56 58 64
312 965 253 56 59 65
313 964 253 55 57 63
312 965 254 55 57 63
313 964 254 54 56 61
313 964 255 53 55 59
313 965 254 54 56 62
313 965 255 55 57 63
312 966 253 58 60 66
312 966 254 58 60 66
312 966 255 58 60 66
312 967 254 61 64 70
312 967 255 59 61 67
313 966 254 55 57 63
313 966 255 57 59 65
313 967 255 56 58 65
314 964 255 54 56 61
314 965 255 55 57 63
312 968 255 61 63 69
312 969 255 61 64 69
304 976 253 68 71 77
304 976 254 63 65 72
304 976 255 59 61 67
304 977 254 60 62 69
304 977 255 59 61 67
305 976 254 60 61 67
305 976 255 54 55 62
306 976 255 51 52 59
316 941 256 44 47 53
317 941 256 42 45 51
317 941 257 41 44 49
317 941 258 40 43 47
317 941 259 38 41 45
317 942 256 40 44 49
317 942 257 39 42 47
317 943 256 41 44 49
317 943 257 39 42 47
317 942 258 39 42 47
317 942 259 37 40 45
317 943 258 39 42 46
317 943 259 38 40 45
318 943 259 37 39 43
317 941 260 35 38 42
317 941 261 33 36 40
317 942 260 35 38 43
318 941 261 33 36 41
318 940 263 34 35 38
318 941 262 35 37 41
318 941 263 34 36 40
318 942 260 34 38 42
318 942 261 34 37 41
318 943 260 35 38 41
318 943 261 35 38 42
318 942 262 35 38 42
318 942 263 35 38 41
318 943 262 37 40 44
318 943 263 37 39 43
318 939 271 34 35 38
318 940 264 36 37 40
318 940 265 41 42 45
318 941 264 33 35 38
318 941 265 35 37 40
318 940 266 43 44 48
318 940 267 41 43 47
318 941 266 39 40 43
318 941 267 41 43 46
318 942 264 34 36 40
318 942 265 37 38 41
318 943 264 35 37 41
318 943 265 38 39 42
318 942 266 40 42 44
318 942 267 43 45 49
318 943 266 43 43 46
318 943 267 45 47 50
318 940 268 39 42 46
318 940 269 36 38 42
318 941 268 42 44 48
318 941 269 34 37 41
318 940 270 34 36 39
318 940 271 31 33 35
318 941 270 31 32 35
318 941 271 35 36 38
318 942 268 41 44 48
318 942 269 30 34 39
318 943 268 39 42 46
318 943 269 29 34 38
318 942 270 33 35 37
318 942 271 38 39 41
318 943 270 38 39 43
318 943 271 40 41 44
317 939 275 49 50 54
318 939 272 31 33 35
318 939 273 36 37 39
318 939 274 46 46 49
317 939 276 51 53 57
317 939 277 45 47 52
317 938 279 38 39 42
317 939 278 41 42 46
317 939 279 37 37 40
317 940 275 50 52 56
317 941 275 50 52 57
318 940 272 32 33 36
318 940 273 38 40 43
318 941 272 38 39 42
318 941 273 44 45 49
318 940 274 48 49 52
318 940 275 50 51 55
318 941 274 49 51 55
318 941 275 51 52 57
318 942 272 41 42 45
318 942 273 46 48 51
318 943 272 43 44 47
318 943 273 47 48 52
318 942 274 50 52 56
318 942 275 51 53 57
318 943 274 50 52 56
318 943 275 52 53 58
317 940 276 49 51 56
317 940 277 39 42 47
317 941 276 46 49 53
317 941 277 34 38 42
317 940 278 37 39 43
317 940 279 34 36 39
317 941 278 35 37 41
317 941 279 34 36 39
317 942 276 40 43 47
317 942 277 30 33 38
317 943 276 35 38 42
317 943 277 31 34 38
317 942 278 33 35 39
317 942 279 33 35 38
317 943 278 35 36 40
317 943 279 34 35 39
318 942 276 48 50 54
318 943 276 45 48 52
314 937 285 51 51 54
314 937 286 43 43 46
314 938 285 51 51 54
314 939 285 51 52 55
315 938 284 39 40 42
315 938 285 49 50 53
315 939 284 42 44 47
315 939 285 50 51 54
314 938 286 45 44 47
314 939 286 48 47 49
315 940 284 44 46 49
315 940 285 51 52 56
315 941 284 44 46 50
315 941 285 50 51 54
314 940 286 52 51 53
314 941 286 51 51 53
315 942 284 46 47 51
315 942 285 47 48 51
315 943 284 47 48 51
315 943 285 44 44 47
314 942 286 48 48 51
314 943 286 44 44 47
315 943 286 43 43 45
316 938 281 45 46 50
316 939 281 40 44 49
317 938 280 41 42 45
317 938 281 47 49 52
317 939 280 40 41 43
317 939 281 45 47 51
316 938 282 42 43 47
316 938 283 38 39 42
316 939 282 39 43 48
316 939 283 39 42 46
316 940 281 39 43 47
316 941 281 41 44 48
317 940 280 40 41 44
317 940 281 43 45 49
317 941 280 41 42 45
317 941 281 42 44 48
316 940 282 39 42 46
316 940 283 43 45 49
316 941 282 39 41 46
316 941 283 44 46 50
317 942 280 41 42 45
317 942 281 40 42 46
317 943 280 42 43 46
317 943 281 39 41 44
316 942 282 39 41 44
316 942 283 44 46 50
316 943 282 40 42 45
316 943 283 44 46 49
316 941 284 43 45 49
316 942 284 44 46 49
316 943 284 45 46 49
317 944 256 41 44 48
317 944 257 40 43 47
317 945 256 41 43 47
317 945 257 41 43 47
317 944 258 39 42 46
317 945 258 41 42 46
317 946 256 42 44 48
317 946 257 43 44 48
317 947 256 42 44 48
317 947 257 43 45 49
318 944 258 38 40 44
318 944 259 38 40 44
318 945 258 38 40 43
318 945 259 38 39 42
318 946 258 41 43 46
318 946 259 39 40 43
318 947 258 41 43 47
318 947 259 38 40 44
318 944 260 38 40 43
318 944 261 38 40 43
318 945 260 41 41 44
318 945 261 41 42 45
318 944 262 38 40 44
318 944 263 36 38 42
318 945 262 38 40 43
318 945 263 32 35 38
318 946 260 39 40 43
318 946 261 41 42 45
318 947 260 38 40 44
318 947 261 40 42 46
318 946 262 39 41 43
318 946 263 32 33 36
318 947 262 41 42 46
318 947 263 33 35 38
317 948 256 42 44 49
317 948 257 44 46 50
317 949 256 43 45 50
317 949 257 46 48 53
317 950 256 45 48 52
317 950 257 48 51 55
317 951 256 47 50 54
317 951 257 51 53 57
318 948 257 44 46 51
318 949 257 46 48 52
318 948 258 42 44 48
318 948 259 39 41 45
318 949 258 46 48 52
318 949 259 43 45 50
318 950 258 49 51 55
318 950 259 46 48 52
318 951 258 50 52 57
318 951 259 46 48 52
318 948 260 39 42 46
318 948 261 41 43 47
318 949 260 42 45 49
318 949 261 41 44 48
318 948 262 42 44 48
318 948 263 37 39 43
318 949 262 42 45 49
318 949 263 44 46 50
318 950 260 45 47 51
318 950 261 44 46 50
318 951 260 47 48 52
318 951 261 45 47 52
318 950 262 40 43 48
318 950 263 43 45 50
318 951 262 38 42 47
318 951 263 36 39 44
318 944 264 33 36 39
318 944 265 37 38 41
318 945 264 29 32 35
318 945 265 33 34 37
318 944 266 42 42 45
318 944 267 43 44 48
318 945 266 37 37 41
318 945 267 38 39 42
318 946 264 28 29 32
318 946 265 33 33 36
318 947 264 28 30 33
318 947 265 31 32 34
318 946 266 35 36 39
318 946 267 37 38 42
318 947 266 32 33 35
318 947 267 37 38 42
318 944 268 34 37 42
318 944 269 31 35 40
318 945 268 32 35 40
318 945 269 38 41 45
318 944 270 40 42 45
318 944 271 39 40 43
318 945 270 42 44 48
318 945 271 39 40 43
318 946 268 37 40 44
318 946 269 42 45 50
318 947 268 40 42 47
318 947 269 44 47 51
318 946 270 42 44 48
318 946 271 39 41 45
318 947 270 42 44 49
318 947 271 39 41 45
318 948 264 31 34 37
318 948 265 29 30 34
318 949 264 38 40 44
318 949 265 32 34 38
319 948 265 30 32 35
319 949 265 31 34 37
318 948 267 39 41 44
319 948 266 33 34 36
319 948 267 39 40 43
319 949 266 37 38 41
319 949 267 43 44 47
318 950 264 41 43 47
318 951 264 37 40 45
319 950 264 39 41 45
319 950 265 35 37 41
319 951 264 35 39 43
319 951 265 37 40 44
319 950 266 41 43 46
319 950 267 45 46 49
319 951 266 43 44 48
319 951 267 44 45 48
318 948 268 43 45 48
318 948 269 44 46 51
318 949 269 46 48 52
319 948 268 44 45 49
319 949 268 44 46 50
319 949 269 45 47 51
318 948 270 42 44 48
318 948 271 39 41 45
318 949 270 44 46 50
318 949 271 40 41 45
319 950 268 42 44 48
319 950 269 48 49 53
319 951 268 43 44 48
319 951 269 48 49 53
318 950 270 47 48 52
318 950 271 41 42 46
318 951 270 50 52 55
318 951 271 46 47 51
319 951 270 52 53 56
317 952 256 50 52 57
317 952 257 53 55 59
317 953 256 51 53 56
317 953 257 54 55 59
317 952 258 56 57 61
317 953 258 56 57 61
317 954 256 50 51 56
317 954 257 48 49 53
317 955 256 51 53 58
317 955 257 49 51 56
317 954 258 49 50 55
317 955 258 49 51 55
317 955 259 49 50 54
318 952 258 55 56 61
318 952 259 51 53 57
318 953 258 55 57 61
318 953 259 54 55 59
318 954 259 52 53 57
318 955 259 50 51 55
318 952 260 48 50 54
318 952 261 47 49 54
318 953 260 50 52 56
318 953 261 47 50 55
318 952 262 43 47 52
318 952 263 38 42 47
318 953 262 46 49 54
318 953 263 44 47 52
319 953 263 43 46 51
318 954 260 50 50 55
318 954 261 45 47 52
318 955 260 48 49 52
318 955 261 46 47 51
318 954 262 46 48 52
318 954 263 48 49 52
318 955 262 46 47 50
318 955 263 49 50 52
319 954 263 48 49 52
316 956 256 54 57 62
316 957 256 54 57 63
317 956 256 52 54 60
317 956 257 48 51 56
317 957 257 46 49 54
317 956 258 46 48 52
317 956 259 47 49 52
317 957 258 44 46 50
317 957 259 47 48 51
316 958 256 55 58 64
316 958 257 46 49 55
316 959 256 55 58 64
316 959 257 51 53 59
317 958 257 44 47 52
317 959 257 49 51 56
317 958 258 47 49 53
317 958 259 51 51 55
317 959 258 50 51 56
317 959 259 50 51 55
318 956 259 48 49 52
318 957 259 47 48 51
317 958 260 49 49 52
317 958 261 46 47 50
317 959 260 46 48 51
317 959 261 45 47 51
317 959 262 46 48 52
318 956 260 48 49 52
318 956 261 48 48 51
318 957 260 49 49 52
318 957 261 49 49 51
318 956 262 49 49 52
318 956 263 50 51 54
318 957 262 50 50 53
318 957 263 51 52 55
318 958 260 50 50 53
318 958 261 47 48 51
318 958 262 50 51 54
318 958 263 52 53 57
318 959 262 48 50 54
318 959 263 51 53 57
319 952 264 37 41 46
319 952 265 41 44 48
319 953 264 43 45 50
319 953 265 43 45 50
319 952 266 43 44 48
319 952 267 41 42 45
319 953 266 42 44 48
319 953 267 40 40 44
318 955 264 49 49 53
319 954 264 47 48 51
319 954 265 45 46 49
319 955 264 48 49 52
319 955 265 46 47 50
319 954 266 40 41 46
319 954 267 37 38 42
319 955 266 41 42 47
319 955 267 38 39 43
319 952 268 39 39 43
319 952 269 46 47 51
319 953 268 39 39 43
319 953 269 45 46 49
318 952 270 51 52 56
318 952 271 48 49 53
318 953 270 52 53 57
318 953 271 48 50 54
319 952 270 51 52 56
319 953 270 52 53 56
319 954 268 38 38 42
319 954 269 43 45 48
319 955 268 35 37 41
319 955 269 39 41 44
318 954 271 48 49 53
318 955 271 48 49 53
319 954 270 50 52 56
319 955 270 45 47 50
319 955 271 46 47 51
318 956 264 50 51 54
318 956 265 49 50 54
318 957 264 52 53 56
318 957 265 50 52 55
319 956 265 47 48 51
318 957 266 49 50 54
319 956 266 39 41 45
319 956 267 35 38 42
319 957 266 41 43 47
319 957 267 34 37 41
318 958 264 53 54 58
318 958 265 54 55 58
318 959 264 52 53 57
318 959 265 50 51 54
318 958 266 48 49 52
318 959 266 46 47 49
318 959 267 38 40 43
319 958 266 40 42 45
319 958 267 35 37 42
319 959 267 37 39 43
319 956 268 34 37 41
319 956 269 33 36 40
319 957 268 34 37 42
319 957 269 33 36 41
319 956 270 38 40 45
319 956 271 45 47 51
319 957 270 40 42 46
319 957 271 46 47 51
319 958 268 33 35 40
319 958 269 33 36 40
319 959 268 34 36 40
319 959 269 31 34 37
319 958 270 41 42 46
319 958 271 44 46 50
319 959 270 39 41 44
319 959 271 43 44 48
318 944 272 42 43 46
318 944 273 44 45 49
318 945 272 42 43 46
318 945 273 44 45 48
318 944 274 49 50 54
318 944 275 52 53 57
318 945 274 49 51 54
318 945 275 49 51 55
318 946 272 42 44 48
318 946 273 44 45 48
318 947 272 40 41 44
318 947 273 42 43 46
318 946 274 49 50 54
318 946 275 45 47 51
318 947 274 46 47 51
318 947 275 41 43 46
317 944 277 32 33 36
317 945 277 32 32 36
317 944 278 37 37 40
317 944 279 37 38 41
317 945 278 38 36 39
317 945 279 39 39 42
317 946 277 32 31 33
317 947 276 28 30 33
317 947 277 32 32 33
317 946 278 38 36 38
317 946 279 39 39 42
317 947 278 38 37 39
317 947 279 39 40 42
318 944 276 40 42 46
318 945 276 39 41 44
318 946 276 36 38 41
318 947 276 32 34 37
318 948 272 38 39 42
318 948 273 41 41 44
318 949 272 35 37 39
318 949 273 36 37 39
318 948 274 44 45 48
318 948 275 41 42 45
318 949 274 39 40 43
318 949 275 38 40 43
318 950 272 35 36 39
318 950 273 34 35 38
318 951 272 35 37 41
318 951 273 34 36 39
318 950 274 38 39 42
318 950 275 39 41 44
318 951 274 41 43 46
318 951 275 45 46 49
317 948 276 30 31 34
317 948 277 36 36 38
317 949 277 41 41 43
317 948 278 37 37 39
317 948 279 36 37 41
317 949 278 35 36 39
317 949 279 34 36 40
317 950 277 39 40 42
317 950 278 33 35 38
317 950 279 33 35 39
317 951 278 31 34 37
317 951 279 35 37 40
318 948 276 29 32 35
318 949 276 36 38 41
318 950 276 41 43 46
318 950 277 39 40 43
318 951 276 43 44 48
318 951 277 36 38 41
318 951 278 33 35 39
315 944 284 45 45 47
315 944 285 42 41 42
315 945 284 44 43 44
315 945 285 43 41 42
314 944 286 45 45 48
314 945 286 47 46 48
315 944 286 43 42 44
315 945 286 45 42 44
315 946 284 47 46 47
315 946 285 46 44 44
315 947 284 53 51 52
315 947 285 53 50 49
314 946 286 48 47 49
314 947 286 50 49 50
315 946 286 47 45 45
315 947 286 49 47 48
315 948 284 57 55 55
315 948 285 55 52 51
315 949 284 61 58 58
315 949 285 55 52 50
314 948 286 50 49 50
315 948 286 49 47 48
315 949 286 49 47 48
315 950 284 61 59 59
315 950 285 52 49 48
315 951 284 55 53 53
315 951 285 46 43 43
315 950 286 48 47 48
315 951 286 43 43 45
317 944 280 39 40 43
317 944 281 38 39 43
317 945 280 37 38 42
317 945 281 41 42 46
316 944 282 43 43 47
316 944 283 42 43 46
316 945 282 45 46 50
316 945 283 40 41 44
317 946 280 35 38 43
317 946 281 45 47 52
317 947 280 37 40 45
317 947 281 48 50 54
316 946 282 43 46 51
316 946 283 41 42 45
316 947 282 43 45 50
316 947 283 43 45 48
316 944 284 45 45 48
316 945 284 47 47 49
316 946 284 50 50 52
316 947 284 53 52 54
317 948 280 43 45 49
317 948 281 49 51 55
317 949 280 43 45 49
317 949 281 46 48 51
316 948 282 40 42 47
316 948 283 46 47 49
316 949 282 36 39 42
316 949 283 52 52 54
317 950 280 43 45 48
317 950 281 43 44 48
317 951 280 43 44 47
317 951 281 37 39 43
316 950 282 35 38 41
316 950 283 53 52 54
316 951 282 40 41 44
316 951 283 55 54 56
316 948 284 52 51 53
316 951 284 57 56 56
318 952 272 39 41 45
318 952 273 39 41 45
318 953 272 43 45 49
318 953 273 43 45 49
318 952 274 44 45 49
318 952 275 42 44 47
318 953 274 42 44 47
318 953 275 36 38 42
318 954 272 46 48 52
318 954 273 43 45 49
318 955 272 47 49 54
318 955 273 42 44 48
318 954 274 37 39 43
318 954 275 35 37 41
318 955 274 36 38 42
318 955 275 38 40 43
317 952 279 37 38 41
318 952 276 38 39 42
318 952 277 35 37 40
318 953 276 35 36 39
318 953 277 35 37 41
318 952 278 35 37 40
318 952 279 36 37 40
318 953 278 34 36 40
318 953 279 36 37 40
318 954 276 37 39 42
318 954 277 40 41 44
318 955 276 43 45 48
318 955 277 45 46 49
318 954 278 38 39 41
318 954 279 37 38 41
318 955 278 39 40 43
318 955 279 36 37 41
318 956 272 47 49 53
318 956 273 42 44 48
318 957 272 47 48 51
318 957 273 45 46 50
319 956 272 46 48 51
319 957 272 47 48 52
318 956 274 39 40 44
318 956 275 43 44 48
318 957 274 44 45 49
318 957 275 44 45 48
318 958 273 47 48 51
318 959 273 48 49 52
319 958 272 46 47 50
319 958 273 47 48 51
319 959 272 48 48 51
319 959 273 50 50 53
318 958 274 47 48 51
318 958 275 45 46 49
318 959 274 46 48 51
318 959 275 45 47 51
318 956 276 47 48 51
318 956 277 48 49 51
318 957 276 45 46 49
318 957 277 49 49 52
318 956 278 40 42 46
318 956 279 35 37 41
318 957 278 43 45 49
318 957 279 38 41 44
318 958 276 46 46 49
318 958 277 49 50 53
318 959 276 47 48 51
318 959 277 51 52 55
318 958 278 47 48 52
318 958 279 43 45 49
318 959 278 51 52 55
318 959 279 47 48 51
315 952 284 48 46 47
315 952 285 42 39 40
315 953 284 46 44 46
315 953 285 42 40 42
315 952 286 41 41 44
315 953 286 44 45 48
315 954 284 50 48 48
315 954 285 49 46 47
315 955 284 54 52 52
315 955 285 52 50 50
315 956 283 53 50 50
315 957 283 57 53 53
315 958 283 60 56 55
315 959 283 59 55 54
314 956 285 52 49 49
314 957 285 51 48 48
315 956 284 56 52 52
315 956 285 52 49 49
315 957 284 53 49 48
315 957 285 49 46 45
314 958 285 50 48 48
314 959 285 50 49 51
315 958 284 51 48 47
315 959 284 52 49 49
317 952 280 39 40 43
317 952 281 37 40 44
317 953 280 37 38 42
317 953 281 40 43 48
316 952 282 44 44 46
316 952 283 51 50 52
316 953 282 46 46 48
316 953 283 47 45 46
317 952 282 44 45 48
317 953 282 44 45 48
316 955 281 49 48 51
317 954 280 36 38 41
317 954 281 43 45 48
317 955 280 40 41 44
317 955 281 47 48 51
316 954 282 47 47 50
316 954 283 45 44 46
316 955 282 48 48 50
316 955 283 46 45 46
316 952 284 50 48 49
316 953 284 46 45 46
316 956 281 48 48 50
316 957 281 44 43 46
317 956 280 42 43 46
317 956 281 49 50 53
317 957 280 44 45 48
317 957 281 49 49 51
316 956 282 47 46 48
316 956 283 48 46 46
316 957 282 45 43 44
316 957 283 53 50 50
316 958 281 46 44 46
317 958 280 44 45 48
317 958 281 50 50 52
317 959 280 46 47 50
317 959 281 51 51 52
316 958 282 51 49 49
316 958 283 61 57 57
316 959 282 52 49 48
316 959 283 59 54 53
256 990 256 60 63 69
256 990 257 63 66 73
256 991 257 61 64 71
257 990 256 52 55 61
257 991 256 48 52 58
257 991 257 54 57 63
256 991 258 60 63 69
256 991 259 59 63 69
257 991 258 59 62 68
257 991 259 59 63 69
258 990 256 45 47 53
258 991 256 45 46 52
258 991 257 49 51 56
259 991 256 44 44 51
259 991 257 44 46 52
258 991 258 55 57 62
258 991 259 58 61 66
259 991 258 49 51 56
260 991 256 41 44 49
260 991 257 42 45 50
261 991 256 44 48 53
261 991 257 40 44 49
277 991 256 62 64 69
278 991 256 55 57 61
279 991 256 57 59 64
279 991 257 59 61 67
280 991 256 58 59 64
280 991 257 59 61 65
281 991 256 52 55 59
281 991 257 52 54 59
281 991 258 47 50 55
282 991 256 50 52 58
282 991 257 50 52 58
283 991 256 53 55 60
283 991 257 51 53 59
282 991 258 52 54 59
283 991 258 52 54 59
283 991 259 54 56 61
284 991 256 52 54 58
284 991 257 50 52 56
285 990 256 55 56 60
285 991 256 50 51 56
285 991 257 52 53 58
284 991 258 51 52 57
284 991 259 52 54 60
285 991 258 51 53 58
285 991 259 53 55 60
287 989 256 69 69 73
286 990 256 64 65 69
286 990 257 66 67 72
286 991 257 62 63 67
287 990 256 71 71 75
287 990 257 71 72 76
286 990 258 68 69 74
286 991 258 64 65 70
286 991 259 63 65 71
287 990 258 71 72 76
287 991 258 71 72 77
287 991 259 70 72 76
284 991 260 50 52 58
284 991 261 50 52 58
285 991 260 53 55 60
285 991 261 53 56 61
285 991 262 51 54 59
286 991 260 61 64 69
286 991 261 58 61 67
287 991 260 73 74 79
287 991 261 73 75 80
286 991 262 56 60 66
286 991 263 56 60 66
287 991 262 75 77 82
287 991 263 73 75 81
286 991 264 57 60 67
286 991 265 56 59 64
287 991 264 69 72 78
287 991 265 65 68 74
286 991 266 56 59 64
287 991 266 62 66 72
287 991 267 59 62 68
287 991 268 60 63 68
287 991 269 62 64 70
287 991 270 62 64 70
287 991 271 62 64 69
286 991 273 62 64 68
287 991 272 60 62 67
287 991 273 60 63 68
286 991 274 64 66 70
286 991 275 63 65 70
287 990 274 58 61 67
287 990 275 58 61 67
287 991 274 62 64 70
287 991 275 62 65 70
285 991 277 60 62 66
285 991 278 59 61 65
285 991 279 58 59 63
286 990 277 57 59 64
286 991 276 62 63 69
286 991 277 60 62 66
287 990 276 59 62 68
287 990 277 56 59 63
286 990 278 58 59 64
286 990 279 58 59 63
286 991 278 59 60 64
286 991 279 58 59 63
287 990 278 56 58 63
287 990 279 55 57 61
285 991 280 56 57 60
285 991 281 54 55 59
285 991 282 53 54 58
286 990 280 57 58 62
286 990 281 55 56 60
286 991 280 57 58 61
286 991 281 54 55 58
287 990 280 54 56 59
287 990 281 53 54 57
286 990 282 54 55 60
286 991 282 54 55 59
287 990 282 53 54 58
256 992 259 60 63 70
257 992 259 60 64 70
258 992 259 59 62 67
259 992 258 51 53 60
259 992 259 54 57 62
256 992 260 61 64 70
256 992 261 65 67 73
257 992 260 62 65 72
257 992 261 64 67 73
256 992 262 66 68 74
256 993 262 65 67 72
256 993 263 60 63 68
257 992 262 65 67 73
257 993 262 63 66 71
257 993 263 58 61 66
258 992 260 60 62 68
258 992 261 60 63 68
259 992 260 58 60 66
259 992 261 60 62 67
259 993 261 59 61 67
258 993 262 60 62 67
258 993 263 60 62 68
259 993 262 58 60 65
259 993 263 57 59 65
260 992 257 42 45 50
261 992 256 50 53 59
261 992 257 46 49 54
260 992 258 45 49 54
260 992 259 47 50 56
261 992 258 45 49 54
261 992 259 46 49 54
261 993 259 48 50 55
262 992 256 54 57 63
262 992 257 53 55 61
263 992 256 61 65 71
263 992 257 59 62 69
262 992 258 50 53 59
262 992 259 47 51 56
262 993 259 46 49 55
263 992 258 53 56 63
263 993 258 57 60 67
263 993 259 53 57 64
260 992 260 52 55 61
260 993 261 55 58 63
261 992 260 49 52 57
261 993 260 48 51 56
261 993 261 50 53 58
260 993 262 57 59 65
260 993 263 58 60 65
261 993 262 52 55 60
260 994 263 57 59 64
261 994 262 50 54 59
261 994 263 54 56 62
262 993 260 47 50 56
262 993 261 47 51 56
263 993 260 62 65 71
263 993 261 62 65 71
262 994 261 52 55 61
263 994 261 67 70 76
262 994 262 54 57 63
262 994 263 56 58 63
263 994 262 60 63 70
263 994 263 53 57 63
256 993 264 59 61 66
256 993 265 57 59 64
257 993 264 56 59 64
257 993 265 54 57 62
256 993 266 54 56 61
256 993 267 52 55 59
257 993 266 54 56 61
257 994 265 55 57 62
256 994 267 52 54 59
257 994 266 54 57 62
257 994 267 55 57 62
258 993 264 59 61 67
259 993 264 57 60 65
258 994 265 58 60 65
259 994 264 59 62 67
259 994 265 60 62 68
258 994 266 57 60 65
258 994 267 56 58 63
259 994 266 59 62 67
259 994 267 57 60 66
256 994 268 52 54 58
256 994 269 52 54 58
257 994 268 56 58 63
257 994 269 55 57 62
256 994 270 58 59 63
256 994 271 60 61 66
257 994 270 56 58 63
257 994 271 59 60 65
257 995 271 58 59 64
258 994 268 56 58 63
258 994 269 57 59 64
259 994 268 55 58 64
259 994 269 56 58 64
259 995 269 57 59 64
258 994 270 56 58 63
258 995 270 56 58 62
258 995 271 55 57 62
259 995 270 57 59 64
259 995 271 57 59 63
260 994 264 60 62 67
260 994 265 61 63 68
261 994 264 56 58 63
261 994 265 58 60 64
260 994 266 61 63 68
260 994 267 59 61 66
261 994 266 59 61 65
261 994 267 59 61 65
261 995 266 58 60 64
261 995 267 57 59 63
262 994 264 57 59 64
262 994 265 58 60 65
262 995 265 58 59 64
263 994 264 52 55 61
263 995 264 47 51 56
263 995 265 50 54 59
262 995 266 57 58 63
262 995 267 56 58 62
263 995 266 50 53 59
263 995 267 51 54 60
260 994 268 56 59 64
260 995 268 56 58 63
260 995 269 57 59 64
261 995 268 55 57 62
261 995 269 54 56 60
260 995 270 60 61 66
260 995 271 61 63 67
261 995 270 53 55 59
261 995 271 52 54 58
262 995 268 56 58 62
262 995 269 54 56 61
263 995 268 54 56 62
263 995 269 55 58 63
262 995 270 53 55 60
262 995 271 52 54 59
263 995 270 56 58 62
263 995 271 56 57 62
263 996 271 55 57 62
264 992 256 66 69 75
264 992 257 67 70 76
264 993 257 70 73 79
265 992 256 64 67 73
265 992 257 66 69 75
265 993 257 69 72 78
264 993 258 68 72 78
264 993 259 70 73 79
265 993 258 71 74 80
265 993 259 70 73 79
265 994 259 70 73 79
266 992 256 66 69 75
266 993 257 70 73 80
267 992 256 68 70 75
267 993 257 70 72 78
266 993 258 72 75 81
266 993 259 73 76 82
267 993 258 69 72 78
267 993 259 69 72 77
266 994 259 73 76 82
267 994 259 69 72 77
264 993 260 70 73 79
264 994 260 68 71 78
264 994 261 66 69 76
265 994 260 71 74 80
265 994 261 74 76 82
264 994 262 64 67 73
264 994 263 61 64 69
264 995 263 66 69 74
265 994 262 76 78 83
265 995 262 74 76 81
265 995 263 73 74 79
266 994 260 71 74 80
266 994 261 71 74 80
267 994 260 68 70 76
267 994 261 67 69 74
266 994 262 71 74 79
266 995 262 68 70 76
266 995 263 67 69 74
267 994 262 66 68 73
267 995 262 65 67 71
267 995 263 64 66 70
268 992 256 69 70 74
268 993 257 68 69 73
269 992 256 61 63 68
269 993 257 58 60 65
268 993 258 67 68 73
268 993 259 64 66 70
269 993 258 55 57 63
269 993 259 55 56 62
268 994 259 62 63 68
269 994 259 54 55 62
270 992 256 66 68 74
270 993 257 65 67 72
271 992 256 68 70 75
271 992 257 69 71 75
271 993 257 69 70 75
270 993 258 62 64 69
270 993 259 62 64 70
271 993 258 67 69 74
271 993 259 64 66 71
270 994 259 60 61 67
271 994 259 61 64 69
268 994 260 59 60 65
268 994 261 55 57 61
269 994 260 52 53 59
269 994 261 49 51 57
268 994 262 54 55 59
268 995 262 54 55 59
268 995 263 53 54 58
269 994 262 47 49 55
269 995 262 46 48 53
269 995 263 44 46 52
270 994 260 57 59 65
270 994 261 54 56 63
271 994 260 60 62 68
271 994 261 59 62 67
270 994 262 52 55 61
270 995 262 50 53 59
270 995 263 48 51 57
271 994 262 63 66 71
271 995 262 62 64 69
271 995 263 65 67 72
264 995 264 61 63 69
264 995 265 59 61 66
265 995 264 69 70 75
265 995 265 64 66 71
264 995 266 56 58 64
264 995 267 53 56 61
265 995 266 59 60 66
265 995 267 57 59 64
266 995 264 64 66 71
266 995 265 61 63 68
267 995 264 61 63 67
267 995 265 58 59 64
266 995 266 59 60 66
266 995 267 59 61 65
267 995 266 57 58 62
267 995 267 57 58 63
264 995 268 54 57 62
264 995 269 56 59 63
265 995 268 58 60 64
265 995 269 59 61 66
264 995 270 56 58 63
265 995 270 59 61 66
266 995 268 59 61 66
266 995 269 57 59 64
267 995 268 55 56 62
267 995 269 55 57 62
266 995 270 55 58 63
267 995 270 55 57 63
264 996 271 55 57 61
265 996 271 58 60 65
266 996 271 54 57 62
267 996 270 55 56 62
267 996 271 55 57 62
268 995 264 52 53 57
268 995 265 48 48 53
269 995 264 41 43 49
269 995 265 41 42 47
268 995 266 45 46 51
268 995 267 49 50 55
269 995 266 41 42 47
269 995 267 46 47 52
270 995 264 48 51 57
270 995 265 45 49 55
271 995 264 65 67 71
271 995 265 65 66 71
270 995 266 48 51 56
270 995 267 51 55 60
271 995 266 65 67 71
271 995 267 64 66 70
268 995 268 52 53 59
268 995 269 52 54 61
269 995 268 51 52 58
269 995 269 52 55 60
268 995 270 51 53 60
269 995 270 52 54 60
270 995 268 55 58 63
270 995 269 57 60 65
271 995 268 63 64 69
271 995 269 61 63 67
270 995 270 57 59 64
271 995 270 61 62 66
271 995 271 61 63 67
268 996 270 49 51 58
268 996 271 49 52 57
269 996 270 52 54 59
269 996 271 51 53 58
270 996 270 54 56 62
270 996 271 54 56 61
271 996 271 60 62 67
256 995 272 57 59 64
256 995 273 55 57 62
257 995 272 57 59 64
257 995 273 53 55 60
256 995 274 54 57 62
257 995 274 50 52 57
258 995 272 58 60 64
258 995 273 57 59 65
259 995 272 54 57 61
259 995 273 55 57 62
256 996 274 54 56 61
256 996 275 56 58 63
257 996 274 51 53 58
257 996 275 53 55 59
258 996 273 57 59 64
259 996 273 54 57 62
258 996 274 53 55 60
258 996 275 51 54 59
259 996 274 54 58 63
259 996 275 52 55 61
256 996 276 55 57 61
256 997 277 47 49 53
257 996 276 54 55 60
257 997 276 54 55 59
257 997 277 53 54 58
256 997 278 47 49 52
256 997 279 52 54 58
257 997 278 52 53 56
257 997 279 52 53 57
258 996 276 52 54 59
258 997 276 53 55 59
258 997 277 54 55 59
259 996 276 51 54 59
259 997 276 51 54 59
259 997 277 52 54 58
258 997 278 54 55 58
258 997 279 53 54 57
259 997 278 52 54 57
259 997 279 52 54 57
258 998 279 52 53 56
259 998 279 51 53 56
260 995 272 60 62 67
261 995 272 54 55 60
262 995 272 48 50 55
260 996 272 60 62 67
260 996 273 59 61 66
261 996 272 51 53 58
261 996 273 55 57 62
260 996 274 57 59 65
260 996 275 56 59 64
261 996 274 59 61 66
261 996 275 60 62 67
261 997 275 61 63 68
262 996 272 50 53 57
262 996 273 51 54 58
263 996 272 55 56 60
263 996 273 54 56 60
262 996 274 54 56 60
262 997 275 56 57 61
263 996 274 53 54 58
263 997 275 53 54 57
260 997 276 55 58 63
260 997 277 53 55 60
261 997 276 61 63 67
261 997 277 60 61 66
260 997 278 53 54 58
261 997 278 54 56 60
260 998 279 53 54 58
261 998 278 56 57 62
261 998 279 56 57 61
262 997 276 57 58 62
262 997 277 58 59 63
263 997 276 52 54 58
262 998 277 58 59 63
263 998 277 55 57 61
262 998 278 57 58 62
262 998 279 56 58 62
263 998 278 56 58 62
263 998 279 57 59 63
256 997 280 53 54 58
256 998 280 54 55 59
257 998 280 52 53 57
258 998 280 51 52 55
259 998 280 52 53 57
260 998 280 53 54 58
261 998 280 54 56 59
262 998 280 56 57 62
263 998 280 58 60 65
263 998 281 59 61 66
264 996 272 53 55 59
264 996 273 53 55 58
265 996 272 56 58 63
265 996 273 52 54 59
264 996 274 53 54 58
264 997 274 53 54 58
264 997 275 52 54 57
265 996 274 53 55 59
265 997 274 52 54 58
265 997 275 52 53 58
266 996 272 55 58 63
266 996 273 55 57 62
267 996 272 56 58 62
267 996 273 56 58 62
266 996 274 53 55 60
266 997 274 53 55 60
266 997 275 49 52 57
267 997 274 53 55 60
267 997 275 52 54 59
264 997 276 51 53 57
265 997 276 53 55 59
264 998 277 53 54 59
265 998 277 51 54 59
264 998 278 54 56 61
264 998 279 56 59 64
265 998 278 50 53 58
265 998 279 53 55 60
266 997 276 52 54 59
266 997 277 54 56 61
267 997 276 52 55 59
267 997 277 56 57 62
266 998 277 54 56 61
267 998 277 57 59 63
266 998 278 54 56 61
266 998 279 55 58 63
267 998 278 59 61 66
267 998 279 60 62 67
268 996 272 51 53 58
268 996 273 54 55 59
269 996 272 49 52 57
269 996 273 50 52 57
268 996 274 55 56 61
268 997 274 56 57 62
268 997 275 56 57 62
269 996 274 51 54 59
269 996 275 52 55 60
269 997 275 55 57 63
270 996 272 53 54 59
270 996 273 53 55 59
271 996 272 61 63 67
271 996 273 61 63 67
270 996 274 53 55 60
270 996 275 54 57 62
271 996 274 61 62 67
271 996 275 59 60 65
268 997 276 56 58 62
268 997 277 58 60 65
269 997 276 57 59 65
269 997 277 63 65 70
269 997 278 65 66 72
268 998 277 58 60 65
268 998 278 62 64 69
268 998 279 63 65 71
269 998 278 64 65 71
269 998 279 65 67 73
270 997 276 59 61 66
270 997 277 63 65 71
271 996 276 57 60 64
271 997 276 56 59 64
271 997 277 62 64 70
270 997 278 66 68 74
270 997 279 67 69 75
271 997 278 64 67 73
271 997 279 64 68 74
270 998 279 67 70 75
264 998 280 58 61 66
264 998 281 59 62 68
264 999 281 61 63 69
265 998 280 56 59 65
265 998 281 61 64 70
266 998 280 58 60 66
266 998 281 60 63 69
267 998 280 62 64 69
267 998 281 62 65 71
268 998 280 66 68 74
268 998 281 68 70 76
269 998 280 67 70 75
269 998 281 69 72 78
271 997 280 66 69 76
270 998 280 68 71 77
270 998 281 69 72 78
271 998 280 67 70 77
271 998 281 69 72 79
272 992 256 61 62 68
272 992 257 63 64 69
272 993 257 63 65 70
273 992 256 59 62 67
273 992 257 59 61 66
273 993 257 61 63 68
272 993 258 63 65 70
272 993 259 65 67 73
273 993 258 59 62 67
273 993 259 62 65 71
272 994 259 66 69 74
274 992 256 55 58 63
274 992 257 56 58 63
275 992 256 56 58 63
275 992 257 54 56 61
274 993 258 55 57 62
274 993 259 57 60 65
275 992 258 54 56 60
275 993 258 55 57 61
275 993 259 56 59 64
273 993 260 63 66 72
272 994 260 67 70 75
272 994 261 69 72 77
273 994 260 67 69 75
273 994 261 69 72 77
272 994 262 71 74 79
272 994 263 72 74 80
272 995 263 72 74 79
273 994 262 68 71 76
273 994 263 67 70 75
273 995 263 65 67 73
274 993 260 58 61 66
275 993 260 56 58 64
275 993 261 57 59 65
274 994 260 63 65 70
274 994 261 60 62 68
275 994 261 56 59 64
274 994 262 62 65 70
274 994 263 66 68 73
275 994 262 56 60 65
275 994 263 58 61 67
276 992 256 58 60 65
276 992 257 56 58 63
277 992 256 62 64 69
277 992 257 61 63 68
276 992 258 57 59 63
276 993 259 57 60 65
277 992 258 62 64 69
277 992 259 61 63 68
277 993 259 59 61 65
278 992 256 57 59 64
278 992 257 57 60 65
279 992 257 59 61 66
278 992 258 61 63 68
278 992 259 65 67 71
279 992 258 60 62 67
279 992 259 60 62 67
276 993 260 58 61 66
276 993 261 58 61 66
277 993 260 59 61 66
277 993 261 60 62 68
276 993 262 58 61 67
277 993 262 60 63 69
277 993 263 60 63 69
276 994 262 57 60 65
276 994 263 55 58 64
277 994 263 57 60 66
278 992 260 66 68 72
278 993 260 67 68 73
278 993 261 66 68 73
279 992 260 60 63 68
279 993 261 60 63 69
278 993 262 64 67 73
278 993 263 64 67 73
279 993 262 61 65 71
279 993 263 65 68 74
272 995 264 70 71 75
272 995 265 65 66 70
273 995 264 66 67 72
273 995 265 61 63 68
272 995 266 60 61 65
272 995 267 57 58 62
273 995 266 56 57 62
273 995 267 54 55 58
274 994 264 67 69 74
274 995 264 67 69 74
274 995 265 64 66 71
275 994 264 61 64 70
275 994 265 61 64 70
275 995 265 62 64 70
274 995 266 60 62 67
274 995 267 56 57 62
275 994 266 59 62 68
275 995 266 58 60 65
275 995 267 58 60 64
272 995 268 58 59 63
272 995 269 58 59 63
273 995 268 55 55 59
273 995 269 57 57 62
272 995 270 59 60 64
272 995 271 61 63 68
273 995 270 59 59 65
273 995 271 59 60 66
274 995 268 55 56 60
274 995 269 56 55 60
275 995 268 57 59 64
275 995 269 56 57 61
274 995 270 57 56 62
274 995 271 61 59 65
275 995 270 57 58 62
275 995 271 59 59 63
276 994 264 56 58 63
276 994 265 56 58 63
277 994 264 57 60 65
277 994 265 55 58 63
276 994 266 55 57 62
276 994 267 55 58 63
277 994 266 53 56 61
277 994 267 54 56 61
278 993 264 64 67 72
278 993 265 64 67 72
279 993 264 68 70 76
279 993 265 70 72 78
278 993 266 63 65 70
279 993 266 66 69 75
279 993 267 65 68 74
278 994 264 61 64 69
278 994 265 61 63 69
278 994 266 59 62 67
278 994 267 57 60 65
279 994 267 62 65 71
276 994 268 58 60 64
276 994 269 57 59 63
276 995 268 59 60 65
276 995 269 60 61 65
277 994 268 56 58 63
277 994 269 57 59 63
276 995 270 62 62 66
276 995 271 61 62 66
277 994 270 58 58 63
277 994 271 58 59 64
277 995 271 59 59 64
279 993 268 64 67 74
279 993 269 59 63 69
278 994 268 54 57 62
278 994 269 53 56 61
279 994 268 59 62 68
279 994 269 55 59 64
278 994 270 55 56 62
278 994 271 57 57 63
279 994 270 57 59 65
279 994 271 58 61 66
280 992 257 59 60 65
280 992 258 59 60 65
280 992 259 60 62 66
281 992 258 51 52 58
281 992 259 50 51 57
282 992 258 47 50 55
282 992 259 49 52 57
283 992 259 54 57 62
280 992 260 60 62 67
280 992 261 59 61 66
280 993 261 60 63 68
281 992 260 50 52 57
281 992 261 48 51 56
280 993 262 60 63 68
280 993 263 62 65 70
281 992 262 48 50 55
281 993 262 53 55 59
281 993 263 53 55 59
282 992 260 50 52 57
282 992 261 49 51 56
283 992 260 55 57 62
283 992 261 55 58 63
282 992 262 48 50 55
282 992 263 50 52 56
282 993 263 47 49 53
283 992 262 56 59 64
283 992 263 58 60 66
284 992 260 52 54 60
284 992 261 51 54 59
284 992 262 51 54 59
284 992 263 49 52 57
285 992 262 48 52 57
285 992 263 47 51 56
286 992 263 53 56 61
280 993 264 66 69 74
280 993 265 70 72 77
281 993 264 57 58 63
281 993 265 63 64 69
280 993 266 71 73 80
280 993 267 70 73 79
281 993 266 69 71 77
281 993 267 72 75 81
282 992 264 53 55 60
282 992 265 55 57 62
282 993 264 51 53 57
282 993 265 55 57 62
283 992 264 56 59 64
283 992 265 55 58 63
282 993 266 59 61 65
282 993 267 63 65 70
283 992 266 53 56 61
283 992 267 49 52 57
283 993 266 53 56 61
283 993 267 51 53 58
280 993 268 67 70 77
280 993 269 63 67 74
281 993 268 72 75 82
281 993 269 68 72 79
280 993 270 60 64 71
280 993 271 57 60 67
281 993 270 64 67 75
281 993 271 61 65 72
280 994 270 58 62 68
280 994 271 55 58 64
282 993 268 66 69 75
282 993 269 66 69 75
283 993 268 51 54 59
283 993 269 58 60 65
282 993 270 65 68 75
282 993 271 64 66 73
283 993 270 60 62 67
283 993 271 62 64 69
284 992 264 48 51 56
284 992 265 49 52 57
285 992 264 49 51 56
285 992 265 50 53 58
284 992 266 51 53 58
284 992 267 50 52 57
285 992 266 52 54 59
285 992 267 56 57 62
286 992 264 52 56 61
286 992 265 53 55 60
286 992 266 54 56 60
286 992 267 57 59 63
284 992 268 50 52 57
284 993 268 48 51 55
284 993 269 54 56 61
285 992 268 57 59 64
285 992 269 59 60 65
284 993 270 57 59 64
284 993 271 60 62 67
285 992 270 63 64 69
285 992 271 65 66 71
286 992 268 57 59 63
286 992 269 60 61 65
286 992 270 60 62 66
286 992 271 61 63 67
272 995 272 62 65 71
273 995 272 59 61 66
274 995 272 61 61 66
274 995 273 61 63 68
275 995 272 58 59 63
275 995 273 59 60 64
274 995 274 62 64 70
275 995 274 60 62 66
275 995 275 61 63 68
275 995 276 65 67 72
272 996 272 62 65 71
272 996 273 66 68 73
273 996 272 59 62 68
273 996 273 60 63 69
272 996 274 66 68 73
272 996 275 65 66 71
273 996 274 64 66 73
273 996 275 65 67 74
274 996 274 61 64 70
274 996 275 61 64 70
275 996 275 63 64 69
272 996 276 63 65 69
272 996 277 64 66 71
272 997 276 61 63 68
272 997 277 64 66 71
273 996 276 66 68 73
273 996 277 67 70 75
272 997 278 66 69 75
272 997 279 68 71 77
273 996 278 69 71 77
273 997 278 70 72 78
273 997 279 71 74 80
274 996 276 62 64 70
274 996 277 64 66 72
275 996 276 63 65 70
275 996 277 64 66 72
274 996 278 66 69 75
274 996 279 67 70 76
275 996 278 64 67 73
275 996 279 65 68 74
276 995 272 61 61 65
276 995 273 62 62 67
277 994 272 59 59 64
277 995 272 61 61 65
277 995 273 64 63 68
276 995 274 61 61 65
276 995 275 63 64 69
277 995 274 64 63 68
277 995 275 64 64 69
278 994 272 58 59 64
278 994 273 60 60 65
278 995 273 61 61 65
279 994 272 59 60 65
279 994 273 61 63 67
278 994 274 62 63 67
278 995 274 62 62 66
278 995 275 64 64 68
279 994 274 62 63 67
279 994 275 63 64 68
276 995 276 66 68 73
276 995 277 67 69 74
277 995 276 67 68 73
277 995 277 70 71 76
276 995 278 69 71 77
277 995 278 70 72 78
277 995 279 69 71 77
278 995 276 66 66 71
278 995 277 68 69 74
279 994 276 63 64 68
279 994 277 63 64 68
279 995 276 65 65 70
279 995 277 64 65 69
278 995 278 69 70 76
278 995 279 68 71 77
279 994 278 64 64 69
279 994 279 63 64 69
279 995 278 64 65 70
279 995 279 64 66 71
276 996 277 67 69 74
276 996 278 67 70 76
276 996 279 66 70 76
277 996 279 66 69 76
272 997 280 69 72 78
272 997 281 70 73 80
273 997 280 70 73 80
273 997 281 71 74 81
272 998 281 69 72 79
274 996 280 68 71 78
274 997 280 68 71 78
274 997 281 68 72 79
275 996 280 66 70 77
275 996 281 68 72 79
275 997 281 67 71 78
277 995 280 67 70 77
278 995 280 65 68 75
278 995 281 61 65 71
279 995 280 61 63 69
279 995 281 59 63 69
278 995 282 63 66 72
279 995 282 58 61 66
276 996 280 66 69 76
276 996 281 66 69 76
277 996 280 65 68 74
277 996 281 63 67 73
277 996 282 64 67 73
278 996 282 65 68 73
281 993 272 56 60 66
281 993 273 54 57 63
281 993 274 56 59 64
281 993 275 61 63 67
280 994 272 55 58 64
280 994 273 58 60 64
281 994 273 54 57 63
280 994 274 61 63 67
280 994 275 64 65 68
281 994 274 58 60 65
281 994 275 63 65 69
282 993 272 64 66 72
282 993 273 62 64 70
283 993 272 63 65 71
283 993 273 62 64 70
282 993 274 60 62 67
282 993 275 62 63 67
283 993 274 62 65 70
283 993 275 62 64 69
281 993 276 63 64 68
280 994 276 65 65 69
280 994 277 63 64 68
281 994 276 66 67 71
281 994 277 65 66 70
280 994 278 62 62 67
280 994 279 61 62 66
281 994 278 62 63 67
281 994 279 59 59 64
282 993 276 63 64 68
282 993 277 65 65 69
283 992 277 62 64 69
283 993 276 61 63 68
283 993 277 63 65 69
282 993 278 65 66 70
282 993 279 64 65 69
283 992 278 63 65 69
283 992 279 60 62 66
283 993 278 63 64 69
283 993 279 64 65 70
284 992 273 62 64 69
284 993 272 61 63 68
284 993 273 62 64 69
285 992 272 66 68 72
285 992 273 66 68 73
284 992 274 64 66 72
284 992 275 62 64 70
284 993 274 62 65 70
285 992 274 64 66 72
285 992 275 64 66 70
286 992 272 62 63 68
286 992 273 64 66 70
286 992 274 65 66 70
286 992 275 64 66 71
284 992 276 60 62 68
284 992 277 60 62 67
285 992 276 60 62 67
285 992 277 59 61 66
284 992 278 60 62 67
284 992 279 60 62 66
285 992 278 60 62 66
285 992 279 60 61 65
280 994 280 58 60 65
280 994 281 57 60 65
281 994 280 57 58 64
281 994 281 56 59 65
280 994 282 54 57 63
281 994 282 54 57 63
282 993 280 60 62 67
282 993 281 59 61 66
283 992 280 57 59 63
283 992 281 57 58 63
283 993 280 60 62 66
283 993 281 60 62 66
282 993 282 58 60 65
283 992 282 59 60 65
283 993 282 59 61 65
284 992 280 56 57 61
284 992 281 55 56 59
285 992 280 56 56 60
284 992 282 57 58 61
295 981 256 52 54 59
294 983 256 49 52 57
294 983 257 49 51 56
295 982 256 53 55 59
295 982 257 53 55 59
295 983 256 51 53 58
295 983 257 52 53 58
294 983 258 47 50 55
294 983 259 51 53 58
295 983 258 52 53 58
295 983 259 52 54 59
295 983 260 54 56 61
295 983 261 54 56 61
290 987 256 60 61 66
291 986 256 68 70 76
291 987 256 64 65 70
291 987 257 63 65 70
291 987 258 63 64 69
291 987 259 63 64 69
288 989 256 60 60 64
288 989 257 64 65 70
289 988 256 63 65 70
289 988 257 64 66 72
289 989 256 63 64 69
289 989 257 65 67 72
289 989 258 66 68 73
289 989 259 65 67 72
288 990 257 65 66 70
288 990 258 67 67 71
288 990 259 71 72 76
289 990 259 67 69 74
290 988 256 60 62 67
290 988 257 60 62 67
290 988 258 60 62 67
