ply
format ascii 1.0
comment PCL generated
element vertex 2265
property float x
property float y
property float z
property uchar red
property uchar green
property uchar blue
element camera 0
property float view_px
property float view_py
property float view_pz
property float x_axisx
property float x_axisy
property float x_axisz
property float y_axisx
property float y_axisy
property float y_axisz
property float z_axisx
property float z_axisy
property float z_axisz
property float focal
property float scalex
property float scaley
property float centerx
property float centery
property int viewportx
property int viewporty
property float k1
property float k2
end_header
118 107 212 37 44 51
118 107 213 39 45 52
119 107 212 37 44 51
119 107 213 38 45 52
118 107 214 39 45 52
118 107 215 36 43 50
119 107 214 39 45 52
119 107 215 36 44 51
118 108 215 36 43 51
119 108 214 38 45 53
119 108 215 36 44 52
112 104 216 33 39 45
112 105 216 34 40 46
112 105 217 34 40 46
113 105 216 36 41 48
113 105 217 35 41 47
112 105 218 34 41 47
112 105 219 33 40 47
113 105 218 35 41 48
112 106 219 34 41 48
113 106 218 36 42 48
113 106 219 35 42 49
113 107 219 34 41 49
114 105 216 37 42 49
114 106 216 37 43 49
114 106 217 37 42 49
115 106 216 37 43 49
115 106 217 37 43 50
115 107 217 37 43 50
114 106 218 36 42 49
114 106 219 36 42 49
114 107 218 36 42 49
114 107 219 36 42 49
115 107 218 37 43 50
115 107 219 36 43 50
112 106 220 34 41 48
112 106 221 35 41 48
112 107 221 35 42 49
113 107 220 35 42 49
113 107 221 35 42 49
112 107 222 35 42 49
112 107 223 36 42 49
113 107 222 35 42 49
113 107 223 36 42 49
114 107 220 35 42 49
114 107 221 35 42 50
115 108 219 35 42 50
113 108 222 35 42 49
113 108 223 36 42 49
114 108 220 35 42 50
114 108 221 36 43 50
115 108 220 35 43 50
115 108 221 36 43 51
115 109 221 36 43 51
114 108 222 36 42 49
114 108 223 35 42 49
115 108 222 36 43 50
115 109 222 36 43 51
115 109 223 36 42 50
116 106 216 38 43 50
116 107 216 38 44 51
116 107 217 38 44 50
117 107 216 37 44 51
117 107 217 38 44 51
116 107 218 37 44 50
116 107 219 38 44 50
117 107 218 38 44 51
118 107 216 37 44 51
117 108 217 37 44 51
116 108 219 36 43 50
117 108 218 38 44 51
117 108 219 38 44 51
117 109 219 37 43 50
118 108 216 36 43 51
118 108 217 36 43 50
119 108 216 37 44 52
119 108 217 36 43 51
119 109 217 37 44 52
118 108 218 36 43 50
118 108 219 38 44 52
118 109 218 37 44 51
118 109 219 38 45 52
119 109 218 37 44 51
119 109 219 38 45 52
119 110 219 38 45 52
116 108 220 35 42 50
116 108 221 36 43 51
116 109 221 36 43 51
117 108 220 36 43 50
117 109 220 36 43 50
117 109 221 35 43 50
116 109 222 36 43 51
117 110 221 35 43 50
116 110 222 37 44 51
116 110 223 37 44 51
117 110 222 35 43 51
117 110 223 37 43 50
117 111 223 36 43 50
118 109 220 37 43 50
118 109 221 36 43 50
118 110 220 38 45 52
118 110 221 36 43 51
118 111 221 35 43 51
119 110 220 38 45 52
119 110 221 38 44 51
119 111 220 38 45 52
119 111 221 36 44 52
118 110 222 35 43 50
118 111 222 35 43 51
119 111 222 35 43 51
120 107 208 38 45 52
120 107 209 37 44 52
121 107 208 39 46 54
121 107 209 37 44 52
120 107 210 37 44 51
120 107 211 38 45 53
121 107 210 37 44 52
121 107 211 37 44 52
122 107 208 38 46 54
122 107 209 38 46 54
123 107 208 39 47 55
122 107 210 37 44 52
120 107 212 38 45 53
120 107 213 38 45 52
121 108 211 38 45 52
123 108 208 38 46 54
123 108 209 39 46 54
122 108 210 37 44 52
122 108 211 39 45 53
123 108 210 38 46 53
123 108 211 39 46 53
123 109 211 39 46 54
120 108 212 40 46 54
120 108 213 38 45 53
121 108 212 40 47 54
121 108 213 40 48 55
120 108 214 38 45 52
120 108 215 37 44 52
120 109 215 37 45 52
121 108 214 39 46 53
121 109 214 38 45 52
121 109 215 37 44 51
121 110 215 37 44 51
122 108 212 40 46 53
122 108 213 41 47 55
122 109 212 39 45 53
122 109 213 39 45 53
123 109 212 39 46 53
123 109 213 39 45 52
122 109 214 38 45 53
123 110 212 39 46 53
123 110 213 39 45 53
122 110 214 37 44 51
122 110 215 36 43 51
122 111 215 36 43 51
123 110 214 38 45 52
123 110 215 36 43 51
123 111 214 39 45 52
123 111 215 37 44 51
124 108 208 41 49 57
124 108 209 38 46 54
124 109 209 38 46 54
125 109 208 40 48 57
125 109 209 40 48 56
124 108 210 38 46 54
124 109 210 38 46 54
124 109 211 38 45 53
125 110 208 39 46 54
125 110 209 39 46 54
124 110 211 38 46 54
125 110 210 38 46 54
125 110 211 38 46 54
125 111 210 37 45 53
125 111 211 37 45 54
126 110 208 37 45 53
126 110 209 38 45 53
126 111 208 37 44 53
126 111 209 36 44 53
127 111 208 37 45 53
126 111 210 36 44 52
124 109 212 38 45 53
124 110 212 38 45 53
124 111 212 38 45 53
124 111 213 39 46 53
125 111 212 37 45 53
124 111 214 38 45 52
120 109 216 38 45 53
120 109 217 37 44 52
120 109 218 36 44 52
120 110 217 36 43 51
121 110 216 37 44 52
121 110 217 36 43 51
121 111 217 36 43 51
120 110 218 36 43 51
120 110 219 38 45 52
120 111 219 38 44 52
121 111 218 36 43 51
121 111 219 37 44 52
122 110 216 36 43 51
122 111 216 36 43 51
122 111 217 36 43 51
122 111 218 37 43 51
120 111 220 38 45 52
121 112 192 36 40 44
122 112 192 36 40 45
122 112 193 36 40 45
122 113 192 38 42 47
123 112 193 38 42 47
123 113 192 38 43 48
123 113 193 39 43 48
123 112 194 38 42 46
123 112 195 38 42 47
123 114 192 40 44 50
123 114 193 39 43 48
123 115 192 40 45 51
123 112 196 39 43 47
121 119 192 40 47 54
121 119 193 39 46 53
122 117 192 40 46 53
123 116 192 39 45 51
123 116 193 39 45 52
123 117 192 39 45 52
123 117 193 40 46 53
122 118 192 40 47 54
122 118 193 39 46 54
122 119 192 40 47 54
122 119 193 39 46 54
123 118 193 39 46 54
123 119 193 39 46 54
122 119 194 38 45 54
123 118 194 40 47 54
123 119 194 39 46 54
124 113 193 39 43 48
124 112 194 39 42 46
124 112 195 39 43 48
124 113 194 39 42 47
124 113 195 41 44 49
124 114 193 39 43 49
124 115 192 40 45 51
124 115 193 39 44 51
124 114 194 39 43 49
124 114 195 41 45 50
124 115 194 40 44 50
125 114 195 41 45 51
125 115 194 40 45 51
125 115 195 40 45 51
124 112 196 40 44 48
124 112 197 40 44 50
124 113 196 41 45 50
125 113 196 39 44 50
125 113 197 40 44 50
124 112 198 40 45 52
125 112 198 40 46 52
125 112 199 40 48 57
125 113 198 40 46 52
125 114 196 40 45 50
125 114 197 39 44 50
125 115 196 40 45 51
125 115 197 39 44 50
125 114 198 39 44 51
126 112 199 37 47 57
126 113 198 40 46 53
126 113 199 41 48 55
126 115 197 38 44 50
126 114 198 40 46 52
126 114 199 43 49 55
126 115 198 40 45 52
126 115 199 40 46 53
127 115 199 39 46 53
124 116 193 39 45 52
124 117 193 39 45 52
124 116 194 40 45 51
124 117 194 40 46 52
125 116 194 40 45 51
125 116 195 40 45 51
125 117 194 40 45 52
125 117 195 40 45 52
124 118 194 41 47 54
124 119 194 42 49 56
124 119 195 42 48 56
125 118 195 41 46 53
125 119 195 41 47 54
125 116 196 40 45 51
125 117 196 40 45 51
125 118 196 40 46 52
125 119 196 41 46 53
126 116 196 39 45 51
126 116 197 39 44 50
126 117 196 40 45 52
126 117 197 41 46 52
126 116 198 41 46 52
126 117 198 42 47 52
127 116 198 42 47 52
127 116 199 42 47 53
127 117 198 43 47 53
127 117 199 43 48 53
126 118 196 40 45 52
126 118 197 41 46 52
126 119 196 43 48 55
126 119 197 42 47 53
127 119 197 43 48 53
127 118 198 44 48 54
127 118 199 43 47 53
127 119 198 42 47 53
127 119 199 44 48 54
125 112 200 40 50 60
126 112 200 40 51 62
126 112 201 43 55 66
126 113 200 38 47 57
126 113 201 36 47 58
127 112 201 44 56 67
127 113 201 41 52 62
126 112 202 42 55 66
127 112 202 45 56 66
127 112 203 45 55 65
127 113 202 46 56 66
127 113 203 48 57 66
126 114 200 38 47 56
127 114 200 37 46 54
127 114 201 38 48 57
127 115 200 38 46 54
127 115 201 40 48 56
127 114 202 46 55 64
127 114 203 49 56 65
127 112 204 46 54 62
127 112 205 43 50 58
127 113 204 51 58 66
127 113 205 46 52 59
127 112 206 38 46 54
127 112 207 37 45 53
127 113 206 39 46 54
127 113 207 38 46 54
127 114 204 50 56 64
127 114 207 41 48 56
127 116 200 41 47 54
127 116 201 41 47 55
127 117 200 43 48 54
120 121 192 38 44 51
121 120 192 39 46 53
121 120 193 38 45 52
121 121 192 39 45 53
121 121 193 38 44 52
120 122 192 36 42 49
120 123 192 35 41 48
121 122 192 37 43 50
121 122 193 38 44 51
121 123 192 35 41 48
121 123 193 35 41 48
122 120 193 38 45 53
122 121 193 37 44 52
122 120 194 38 45 53
122 121 194 37 44 52
123 120 194 38 46 54
123 121 194 38 45 53
122 122 193 35 43 50
122 123 193 34 41 48
122 122 194 34 42 50
122 123 194 34 41 49
123 122 194 37 44 51
123 123 194 35 42 49
120 124 192 33 39 45
120 125 192 33 39 45
121 124 192 34 40 46
121 124 193 34 40 46
121 125 192 34 39 45
121 125 193 33 39 45
120 126 192 33 38 44
120 127 192 34 38 44
121 126 192 33 38 44
121 126 193 33 38 44
121 127 192 34 38 44
121 127 193 35 39 44
122 124 193 33 40 47
122 125 193 33 39 45
123 124 194 33 40 47
123 125 194 34 40 46
122 126 193 33 39 44
122 127 193 35 39 44
123 126 194 33 39 45
123 127 194 35 39 45
124 120 195 41 48 55
124 121 195 40 46 53
125 120 195 41 47 54
125 121 195 41 47 54
124 122 195 39 46 53
124 123 194 35 42 49
124 123 195 37 43 51
125 122 195 39 45 52
125 123 195 36 43 50
125 120 196 41 47 54
125 121 196 42 48 55
125 122 196 39 46 53
125 123 196 36 43 51
126 120 196 43 48 55
126 120 197 44 49 55
126 121 196 41 47 54
126 121 197 42 47 54
127 120 197 44 49 55
127 121 197 43 48 54
127 120 198 42 47 53
127 121 198 44 49 55
126 122 196 40 46 53
126 122 197 40 46 53
126 123 196 38 44 52
126 123 197 39 45 52
127 122 197 42 47 54
127 123 197 41 46 53
127 122 198 44 49 55
127 123 198 41 46 53
124 124 194 34 40 47
124 124 195 34 40 47
124 125 194 34 40 46
124 125 195 34 40 47
125 124 195 34 41 48
125 125 195 34 39 46
124 126 194 34 39 45
124 126 195 34 39 45
124 127 194 34 39 44
124 127 195 35 40 45
125 126 195 33 39 45
125 127 195 35 40 45
125 124 196 35 42 49
125 125 196 33 40 46
125 126 196 33 39 46
125 127 196 34 39 45
126 124 196 36 42 49
126 124 197 37 43 50
126 125 196 33 40 47
126 125 197 34 40 47
127 124 197 38 44 50
127 125 197 34 41 47
127 124 198 39 44 51
127 125 198 36 42 48
126 126 196 34 40 46
126 126 197 34 40 46
126 127 196 34 40 45
126 127 197 34 40 46
127 126 197 35 40 47
127 126 198 35 41 47
127 127 198 35 40 46
119 112 221 36 44 52
118 112 222 35 43 52
118 112 223 35 43 51
118 113 223 33 42 50
119 112 222 35 43 51
119 113 222 36 43 51
119 113 223 34 42 50
119 114 223 36 43 50
123 112 215 37 44 51
125 112 211 38 46 54
126 112 209 36 44 52
127 112 208 37 45 54
127 112 209 37 45 53
127 113 208 38 46 55
127 113 209 37 45 54
126 112 210 35 43 52
126 112 211 37 45 54
126 113 210 35 43 52
126 113 211 36 44 53
127 113 210 36 44 52
127 114 208 42 49 57
127 114 209 39 46 55
127 115 208 44 51 59
127 115 209 40 47 56
126 114 210 36 44 52
126 114 211 36 44 53
126 115 211 37 44 53
127 114 210 36 44 53
127 115 210 37 45 53
127 115 211 36 44 53
124 112 212 38 45 53
124 112 213 38 45 52
125 112 212 37 45 53
125 112 213 38 45 52
125 113 212 37 44 52
125 113 213 38 45 52
124 112 214 38 45 52
124 112 215 37 44 51
124 113 214 37 44 51
124 113 215 36 43 50
125 113 214 37 44 51
125 114 212 37 44 52
125 114 213 37 44 52
125 115 213 37 44 52
124 114 215 36 43 50
125 114 214 36 43 51
125 114 215 36 43 50
125 115 214 36 43 51
125 115 215 36 43 50
126 113 212 37 44 53
126 114 212 37 45 53
126 114 213 38 45 52
126 115 212 37 44 52
126 115 213 37 44 52
127 116 209 39 47 55
126 116 211 36 44 52
127 116 210 37 45 53
127 116 211 36 44 52
127 117 210 36 44 52
127 117 211 36 43 51
127 118 211 35 43 51
125 116 214 36 43 51
125 116 215 35 43 50
125 117 215 34 42 49
126 116 212 36 43 51
126 116 213 36 43 51
126 117 212 37 44 51
126 117 213 36 43 51
127 117 212 36 44 51
127 117 213 37 44 51
126 116 214 35 43 51
126 117 214 35 42 50
126 117 215 34 42 50
126 118 213 35 43 50
127 118 212 35 43 51
127 118 213 36 44 51
127 119 212 36 43 51
127 119 213 37 44 52
126 118 214 36 43 51
126 118 215 35 42 50
126 119 214 35 42 50
126 119 215 35 42 50
127 119 214 37 44 51
127 119 215 37 44 51
121 112 219 36 43 50
122 112 217 36 43 50
123 112 216 36 43 50
123 112 217 36 43 50
123 113 216 35 42 50
123 113 217 35 42 50
122 112 218 36 43 50
122 112 219 36 43 50
122 113 219 36 43 50
123 112 218 35 42 50
123 113 218 35 43 50
123 113 219 36 43 51
123 114 217 35 42 50
122 114 219 35 43 50
123 114 218 35 42 50
123 114 219 36 43 50
123 115 218 35 43 50
123 115 219 36 43 50
120 112 220 38 45 52
120 112 221 36 44 52
120 113 221 36 43 51
121 112 220 36 43 51
121 112 221 36 43 51
121 113 220 36 44 51
121 113 221 36 44 51
120 113 222 35 43 51
121 114 221 36 43 51
120 114 222 35 43 51
120 114 223 36 43 51
120 115 223 36 43 50
121 114 222 35 43 51
121 115 222 36 44 51
121 115 223 36 43 51
122 112 220 36 43 51
122 113 220 36 43 51
122 114 220 36 43 51
122 114 221 36 43 51
122 115 220 36 43 51
122 115 221 36 43 51
123 115 220 36 43 51
122 115 222 35 43 51
123 116 219 36 43 51
121 116 223 36 43 51
122 116 221 35 43 51
123 116 220 36 43 51
123 116 221 36 43 51
123 117 220 36 43 51
123 117 221 35 43 50
122 116 222 35 43 51
122 116 223 35 43 51
122 117 222 35 43 51
122 117 223 35 43 50
123 117 222 35 43 51
123 118 221 35 43 50
122 118 223 35 42 50
123 118 222 35 43 51
123 118 223 35 43 51
123 119 222 34 42 50
123 119 223 34 42 50
124 112 216 35 42 50
124 113 216 35 42 50
124 114 216 35 42 50
124 114 217 35 43 50
124 115 216 36 43 51
124 115 217 37 44 51
125 115 216 36 43 50
124 115 218 36 43 51
124 116 216 37 44 51
124 116 217 38 45 52
125 116 216 37 44 51
125 116 217 39 45 53
125 117 216 36 43 51
125 117 217 38 45 52
124 116 218 38 45 52
124 116 219 37 44 51
124 117 218 39 46 53
124 117 219 38 44 51
125 117 218 39 45 53
125 118 216 37 44 51
125 118 217 38 44 52
125 119 217 37 44 51
124 118 219 39 45 52
124 119 219 39 45 52
125 118 218 38 45 52
125 118 219 39 45 52
125 119 218 39 45 52
125 119 219 39 44 51
126 118 216 36 43 51
126 119 216 35 43 50
126 119 217 36 43 50
124 117 220 36 43 51
124 118 220 37 44 51
124 118 221 36 43 51
124 119 220 39 45 52
124 119 221 38 45 52
124 119 222 36 43 51
127 120 213 37 43 51
127 120 214 37 44 51
127 120 215 37 44 51
127 121 214 38 45 52
127 121 215 38 44 51
127 122 215 40 46 53
123 120 223 35 43 51
125 120 218 40 46 53
125 120 219 41 46 53
125 121 219 40 45 52
125 122 219 40 46 52
126 120 216 37 44 51
126 120 217 36 43 51
126 121 216 37 44 51
126 121 217 36 43 50
127 120 216 38 44 51
127 121 216 37 44 51
126 120 218 39 45 52
126 121 218 38 45 52
126 121 219 39 45 52
126 122 217 35 42 49
127 122 216 38 44 51
127 122 217 36 43 50
127 123 216 38 44 51
127 123 217 38 44 50
126 122 218 37 43 51
126 122 219 39 45 52
126 123 218 37 43 50
126 123 219 39 44 50
127 123 218 37 43 50
124 120 220 40 45 52
124 120 221 39 45 53
124 121 221 39 45 52
125 120 220 40 46 53
125 121 220 39 45 52
125 121 221 39 44 52
124 120 222 37 45 52
124 120 223 35 43 51
124 121 222 38 44 52
124 121 223 36 43 52
125 122 220 40 45 52
125 122 221 38 44 51
125 123 220 41 46 52
125 123 221 40 45 52
124 122 222 37 45 52
124 122 223 35 43 51
124 123 223 36 44 52
125 122 222 38 44 52
125 123 222 37 44 52
125 123 223 36 43 51
126 123 220 41 46 52
127 124 216 38 44 51
127 124 217 39 45 52
127 125 217 40 46 53
126 124 219 38 44 50
126 125 219 38 44 50
127 124 218 39 45 51
127 124 219 38 44 50
127 125 218 40 46 53
127 125 219 38 44 51
127 126 218 38 47 55
127 126 219 39 46 53
127 127 218 36 45 55
127 127 219 39 46 53
125 124 221 41 46 53
125 125 221 38 45 53
124 124 223 35 43 51
125 124 222 39 46 53
125 124 223 36 43 51
125 125 222 38 46 54
125 125 223 36 44 52
125 126 222 38 46 54
125 126 223 36 45 54
125 127 222 39 46 53
125 127 223 35 44 53
126 124 220 40 46 52
126 124 221 40 46 53
126 125 220 39 45 52
126 125 221 39 45 52
126 126 220 40 46 52
126 126 221 39 45 53
126 127 220 41 46 52
126 127 221 41 46 53
127 127 220 40 46 52
126 126 222 39 46 53
126 127 222 40 46 53
99 102 231 34 42 49
99 103 231 33 40 47
103 96 227 38 46 54
103 97 227 39 46 54
103 99 227 37 45 53
100 96 231 39 47 55
101 96 230 42 50 59
101 96 231 41 49 57
101 97 231 39 47 55
101 98 230 42 49 57
101 98 231 40 47 55
101 99 230 41 48 56
101 99 231 41 47 55
102 96 229 40 49 57
102 97 229 39 48 57
103 96 228 38 46 55
103 96 229 40 48 57
103 97 228 39 47 56
103 97 229 39 47 56
102 96 230 41 49 57
102 97 230 41 48 57
102 98 229 38 47 55
102 99 229 39 47 55
103 98 228 38 46 55
103 98 229 39 47 56
103 99 228 37 45 54
103 99 229 38 46 55
102 98 230 41 49 57
102 99 230 40 48 56
103 100 227 37 44 52
103 101 226 34 42 50
103 101 227 34 42 50
102 102 227 32 40 48
102 103 227 33 39 46
103 102 226 33 40 47
103 102 227 33 40 48
103 103 226 33 39 46
100 101 231 37 44 52
101 100 230 37 45 53
101 100 231 38 46 54
101 101 230 37 44 52
101 101 231 37 45 53
101 102 229 33 41 49
101 103 228 32 39 47
101 103 229 32 40 47
100 102 230 34 41 50
100 102 231 35 43 50
100 103 230 31 39 47
101 102 230 34 42 50
101 103 230 31 39 47
102 100 229 36 44 53
102 101 228 34 42 50
102 101 229 35 43 52
103 100 228 37 45 53
103 101 228 35 43 51
102 100 230 37 45 53
102 102 228 33 41 49
102 102 229 35 42 50
102 103 228 32 39 47
97 96 233 34 43 51
97 97 233 33 42 50
96 96 234 34 42 50
96 97 234 33 41 49
97 96 234 34 42 51
97 97 234 33 41 49
97 98 233 33 41 49
96 98 234 33 40 48
96 98 235 33 41 48
96 99 235 34 41 49
97 98 234 34 42 49
97 99 234 35 42 50
98 96 232 35 43 52
98 96 233 34 42 51
98 97 233 34 42 50
99 96 232 35 44 52
99 97 232 36 43 51
99 97 233 35 43 51
98 98 233 34 42 50
98 99 233 36 43 51
99 98 232 37 44 51
99 98 233 36 43 51
99 99 232 38 45 52
99 99 233 37 44 52
98 99 234 35 43 51
96 100 235 37 44 51
96 101 235 37 44 52
97 100 234 37 44 52
97 100 235 37 44 52
97 101 234 37 44 52
97 101 235 36 44 52
97 103 233 35 42 50
96 102 234 35 43 51
96 102 235 36 43 51
96 103 234 35 43 51
96 103 235 35 43 50
97 102 234 35 43 51
97 102 235 35 43 51
97 103 234 35 43 51
98 100 233 36 44 52
98 101 233 38 45 53
99 100 232 38 45 53
99 100 233 39 46 53
99 101 232 39 46 53
99 101 233 39 45 53
98 100 234 38 45 53
98 101 234 38 45 53
98 102 233 36 44 51
98 103 232 35 41 49
98 103 233 35 42 50
99 102 232 36 43 51
99 102 233 37 44 52
99 103 232 34 41 49
98 102 234 37 44 52
100 96 232 37 45 54
100 97 232 37 45 53
100 98 232 38 45 52
100 99 232 40 46 54
100 100 232 39 46 54
100 101 232 38 45 53
99 104 230 31 38 44
99 104 231 32 38 45
99 105 230 29 35 41
99 105 231 29 35 42
99 106 230 32 38 43
99 106 231 32 38 44
99 107 231 34 40 47
102 104 227 31 37 44
102 105 227 28 35 42
103 104 226 30 37 44
103 105 226 28 36 43
102 106 227 29 36 42
102 107 227 30 37 43
103 106 226 30 36 43
103 106 227 30 36 42
103 107 226 31 37 43
103 107 227 31 37 43
100 105 229 30 36 42
101 104 228 31 37 44
101 104 229 31 38 44
101 105 228 29 35 42
101 105 229 30 35 42
100 104 230 31 38 45
100 105 230 29 35 41
100 106 229 31 36 43
100 107 229 32 38 45
101 106 228 30 36 42
101 107 228 31 37 43
101 107 229 32 38 44
100 106 230 31 37 43
100 107 230 34 39 46
100 107 231 35 41 47
101 107 230 33 39 45
101 107 231 34 39 46
102 104 228 31 37 44
102 105 228 29 35 42
102 107 228 31 37 43
102 107 229 32 38 44
103 107 228 31 37 43
103 107 229 32 37 44
102 107 230 32 38 44
102 107 231 33 38 44
103 107 230 32 38 44
103 107 231 32 38 44
97 104 233 35 41 48
97 105 233 31 37 44
96 104 234 34 41 49
96 104 235 35 41 48
96 105 234 31 38 44
96 105 235 32 39 45
97 104 234 35 41 49
97 105 234 31 37 44
97 106 233 32 39 46
97 107 233 38 45 52
96 106 234 32 40 47
96 106 235 34 42 49
96 107 234 42 48 56
96 107 235 44 51 59
97 106 234 34 42 49
97 107 234 42 49 57
98 104 232 33 39 46
98 104 233 34 40 47
98 105 232 30 36 42
98 105 233 29 36 42
98 106 232 32 38 44
98 106 233 32 39 45
98 107 232 35 41 49
98 107 233 37 43 51
99 107 232 35 41 49
97 108 233 40 47 55
96 108 234 45 52 61
96 108 235 48 55 64
96 109 235 45 52 61
97 108 234 42 49 57
97 108 235 45 52 61
97 109 235 44 51 59
98 108 233 38 45 53
99 108 232 36 43 50
99 108 233 37 43 51
98 108 234 40 47 54
98 108 235 40 46 54
98 109 235 41 48 55
99 108 234 38 45 52
99 108 235 39 46 53
99 109 235 39 45 53
96 109 236 45 52 61
96 109 237 44 51 60
97 109 236 43 51 59
97 109 237 44 51 59
97 109 238 44 52 60
97 109 239 46 53 62
96 110 237 44 51 59
96 110 238 44 51 60
96 110 239 45 52 61
98 109 236 41 48 56
98 109 237 41 48 56
99 108 236 39 46 53
99 108 237 39 45 52
99 109 236 40 46 54
99 109 237 40 47 54
98 109 238 42 49 56
98 109 239 44 52 60
99 108 238 38 45 52
99 109 238 40 46 54
99 109 239 38 45 53
102 107 232 34 39 45
102 107 233 35 40 46
103 107 232 33 39 45
103 107 233 35 40 45
103 107 234 35 40 46
100 108 232 35 41 48
100 108 233 36 42 49
101 108 232 35 41 47
101 108 233 35 41 48
100 108 234 37 43 50
100 108 235 37 44 51
100 109 235 38 44 52
101 108 234 35 42 48
101 108 235 35 41 48
102 108 232 34 40 46
102 108 233 35 40 46
102 108 234 35 40 46
102 108 235 34 40 47
103 108 234 35 40 46
103 108 235 36 41 47
100 108 236 37 43 50
100 108 237 36 43 50
101 108 236 35 41 48
101 108 237 35 41 49
100 108 238 37 44 51
100 108 239 37 44 51
100 109 239 38 45 52
101 108 238 36 42 49
101 109 239 36 43 50
102 108 236 35 40 47
102 108 237 35 41 48
103 108 236 36 41 47
103 108 237 36 41 48
102 108 238 36 42 49
102 109 238 36 42 49
102 109 239 35 42 50
103 108 238 36 42 49
103 109 238 37 42 49
103 109 239 36 42 49
104 96 224 38 45 53
104 96 225 38 45 53
104 97 225 37 45 53
105 96 224 38 46 53
105 97 224 38 45 53
105 97 225 37 44 53
104 96 226 38 46 53
104 96 227 38 46 54
104 97 226 38 45 53
104 97 227 38 46 54
105 98 224 38 45 53
105 98 225 37 45 53
105 99 224 36 44 52
105 99 225 37 45 53
104 98 226 37 45 53
104 98 227 38 45 54
104 99 226 38 45 53
104 99 227 38 46 54
104 100 225 35 43 51
104 101 225 33 41 49
105 100 224 34 42 51
105 100 225 34 42 51
105 101 224 33 41 49
105 101 225 33 41 50
104 100 226 35 44 52
104 101 226 33 41 49
104 102 224 35 41 48
104 102 225 34 41 48
104 103 224 34 39 45
104 103 225 33 39 46
105 102 224 35 41 48
105 103 224 34 39 45
104 102 226 33 41 48
104 104 224 29 36 44
104 104 225 29 36 44
104 105 225 29 37 44
105 104 224 30 36 43
105 105 224 30 37 43
105 105 225 30 37 43
104 106 225 30 36 43
105 106 225 31 37 43
104 106 226 30 36 43
104 107 226 31 37 43
104 107 227 31 37 43
105 106 226 31 37 43
105 106 227 31 37 43
105 107 227 31 37 43
106 105 224 31 37 43
107 105 224 31 37 44
106 106 224 31 37 44
106 106 225 31 37 44
107 106 224 31 37 44
107 106 225 31 37 43
106 106 226 31 37 43
106 106 227 30 37 43
107 106 226 30 37 43
107 106 227 29 36 42
104 107 228 31 37 43
104 107 229 31 37 43
105 107 228 31 37 43
105 107 229 31 37 43
104 107 230 32 38 44
104 107 231 32 38 44
105 107 230 32 38 44
105 107 231 32 38 44
106 106 228 31 37 43
106 106 229 33 38 44
106 107 229 32 38 44
107 106 228 29 36 43
107 106 229 32 38 44
106 107 230 32 38 44
106 107 231 33 39 45
107 107 230 33 39 45
107 107 231 34 40 46
108 106 224 31 37 44
108 106 225 31 37 43
109 106 224 31 38 45
109 106 225 30 37 43
108 106 226 30 37 43
108 106 227 29 36 43
109 106 226 31 37 43
109 106 227 32 38 45
110 106 224 33 39 46
110 106 225 32 38 45
110 107 225 33 40 46
111 107 224 34 40 47
111 107 225 35 41 47
110 106 226 32 38 45
110 106 227 34 39 46
110 107 226 33 39 46
110 107 227 34 40 47
111 107 226 36 42 48
111 107 227 36 42 49
108 106 228 29 36 43
108 106 229 31 37 44
108 107 229 32 39 46
109 106 228 31 38 45
109 106 229 31 38 45
109 107 228 33 39 46
109 107 229 33 40 47
108 107 230 33 40 46
108 107 231 34 40 47
109 107 230 34 40 47
109 107 231 35 41 48
110 107 228 34 41 47
110 107 229 34 41 48
111 107 228 35 41 48
110 107 230 35 41 48
111 108 227 36 42 49
109 108 231 35 41 48
111 108 228 35 42 49
111 108 229 35 42 49
110 108 230 36 42 49
110 108 231 36 42 49
111 108 230 35 42 49
111 108 231 37 43 50
111 109 231 37 43 50
104 107 232 33 38 44
104 107 233 35 40 46
105 107 232 32 38 44
105 107 233 34 39 45
104 107 234 35 40 46
104 107 235 36 40 46
105 107 234 35 40 46
106 107 232 34 40 46
106 107 233 34 39 45
107 107 232 35 40 47
107 107 233 37 42 48
106 107 234 35 40 46
104 108 235 36 41 47
105 108 235 35 40 46
107 108 233 36 41 47
106 108 234 35 40 47
106 108 235 36 41 48
107 108 234 37 43 49
107 108 235 35 41 48
104 108 236 36 42 48
104 108 237 37 42 49
104 109 237 37 42 49
105 108 236 36 42 48
105 109 237 37 43 49
104 109 238 36 42 49
104 109 239 37 43 50
105 109 238 37 43 50
105 109 239 37 43 50
105 110 239 38 44 50
106 108 236 36 42 48
106 109 236 35 41 48
106 109 237 35 42 49
107 109 236 34 41 48
107 109 237 35 42 50
106 109 238 36 43 51
107 109 238 35 43 51
106 110 239 36 43 51
107 110 238 35 43 51
107 110 239 35 43 51
108 107 232 34 40 46
109 107 232 35 40 47
108 108 232 35 40 47
108 108 233 35 41 47
109 108 232 35 41 47
109 108 233 35 41 48
109 109 233 36 42 49
108 108 234 36 41 48
108 108 235 35 41 48
108 109 235 34 41 48
109 108 234 35 41 47
109 109 234 36 42 49
109 109 235 35 42 49
109 110 235 38 44 50
110 108 232 36 42 49
110 108 233 36 42 48
110 109 233 36 43 49
111 108 232 37 43 50
111 109 232 37 43 50
111 109 233 36 42 50
110 109 234 37 43 50
111 110 233 36 43 50
110 110 234 38 44 51
110 110 235 38 44 51
110 111 235 37 43 50
111 110 234 37 43 50
111 111 234 36 43 50
111 111 235 36 43 50
108 109 236 35 42 49
108 109 237 35 42 50
109 109 236 35 43 50
108 110 237 36 43 51
109 110 236 37 44 51
109 110 237 36 44 52
109 111 237 35 43 51
108 110 238 35 43 51
108 110 239 35 43 51
108 111 239 34 43 51
109 111 238 34 43 51
109 111 239 34 43 51
110 110 236 38 44 52
110 111 236 36 43 50
110 111 237 35 43 51
97 109 240 45 52 61
96 110 240 46 54 62
96 110 241 46 53 62
97 110 240 46 53 62
97 110 241 44 52 60
96 110 242 42 50 59
96 110 243 41 49 57
97 110 242 41 49 58
97 110 243 40 48 57
98 109 240 47 55 64
98 109 241 47 54 63
99 109 240 43 51 59
99 109 241 45 53 62
98 110 241 42 49 58
99 110 241 40 47 55
98 110 242 41 48 56
98 110 243 41 48 57
99 110 242 39 46 54
99 110 243 39 47 55
96 111 244 42 51 60
96 111 245 48 57 66
97 111 244 42 51 60
97 111 245 45 54 64
96 111 246 42 50 59
96 111 247 43 52 61
97 111 246 42 50 59
97 111 247 41 49 59
98 111 244 41 49 58
98 111 245 41 50 59
99 111 244 39 47 55
99 111 245 42 50 59
98 111 246 39 47 56
99 111 246 39 47 55
100 109 240 38 46 53
100 109 241 38 46 54
101 109 240 36 43 51
100 110 241 37 44 51
101 110 241 36 43 51
100 110 242 38 46 54
100 110 243 38 46 54
100 111 243 40 48 57
101 110 242 37 43 51
101 110 243 37 43 51
101 111 243 36 43 50
102 109 240 35 42 50
103 109 240 35 42 49
102 110 240 35 42 50
102 110 241 35 42 50
103 110 240 35 42 49
103 110 241 36 43 50
102 110 242 36 43 50
102 111 243 37 44 51
103 110 242 36 43 50
103 111 242 36 43 51
103 111 243 36 43 50
100 111 244 38 46 54
100 111 245 40 47 55
101 111 244 36 44 52
101 111 245 37 45 52
100 111 246 37 45 53
102 111 244 35 43 51
103 111 244 36 43 51
104 109 240 36 43 50
104 110 240 35 42 49
104 110 241 35 42 50
104 111 241 35 42 49
105 110 240 36 43 50
105 110 241 35 42 49
105 111 241 35 42 50
104 111 242 35 43 50
104 111 243 36 43 51
105 111 242 35 42 50
106 110 240 36 43 50
106 111 241 36 43 50
107 110 240 35 43 51
107 111 240 35 43 51
107 111 241 35 43 50
106 111 242 35 42 50
108 111 240 34 43 51
111 112 235 37 43 50
109 112 238 34 42 50
109 112 239 35 42 50
110 112 236 36 43 50
110 112 237 35 42 50
111 112 236 36 43 50
111 112 237 35 42 49
111 113 236 36 42 49
111 113 237 36 42 49
110 112 238 35 42 49
110 112 239 36 42 49
110 113 238 35 41 48
110 113 239 36 42 49
111 113 238 36 42 49
111 114 238 36 42 49
111 114 239 37 43 49
111 115 239 35 42 49
96 112 247 42 50 60
97 112 247 40 49 58
98 112 247 39 47 56
99 112 247 40 48 57
101 112 245 37 45 53
100 112 246 38 46 54
100 112 247 40 47 56
101 112 246 37 45 53
101 112 247 38 45 53
101 113 247 37 45 53
102 112 244 35 43 51
102 112 245 36 43 51
103 112 244 36 44 51
103 112 245 36 44 52
102 112 246 37 44 52
102 113 247 37 44 52
103 112 246 36 44 52
103 113 246 36 44 52
103 113 247 37 44 52
103 114 247 37 44 52
96 112 248 42 52 61
96 113 249 42 51 61
97 112 248 38 47 57
97 113 248 38 47 57
97 113 249 39 49 58
96 114 249 41 50 60
96 115 249 37 47 57
97 114 249 37 47 56
97 115 249 35 44 54
98 112 248 37 46 55
98 113 248 36 45 54
98 113 249 36 46 55
99 112 248 37 46 54
99 113 248 37 45 54
99 113 249 37 45 54
98 114 249 35 44 54
98 115 249 35 44 53
99 114 249 35 44 53
99 115 249 36 44 53
98 115 250 35 44 53
100 112 248 38 46 54
100 113 248 38 46 54
101 113 248 38 46 53
100 114 249 37 45 53
100 115 249 37 45 53
101 114 248 38 45 53
101 114 249 37 45 54
101 115 249 38 46 54
102 113 248 37 45 53
102 114 248 37 45 53
102 115 249 38 46 54
103 114 248 37 44 52
103 115 248 38 45 53
103 115 249 38 45 53
101 116 249 37 45 54
102 116 249 38 46 54
103 116 249 37 45 53
104 112 243 36 43 51
105 112 242 36 43 50
105 112 243 36 43 51
107 112 241 36 43 51
106 112 242 36 43 50
106 112 243 36 43 51
106 113 243 37 44 51
107 112 242 36 43 50
107 113 242 37 44 51
107 113 243 38 44 51
107 114 243 38 44 51
104 112 244 37 44 51
104 112 245 37 44 52
104 113 244 37 44 51
104 113 245 37 44 52
105 112 244 37 44 51
105 113 244 37 44 51
105 113 245 36 44 52
104 113 246 37 44 51
104 113 247 36 44 51
105 113 246 36 44 52
104 114 247 37 44 51
104 115 247 36 44 52
105 114 246 36 44 52
105 114 247 36 44 51
105 115 247 37 44 52
106 113 244 37 44 51
106 113 245 37 44 52
107 113 244 38 44 51
106 114 245 38 45 52
107 114 244 38 44 52
107 114 245 38 44 52
107 115 245 36 43 51
106 114 246 37 44 52
106 115 246 37 44 52
106 115 247 37 44 52
107 115 246 36 43 51
107 115 247 36 43 51
106 116 247 37 44 52
107 116 246 37 44 51
107 116 247 36 43 51
108 112 240 35 43 51
108 112 241 36 43 50
108 113 241 37 43 50
109 112 240 35 43 50
109 112 241 36 43 50
109 113 240 36 43 50
109 113 241 37 43 50
108 113 242 37 43 50
109 114 241 38 43 50
108 114 242 38 43 50
108 114 243 38 43 50
109 114 242 38 43 50
109 114 243 36 43 50
109 115 242 36 43 50
109 115 243 36 43 51
110 113 240 36 42 48
110 114 240 37 42 49
110 114 241 37 43 50
110 115 241 38 44 51
111 114 240 37 42 49
111 115 240 36 42 49
111 115 241 37 43 50
110 115 242 36 43 51
108 114 244 37 43 50
108 115 244 36 43 49
108 115 245 36 43 50
109 115 244 36 43 50
108 115 246 35 43 50
111 116 241 36 43 51
111 117 241 36 44 51
110 116 242 37 44 51
110 116 243 36 44 51
110 117 243 36 43 51
111 116 242 37 44 51
111 117 242 37 44 52
111 117 243 37 45 52
111 118 242 38 46 54
111 118 243 39 46 54
111 119 243 38 46 54
108 116 245 36 43 51
109 116 244 36 44 51
109 116 245 36 43 51
109 117 245 37 44 52
108 116 246 37 44 52
108 116 247 37 44 52
108 117 246 37 44 52
108 117 247 37 44 52
109 117 246 37 44 52
109 118 246 38 45 52
110 116 244 37 44 52
110 117 244 37 44 51
110 117 245 38 45 52
110 118 244 39 45 52
110 118 245 39 45 52
111 118 244 39 45 53
111 119 244 39 46 54
110 118 246 38 45 52
104 115 248 37 44 52
105 115 248 37 44 52
104 116 248 36 44 52
104 116 249 36 44 52
105 116 248 36 43 51
105 116 249 36 44 52
106 116 248 36 44 52
107 116 248 36 44 52
107 117 248 37 44 52
108 117 248 37 44 52
112 107 224 35 41 48
112 108 224 36 42 49
112 108 225 35 41 48
113 108 224 36 43 50
113 108 225 36 42 50
113 109 225 37 43 51
112 108 226 36 42 49
112 108 227 36 42 50
113 108 226 36 43 50
113 109 226 37 43 50
113 109 227 38 44 51
113 110 227 38 44 51
114 108 224 35 42 50
114 109 224 36 43 50
114 109 225 36 43 51
115 109 224 36 43 50
114 109 226 37 43 51
114 110 225 36 43 50
115 110 224 36 43 50
115 110 225 36 43 51
114 110 226 37 43 51
114 110 227 38 44 51
115 110 226 36 43 51
115 111 226 37 43 51
115 111 227 37 44 51
112 108 228 36 42 50
112 108 229 36 43 50
112 109 228 36 43 51
112 109 229 37 44 51
113 109 228 37 44 51
113 109 229 36 43 51
112 109 230 36 43 50
112 109 231 36 43 50
113 109 230 36 43 51
113 110 228 38 44 52
113 110 229 37 45 52
112 110 231 36 43 51
113 110 230 37 44 52
113 110 231 37 44 51
113 111 230 37 44 51
113 111 231 36 43 51
114 110 228 38 45 52
114 110 229 38 45 52
114 111 228 38 45 51
114 111 229 38 45 52
115 111 228 38 44 52
115 111 229 38 44 51
114 111 230 38 45 52
114 111 231 36 44 51
116 110 224 35 42 49
116 110 225 36 43 51
116 111 224 35 43 50
116 111 225 36 43 51
117 111 224 35 43 50
117 111 225 36 44 51
116 111 226 37 44 51
116 111 227 37 43 50
112 109 232 36 43 50
112 110 232 36 43 50
112 110 233 35 42 50
112 111 233 35 42 50
113 110 232 36 43 51
113 111 232 35 43 51
113 111 233 34 42 50
112 111 234 36 43 50
115 112 228 38 44 52
115 112 229 39 45 51
114 112 230 38 44 51
114 112 231 36 44 51
115 112 230 38 44 51
115 112 231 38 44 51
115 113 231 38 44 51
117 112 224 35 42 50
117 112 225 36 43 51
117 113 225 35 42 50
117 112 226 37 44 51
117 112 227 37 43 51
117 113 226 36 43 50
117 113 227 36 42 49
117 114 226 36 43 50
117 114 227 36 42 49
117 115 227 36 43 50
118 112 224 35 42 50
118 113 224 34 42 49
118 113 225 34 42 49
118 114 225 35 42 49
119 114 224 36 43 50
119 114 225 35 42 50
119 115 225 35 43 50
118 114 226 36 42 50
118 115 226 35 42 50
118 115 227 37 43 50
116 112 228 38 44 51
116 112 229 38 44 51
117 112 228 37 43 50
117 112 229 38 44 50
117 113 228 36 42 49
117 113 229 38 43 49
116 112 230 38 44 50
116 113 230 38 43 50
116 113 231 38 44 50
117 113 230 39 43 49
117 114 228 37 42 48
117 114 229 37 43 49
117 115 228 36 42 49
117 115 229 36 43 50
116 114 230 38 43 49
116 114 231 37 43 50
116 115 231 36 43 50
117 114 230 38 43 50
117 115 230 37 43 50
117 115 231 37 43 50
119 116 225 35 42 50
118 116 226 36 43 50
118 116 227 37 43 51
118 117 227 37 43 51
119 116 226 35 42 50
119 117 226 35 42 50
119 117 227 36 43 50
119 118 227 37 44 51
117 116 228 37 43 50
117 116 229 37 44 51
117 117 228 38 44 51
117 117 229 38 44 52
117 116 230 38 44 51
117 116 231 38 44 51
117 117 230 39 45 52
117 117 231 39 45 52
117 118 230 38 44 51
117 118 231 38 44 51
117 119 230 37 43 51
117 119 231 37 43 50
118 117 228 36 43 50
118 118 228 37 43 51
118 118 229 37 44 51
118 119 229 37 43 50
119 118 228 37 44 51
119 119 228 37 43 51
119 119 229 37 43 50
118 118 230 38 45 52
118 119 230 37 44 51
118 119 231 37 44 51
113 112 233 34 41 49
112 112 234 35 43 50
112 112 235 37 43 50
112 113 235 37 44 51
113 112 234 34 42 49
113 113 234 35 42 49
113 113 235 37 43 51
113 114 235 36 43 50
114 112 232 36 43 51
114 112 233 35 42 50
114 113 233 36 43 50
115 113 232 37 44 51
115 113 233 36 43 50
114 113 234 34 42 49
115 114 232 36 43 50
115 114 233 37 43 50
115 115 233 37 43 50
114 114 234 35 42 50
114 114 235 35 42 50
114 115 234 36 43 51
114 115 235 35 43 50
115 114 234 36 43 50
115 115 234 36 43 51
112 113 236 36 43 50
112 114 236 36 43 50
112 114 237 35 42 49
113 114 236 36 43 50
113 115 236 36 43 50
113 115 237 36 43 51
112 114 238 36 42 49
112 115 238 35 42 49
112 115 239 35 42 50
113 115 238 35 42 50
114 115 236 36 43 50
114 116 235 36 43 50
115 116 234 35 43 50
115 116 235 36 43 50
115 117 235 35 43 51
112 116 239 35 43 51
113 116 238 36 43 50
113 116 239 35 43 51
113 117 238 35 43 50
113 117 239 36 44 51
113 118 239 36 44 52
114 116 236 36 43 50
114 116 237 36 43 50
114 117 237 35 42 50
115 116 236 35 43 50
115 117 236 36 43 50
115 117 237 35 43 50
114 116 238 35 42 50
114 117 238 35 42 50
115 118 236 35 43 50
115 118 237 36 43 51
115 119 237 36 43 51
114 118 238 35 43 50
114 118 239 36 43 51
114 119 238 36 43 51
114 119 239 36 43 51
115 118 238 36 43 51
115 119 238 36 43 51
115 119 239 37 44 52
116 114 232 35 41 49
116 115 232 36 42 49
116 115 233 36 43 50
116 116 232 36 43 50
116 116 233 36 43 50
116 117 233 36 44 51
117 116 232 38 44 51
117 117 232 39 45 52
117 117 233 37 44 52
116 116 234 35 43 51
116 117 234 36 43 50
116 117 235 35 43 50
117 118 232 37 43 50
117 118 233 38 45 52
117 119 232 37 43 50
117 119 233 38 45 52
116 118 234 37 44 52
116 118 235 35 43 51
116 119 234 38 45 52
116 119 235 35 43 51
117 119 234 37 45 52
118 119 232 37 44 51
116 118 236 35 43 51
116 119 236 35 43 51
116 119 237 35 43 51
119 120 229 37 43 51
118 120 230 37 43 51
118 120 231 37 44 51
118 121 231 37 44 51
119 120 230 37 44 51
119 121 230 38 44 51
119 121 231 38 45 52
119 122 231 38 45 53
115 120 238 36 44 51
115 120 239 37 44 52
115 121 238 36 44 51
115 121 239 38 45 52
115 122 239 38 45 52
117 120 233 37 44 52
116 120 235 38 45 53
117 120 234 37 44 52
117 120 235 37 45 53
117 121 234 37 45 52
117 121 235 37 44 52
117 122 234 37 44 52
117 122 235 36 44 52
117 123 235 37 44 52
118 120 232 37 44 51
118 120 233 38 45 52
118 121 232 38 44 51
118 121 233 38 44 52
119 121 232 38 44 52
118 121 234 37 45 53
118 122 233 37 44 52
119 122 232 38 45 52
119 122 233 37 44 52
119 123 232 38 45 53
119 123 233 37 44 52
118 122 234 37 45 53
118 123 234 37 45 53
118 123 235 37 45 52
119 123 234 37 44 52
116 120 236 37 45 53
116 120 237 36 44 52
116 121 236 37 45 53
116 121 237 37 44 52
117 121 236 37 44 52
116 120 238 36 43 51
116 121 238 37 44 51
116 122 237 37 44 52
116 123 237 37 44 52
117 122 236 36 44 52
117 122 237 36 44 52
117 123 236 37 45 53
117 123 237 37 45 53
116 122 238 37 44 52
116 122 239 38 45 53
116 123 238 36 44 51
117 123 238 36 43 51
118 123 236 37 45 53
118 124 235 38 45 53
119 124 234 38 45 52
119 124 235 39 46 53
119 125 234 38 45 53
119 125 235 40 47 54
118 124 236 37 45 52
120 114 224 35 42 50
120 115 224 35 42 50
120 115 225 35 42 50
120 116 224 35 42 50
120 116 225 35 43 50
120 117 225 36 43 51
121 116 224 36 43 50
121 117 224 36 43 51
121 117 225 37 44 52
120 117 226 36 43 50
121 118 225 37 44 51
120 118 226 37 44 51
120 118 227 37 44 51
120 119 227 37 44 51
121 118 226 38 44 52
121 119 226 38 44 52
121 119 227 38 44 52
122 117 224 36 43 50
122 118 224 36 43 51
122 118 225 38 44 52
122 119 224 36 43 50
122 119 225 37 43 51
123 119 224 37 44 51
122 119 226 37 44 51
120 119 228 37 44 51
121 120 227 39 45 52
122 120 225 37 43 51
123 120 224 38 45 52
123 120 225 38 44 52
123 121 224 37 43 51
123 121 225 38 45 52
122 120 226 37 44 51
122 120 227 38 45 52
122 121 226 38 44 52
122 121 227 39 45 53
123 121 226 38 45 52
123 122 224 36 43 51
123 122 225 38 45 52
123 123 225 39 45 53
122 122 227 40 46 54
123 122 226 39 45 53
123 122 227 40 47 54
123 123 226 37 44 52
123 123 227 38 45 53
120 120 228 37 44 51
120 120 229 37 44 51
120 121 229 39 45 52
121 120 228 39 45 52
121 121 228 38 45 52
121 121 229 39 45 52
120 121 230 38 44 52
121 122 229 39 45 53
120 122 230 39 45 53
120 122 231 39 45 53
120 123 231 38 45 53
121 122 230 39 46 53
121 123 230 39 46 53
121 123 231 38 45 53
122 121 228 38 45 52
122 122 228 39 45 53
122 122 229 38 44 52
122 123 228 39 46 53
122 123 229 39 46 53
123 123 228 39 46 54
122 123 230 40 46 54
123 124 226 36 43 51
123 124 227 36 44 52
123 125 227 35 43 52
121 124 230 40 47 55
121 124 231 40 47 55
121 125 231 40 47 55
122 124 229 39 46 53
123 124 228 38 45 53
123 124 229 37 44 52
123 125 228 37 45 53
123 125 229 37 45 53
122 124 230 40 47 55
122 125 230 39 47 54
122 125 231 40 47 55
123 125 230 37 45 53
123 126 228 38 46 54
123 126 229 39 46 54
123 127 229 39 46 54
122 126 230 40 47 55
122 126 231 40 47 56
122 127 231 37 45 54
123 126 230 39 46 54
123 127 230 38 46 54
123 127 231 36 45 53
124 121 224 35 43 50
124 122 224 35 43 50
124 123 224 35 43 51
124 123 225 38 45 52
124 123 226 38 45 53
124 124 224 35 43 51
124 124 225 38 45 53
124 125 224 36 43 51
124 125 225 37 45 53
124 124 226 38 45 53
124 125 226 35 43 51
124 125 227 34 42 51
124 126 224 37 44 52
124 126 225 37 45 52
124 127 225 37 45 53
125 126 224 37 45 53
125 127 224 36 45 53
125 127 225 37 45 53
124 126 226 36 43 52
124 126 227 35 44 52
124 127 226 35 44 52
124 127 227 37 45 53
125 127 226 35 43 51
124 126 228 38 46 54
124 127 228 38 46 54
124 127 229 39 46 54
120 123 232 38 45 53
120 123 233 37 45 53
120 124 232 38 46 54
120 124 233 38 45 53
120 125 233 37 45 53
121 124 232 39 46 54
121 125 232 39 47 55
121 125 233 37 45 54
120 124 234 37 44 52
120 125 234 37 44 52
121 126 232 38 46 55
121 126 233 36 45 53
122 126 232 39 47 55
112 115 240 36 43 50
112 116 240 36 43 51
112 116 241 37 44 51
112 117 240 37 44 52
112 117 241 38 45 52
113 117 240 37 45 52
112 118 241 38 45 53
112 119 241 39 46 53
113 118 240 38 45 53
113 118 241 38 45 53
113 119 240 38 45 53
113 119 241 38 45 53
112 118 242 37 45 53
112 119 242 37 45 53
112 119 243 37 45 54
113 119 242 38 45 53
114 119 240 36 44 52
114 119 241 37 45 53
112 119 244 38 46 54
113 120 241 37 45 53
112 120 243 37 45 54
113 120 242 38 45 53
113 120 243 37 45 54
114 120 240 36 44 52
114 120 241 36 44 52
114 121 241 36 44 52
115 120 240 37 45 53
115 121 240 37 45 53
115 121 241 35 44 52
115 122 240 38 45 53
99 128 177 34 39 44
100 128 178 33 39 45
101 128 178 33 39 45
101 128 179 33 39 45
102 128 179 33 39 44
102 129 178 35 40 46
102 129 179 34 39 45
103 129 179 34 39 44
102 128 180 34 39 45
103 128 180 34 39 45
103 128 181 34 39 45
103 129 180 33 38 44
104 128 181 33 38 44
104 129 180 34 39 44
104 129 181 32 38 43
105 128 181 32 38 44
105 129 180 34 39 45
105 129 181 34 39 44
105 128 182 32 38 44
105 130 180 34 39 45
106 129 181 34 39 45
106 128 182 33 39 44
106 129 182 34 39 44
107 128 182 33 38 44
107 128 183 33 38 44
107 129 182 34 39 44
107 129 183 34 39 44
106 130 181 34 39 45
107 130 181 36 40 45
107 130 182 37 40 45
108 128 183 33 38 43
108 129 183 34 39 45
108 130 183 34 39 44
108 131 182 35 40 45
108 131 183 35 40 45
109 130 183 34 39 45
109 131 183 34 39 44
108 128 184 32 37 43
109 128 184 31 37 43
109 129 184 33 38 44
109 129 185 32 38 43
109 130 184 34 39 44
109 131 184 34 39 44
110 128 185 32 38 44
110 129 185 33 38 44
110 128 186 33 38 44
111 128 186 33 39 44
111 129 186 34 39 44
110 130 185 34 39 44
110 131 184 35 39 44
110 131 185 35 40 45
111 130 185 34 39 44
111 131 184 35 39 44
111 131 185 35 39 44
111 130 186 33 39 44
111 132 184 35 39 44
112 128 186 33 38 44
112 128 187 32 38 45
112 129 186 33 39 44
113 128 187 32 38 44
113 129 186 33 39 45
113 129 187 34 39 45
112 131 185 35 39 45
113 131 185 34 39 45
112 130 186 34 39 45
112 131 186 34 39 45
113 130 186 35 40 45
113 130 187 34 39 45
113 131 186 34 39 45
114 128 187 33 38 44
114 129 187 34 39 45
115 129 187 34 39 45
114 130 186 35 40 45
114 130 187 35 39 45
114 131 186 34 40 45
114 131 187 34 39 45
115 130 187 35 40 45
115 131 186 34 40 45
115 131 187 34 39 45
114 128 188 32 37 43
115 128 188 33 38 44
115 129 188 34 39 45
112 132 184 35 40 46
112 132 185 34 38 44
113 132 185 34 39 45
114 132 185 35 40 46
114 132 186 35 40 46
115 132 186 35 40 46
115 133 186 36 41 47
116 130 187 35 40 46
116 131 187 36 40 46
117 131 187 36 41 46
116 128 188 34 39 45
116 128 189 34 39 44
116 129 188 35 40 45
117 128 189 35 39 45
117 129 188 36 40 46
117 129 189 35 40 45
116 130 188 35 40 46
117 130 188 36 40 46
117 130 189 35 40 46
117 131 188 36 41 46
118 129 189 34 40 45
118 128 190 34 39 45
118 129 190 34 39 45
119 128 191 34 39 45
119 129 190 35 40 45
119 129 191 36 40 46
118 130 189 35 41 46
118 131 188 36 41 46
118 131 189 36 41 47
119 131 189 36 41 47
118 130 190 35 40 45
119 130 190 36 41 46
119 131 190 36 41 47
116 132 186 36 41 47
116 132 187 37 41 47
116 133 186 36 41 47
117 132 187 37 41 47
117 133 186 36 41 46
117 133 187 36 41 47
118 132 187 36 41 47
118 133 187 37 42 47
118 132 188 36 41 47
118 133 188 36 42 47
119 132 189 36 41 47
119 133 188 36 41 47
119 133 189 37 43 48
118 134 188 36 42 47
119 134 188 37 42 48
120 128 191 35 40 45
120 129 191 36 40 45
120 130 190 36 41 46
120 130 191 36 41 46
120 131 190 36 41 47
121 130 191 36 42 47
121 131 191 37 42 48
120 132 189 36 42 47
120 133 189 37 42 48
120 132 190 36 42 48
120 133 190 36 42 48
121 132 190 37 43 49
121 132 191 37 43 49
121 133 190 38 43 50
121 133 191 38 44 50
120 134 188 38 44 50
120 134 189 37 43 49
121 134 189 38 44 51
121 134 190 38 44 51
121 135 190 40 46 53
122 132 191 38 44 50
122 133 191 38 44 51
123 133 191 39 45 51
122 134 190 39 45 52
122 134 191 40 46 53
122 135 190 41 47 55
122 135 191 40 47 54
123 134 191 40 46 53
123 135 191 40 46 54
120 128 192 35 39 44
121 128 192 36 40 45
121 128 193 37 41 45
121 129 192 37 41 45
121 130 192 37 42 47
122 128 193 37 41 46
122 129 193 37 42 47
123 129 193 37 41 46
123 128 194 36 40 46
123 129 194 36 41 46
122 130 192 38 42 48
122 130 193 38 42 48
122 131 192 37 42 48
123 130 193 38 42 47
123 131 192 38 43 48
123 131 193 38 42 48
123 130 194 37 41 46
122 132 192 38 44 50
123 132 192 39 44 49
123 132 193 39 44 50
123 133 192 39 45 51
123 134 192 40 46 53
124 128 194 35 40 45
124 128 195 35 40 45
124 129 194 36 40 45
124 129 195 36 41 46
125 128 195 36 40 46
125 129 195 36 41 46
124 130 194 38 42 48
124 131 194 39 43 49
125 130 195 38 43 48
125 131 194 39 44 49
125 131 195 39 44 50
125 128 196 36 41 47
125 129 196 36 41 47
125 130 196 37 43 49
126 128 196 36 41 47
126 128 197 35 41 47
126 129 196 36 41 47
126 129 197 36 41 48
127 128 198 35 40 46
127 129 198 37 42 48
127 129 199 37 42 47
126 130 196 38 43 49
126 130 197 38 43 49
126 131 196 40 45 51
126 131 197 39 45 51
127 130 198 37 42 49
127 130 199 37 43 49
127 131 198 38 44 50
127 131 199 38 43 50
124 132 193 39 44 50
124 133 193 40 45 51
124 132 194 39 44 50
124 133 194 40 46 52
125 132 194 39 45 51
125 132 195 40 45 51
125 133 194 40 45 52
125 133 195 40 46 53
124 134 192 39 45 52
124 134 193 40 46 52
124 135 192 39 46 53
124 135 193 40 46 54
125 134 193 40 47 54
125 135 193 41 47 54
125 134 194 40 46 53
125 135 194 40 47 54
126 132 195 40 46 52
126 133 195 40 46 52
126 134 194 40 47 54
126 134 195 40 46 53
126 135 194 40 47 54
126 135 195 40 46 53
127 135 195 39 46 54
126 132 196 40 45 52
126 132 197 40 45 51
126 133 196 40 46 52
126 133 197 40 45 52
127 132 197 39 45 51
127 133 197 39 45 51
127 132 198 38 44 51
127 132 199 38 44 50
127 133 198 38 44 51
126 134 196 39 46 53
127 134 196 40 46 53
127 134 197 39 45 52
127 135 196 39 45 53
127 135 197 39 45 53
127 134 198 39 45 52
124 136 192 39 46 54
125 136 193 41 48 56
125 136 194 42 49 57
126 136 194 41 47 55
126 136 195 40 47 55
127 136 195 39 46 54
127 137 194 40 48 56
127 137 195 39 47 56
127 136 196 38 46 54
127 137 196 38 46 54
127 128 219 37 45 53
127 129 219 37 45 53
127 130 219 37 45 53
127 131 219 36 45 53
125 128 223 34 44 53
125 129 223 34 44 53
126 128 221 40 45 52
126 129 221 40 46 53
127 128 220 40 46 52
127 129 220 39 46 53
127 129 221 39 45 52
126 128 222 39 45 53
126 128 223 38 45 53
126 129 222 39 46 53
126 129 223 36 45 53
126 130 221 40 46 53
127 130 220 38 45 53
127 130 221 38 45 52
127 131 220 37 45 53
127 131 221 36 44 51
126 130 222 39 46 54
126 130 223 35 44 53
126 131 222 38 45 53
126 131 223 37 45 53
127 131 222 37 44 52
127 132 220 36 44 52
127 132 221 35 43 51
127 133 220 34 42 51
127 133 221 33 42 50
126 132 222 35 44 52
126 132 223 36 44 53
127 132 222 35 43 51
123 128 230 39 46 54
125 128 224 33 44 53
125 128 225 34 43 52
125 129 224 33 43 52
125 129 225 35 44 52
124 128 226 36 44 52
124 128 227 37 45 53
124 129 227 36 44 52
125 128 226 34 42 51
125 129 226 35 43 51
125 129 227 36 43 52
125 130 224 34 43 52
125 130 225 35 44 53
125 131 224 33 42 51
125 130 226 35 43 51
126 131 224 34 43 52
124 128 228 36 45 53
124 128 229 38 45 53
124 129 228 36 44 52
124 128 230 39 46 54
128 118 199 42 47 53
128 119 199 44 49 55
128 115 201 41 49 57
128 114 202 47 56 65
128 114 203 49 56 65
128 115 202 46 54 62
128 115 203 50 57 65
128 113 206 38 45 53
128 114 204 51 56 64
128 114 205 46 52 59
128 115 204 51 56 64
128 115 205 47 52 59
128 114 206 41 48 55
128 114 207 42 49 57
128 115 206 41 48 55
128 115 207 42 49 56
128 116 201 41 48 55
128 117 200 42 48 54
128 117 201 42 49 56
128 116 202 45 52 59
128 116 203 50 55 62
128 117 202 46 51 57
128 117 203 48 53 59
129 117 203 48 53 59
128 118 200 41 46 53
128 118 201 42 49 57
128 119 200 43 48 55
128 119 201 41 47 56
129 119 201 45 50 57
128 118 202 47 52 58
129 118 202 48 52 58
129 118 203 48 52 59
129 119 202 47 52 58
129 119 203 48 53 59
128 116 204 48 53 60
128 116 205 43 48 55
128 117 204 48 53 59
128 117 205 42 47 53
129 117 204 48 53 59
129 117 205 42 47 53
128 116 206 38 45 52
128 116 207 39 46 54
128 117 206 37 44 51
128 117 207 35 43 51
129 118 204 48 52 59
129 118 205 43 48 53
129 119 204 46 51 57
129 119 205 41 46 52
128 118 207 35 43 51
129 118 206 39 44 52
129 118 207 36 44 52
129 119 206 38 44 51
129 119 207 37 44 52
128 120 198 44 49 55
128 120 199 45 49 55
128 121 198 45 49 56
128 121 199 44 49 56
128 122 198 44 49 55
128 122 199 43 48 54
128 123 198 41 46 53
128 123 199 41 46 52
128 124 198 39 44 51
128 124 199 40 44 49
128 125 198 38 43 49
128 125 199 39 43 48
128 126 198 35 40 46
128 126 199 36 40 46
128 127 198 36 41 46
128 127 199 36 40 46
128 120 200 42 48 55
128 121 200 41 47 53
129 120 201 43 49 57
129 121 200 39 45 52
129 121 201 41 48 55
129 120 202 48 53 59
129 120 203 47 52 58
129 121 202 46 51 58
129 121 203 47 51 57
