ply
format ascii 1.0
comment PCL generated
element vertex 2191
property float x
property float y
property float z
property uchar red
property uchar green
property uchar blue
element camera 0
property float view_px
property float view_py
property float view_pz
property float x_axisx
property float x_axisy
property float x_axisz
property float y_axisx
property float y_axisy
property float y_axisz
property float z_axisx
property float z_axisy
property float z_axisz
property float focal
property float scalex
property float scaley
property float centerx
property float centery
property int viewportx
property int viewporty
property float k1
property float k2
end_header
299 723 137 87 93 103
296 724 136 81 87 97
296 725 136 81 88 97
297 724 136 80 86 96
297 725 136 81 87 97
296 726 136 82 88 98
296 727 136 84 90 100
297 726 136 83 89 99
297 727 136 85 92 102
298 724 136 80 86 95
298 724 137 79 86 95
298 725 136 81 87 96
298 725 137 81 87 96
299 724 137 79 85 94
299 725 137 81 87 96
298 726 137 89 95 104
298 727 137 98 104 113
299 726 137 88 94 103
299 727 137 104 110 119
300 720 137 87 92 101
300 721 137 86 92 102
300 720 138 85 91 100
300 721 138 85 91 100
301 720 138 82 88 98
301 721 138 83 89 98
300 722 137 87 93 103
300 723 137 83 89 99
300 722 138 86 92 101
300 723 138 85 91 100
301 722 138 83 89 99
301 723 138 84 90 99
302 720 138 83 89 99
302 720 139 88 94 103
302 721 138 81 88 97
302 721 139 82 88 97
303 720 139 95 100 109
303 721 139 83 89 98
302 722 138 82 88 97
302 722 139 81 87 97
302 723 138 82 88 97
302 723 139 80 86 95
303 722 139 81 87 96
303 723 139 80 86 95
300 724 137 80 86 96
300 725 137 80 86 95
300 724 138 82 88 97
300 725 138 80 87 96
301 724 138 82 88 97
301 725 138 81 87 97
300 726 137 87 93 103
300 727 137 99 104 114
300 726 138 83 90 100
300 727 138 92 98 109
301 726 138 85 92 101
301 727 138 92 98 108
302 724 138 80 86 95
302 724 139 80 86 94
302 725 138 81 87 96
302 725 139 81 86 95
303 724 139 80 85 94
303 725 139 82 87 96
302 726 138 82 88 98
302 726 139 80 86 96
302 727 138 85 91 100
302 727 139 82 88 97
303 726 139 81 87 95
303 727 139 81 87 96
296 728 136 85 92 102
296 729 136 86 92 102
297 728 136 86 92 102
297 728 137 93 99 109
297 729 136 84 91 101
297 729 137 86 93 102
296 730 136 87 92 102
296 731 136 85 91 100
297 730 136 85 91 100
297 730 137 83 89 98
297 731 136 85 90 100
297 731 137 84 90 99
298 728 137 102 107 117
298 729 137 95 101 111
299 728 137 106 111 121
299 729 137 97 104 114
298 730 137 84 91 100
298 731 137 82 89 98
299 730 137 82 89 100
299 731 137 81 88 98
299 731 138 79 87 97
296 732 136 84 91 101
296 733 136 86 93 103
296 733 137 87 94 105
297 732 137 83 89 99
297 733 137 84 91 102
296 734 136 90 97 108
296 734 137 97 104 115
296 735 137 102 110 121
297 734 137 96 103 115
297 735 137 105 113 125
298 732 137 81 88 98
298 733 137 85 92 102
299 732 137 81 88 98
299 733 137 87 93 102
299 732 138 81 88 97
299 733 138 85 91 100
298 734 137 94 101 112
298 735 137 104 111 122
299 734 138 87 94 105
299 735 138 88 96 107
300 728 137 103 109 119
300 729 137 97 104 114
300 728 138 96 102 113
300 729 138 92 99 109
301 728 138 93 99 108
301 729 138 88 95 104
300 730 138 81 89 100
300 731 138 79 87 97
301 730 138 81 88 98
301 731 138 81 87 97
301 731 139 81 87 97
302 728 138 88 94 103
302 728 139 84 90 99
302 729 139 80 86 96
303 728 139 82 88 97
303 729 139 80 86 96
302 730 139 81 88 97
302 731 139 81 88 97
303 730 139 82 89 98
303 731 139 82 89 99
300 732 138 81 87 97
300 733 138 82 88 98
301 732 138 82 88 98
301 732 139 84 90 99
301 733 138 83 88 98
301 733 139 85 90 99
300 734 138 83 90 99
300 735 138 82 89 99
301 734 138 85 91 100
301 734 139 86 91 100
301 735 139 82 88 97
302 732 139 84 90 99
302 733 139 85 91 100
303 732 139 83 89 99
303 733 139 84 90 99
302 734 139 85 91 100
302 735 139 83 89 97
303 734 139 85 90 100
303 735 139 83 88 97
304 707 139 78 85 94
304 704 140 77 83 91
304 704 141 76 82 91
304 705 140 77 83 91
305 704 141 78 84 92
305 705 141 77 83 92
304 706 140 78 84 93
304 707 140 78 84 93
305 706 141 79 85 94
305 707 141 81 87 95
306 705 141 77 83 92
306 704 142 80 86 94
306 705 142 78 84 93
307 704 142 84 90 99
307 704 143 85 91 100
307 705 142 84 90 98
307 705 143 91 96 105
306 706 141 78 84 93
306 707 141 80 85 94
306 706 142 79 84 93
306 707 142 79 85 93
307 706 142 85 91 99
307 707 142 79 85 93
304 708 139 83 89 98
304 709 139 101 107 116
304 710 139 94 101 111
304 711 139 93 100 110
304 708 140 83 90 99
304 709 140 98 103 113
305 708 140 80 87 96
305 708 141 79 86 95
305 709 140 87 94 103
305 709 141 82 89 98
304 710 140 93 100 110
304 711 140 89 96 106
305 710 140 90 96 105
305 710 141 85 92 101
305 711 140 88 95 105
305 711 141 87 94 104
306 708 141 80 86 94
306 709 141 79 86 95
306 708 142 79 85 93
307 708 142 77 83 92
307 709 142 76 83 91
306 710 141 82 89 98
306 711 141 87 94 103
307 710 142 79 85 94
307 711 142 83 89 98
308 704 143 90 96 105
308 705 143 95 100 109
308 706 143 89 94 103
308 707 143 82 88 97
309 707 143 84 89 98
308 708 142 78 84 92
308 708 143 81 87 95
308 709 143 80 86 94
309 708 143 82 87 96
309 709 143 81 86 95
308 710 143 80 86 95
308 711 142 80 86 95
308 711 143 81 87 96
309 710 143 82 87 95
309 711 143 83 89 97
304 712 139 91 98 109
304 713 139 83 92 102
304 714 139 83 91 102
304 715 139 86 93 103
304 712 140 86 94 105
304 713 140 80 88 99
305 712 140 88 95 106
305 712 141 90 97 107
305 713 140 82 89 99
305 713 141 86 93 103
304 714 140 78 86 96
304 715 140 77 85 94
305 714 140 76 84 93
305 714 141 76 83 93
305 715 140 77 83 92
305 715 141 76 83 92
306 712 141 90 96 106
306 713 141 91 97 106
307 712 141 88 95 104
307 713 141 90 96 105
307 712 142 81 88 97
307 713 142 80 87 96
306 714 141 79 86 96
306 715 141 76 83 92
307 714 141 81 88 97
307 715 141 77 84 93
307 714 142 79 85 94
307 715 142 79 85 94
304 716 139 88 93 103
304 717 139 82 89 98
304 718 139 82 89 98
304 719 139 97 102 111
304 716 140 80 86 96
304 717 140 78 85 94
305 716 140 77 83 92
305 716 141 78 84 93
305 717 140 76 83 92
304 718 140 81 88 97
304 719 140 93 98 108
305 718 140 79 85 94
305 719 140 84 90 99
306 716 141 79 84 93
306 717 141 77 83 92
307 716 141 79 85 94
307 717 141 77 84 92
307 716 142 80 86 94
307 717 142 80 86 95
306 718 141 78 84 93
306 719 141 80 86 95
307 718 141 78 84 93
307 719 141 78 85 94
307 718 142 80 86 95
307 719 142 79 85 94
308 712 142 78 84 94
308 712 143 79 85 94
308 713 142 75 82 91
308 713 143 74 81 90
309 712 143 79 86 94
309 713 143 76 83 92
308 714 142 77 83 92
308 714 143 77 83 92
308 715 142 80 86 94
308 715 143 80 86 95
309 714 143 80 85 94
309 715 143 80 86 95
310 712 143 77 84 94
310 713 143 78 85 94
310 715 143 82 88 97
308 716 142 79 85 94
308 716 143 80 86 94
308 717 142 85 91 100
308 717 143 83 89 97
309 716 143 80 86 94
309 717 143 82 89 98
308 718 142 87 92 101
308 719 142 83 89 98
309 718 143 91 96 106
309 719 143 94 99 109
310 716 143 79 85 94
310 717 143 81 88 97
310 718 143 89 95 105
310 719 143 93 98 108
308 704 144 88 94 103
308 705 144 89 95 104
309 704 144 81 87 96
309 704 145 79 86 94
309 705 144 81 87 96
309 705 145 79 85 94
309 706 144 81 87 96
309 707 144 83 89 97
310 704 145 80 86 95
310 705 145 79 85 94
310 704 146 81 87 96
311 704 146 86 91 100
311 704 147 90 96 104
311 705 146 80 87 96
311 705 147 89 94 103
310 706 144 80 86 95
310 706 145 80 86 96
310 707 144 81 86 95
310 707 145 78 84 93
311 706 145 79 86 95
311 707 145 78 85 94
311 706 146 78 85 94
311 707 146 77 84 93
309 708 144 80 86 94
309 709 144 81 86 94
310 708 144 78 84 93
310 708 145 78 84 93
310 709 144 80 86 94
310 709 145 80 86 94
311 708 145 78 84 93
311 709 145 80 86 95
311 708 146 78 84 93
310 710 144 82 87 96
310 711 144 84 91 100
311 710 145 87 93 102
311 711 145 95 100 110
310 712 144 84 90 100
310 713 144 88 94 103
311 712 144 95 101 111
311 712 145 99 105 114
311 713 144 101 107 116
311 713 145 102 108 118
310 714 144 87 93 102
310 715 144 84 90 99
311 714 144 93 99 108
311 714 145 95 101 110
311 715 144 84 90 99
311 715 145 86 92 101
310 716 144 81 87 96
310 717 144 82 88 98
311 716 144 82 88 97
311 716 145 82 88 97
311 717 144 83 89 98
311 717 145 83 89 97
310 718 144 86 93 102
310 719 144 92 98 107
311 718 144 83 89 98
311 718 145 83 89 97
311 719 144 86 92 101
311 719 145 82 88 96
312 704 147 93 99 107
312 705 147 88 94 102
312 706 147 77 84 93
312 707 146 78 84 93
312 707 147 78 84 93
313 706 147 76 83 92
313 707 147 78 84 93
312 704 148 94 100 108
312 705 148 93 98 107
313 704 148 92 97 106
313 704 149 89 95 104
313 705 148 88 94 103
313 705 149 85 91 100
313 706 148 78 85 94
313 707 148 77 84 92
314 704 149 87 93 102
314 705 149 84 90 99
314 704 150 83 88 97
314 705 150 83 89 98
315 704 150 80 86 95
315 704 151 78 84 92
315 705 150 77 83 92
315 705 151 78 84 93
314 706 149 79 86 94
314 707 148 78 84 93
314 707 149 77 84 92
315 707 149 78 84 92
315 706 150 76 82 91
315 707 150 78 83 92
312 708 146 79 85 94
312 708 147 79 85 94
312 709 146 81 87 96
312 709 147 79 86 95
313 708 147 80 86 94
313 709 146 83 89 98
313 709 147 81 87 96
312 710 145 88 94 103
312 711 145 98 103 112
312 710 146 86 93 102
312 711 146 98 104 113
313 710 146 88 94 103
313 710 147 85 91 100
313 711 146 95 101 110
313 711 147 85 91 100
314 710 147 81 87 96
314 711 147 80 87 96
313 708 148 81 87 96
313 709 148 80 86 95
314 708 148 81 87 96
314 708 149 81 87 95
314 709 148 80 86 95
315 708 149 80 86 94
315 709 148 79 85 94
315 709 149 80 85 94
314 710 148 80 86 95
314 711 148 80 86 95
315 710 148 81 86 95
315 710 149 80 86 95
315 711 148 81 86 95
315 711 149 80 86 94
316 704 151 76 82 90
316 705 151 75 81 90
317 705 151 76 82 91
316 706 150 75 81 90
316 706 151 76 82 90
316 707 150 78 84 92
316 707 151 80 86 95
317 706 151 78 84 92
317 707 151 85 91 100
316 709 149 80 85 94
316 708 150 80 85 94
316 708 151 83 88 97
316 709 150 79 85 93
317 708 151 88 94 103
317 709 151 79 86 94
316 710 149 79 85 94
316 711 149 79 85 93
316 710 150 79 85 93
316 711 150 77 84 92
317 710 150 78 84 93
317 710 151 77 83 92
317 711 150 77 83 91
317 711 151 77 83 91
318 709 151 79 86 94
318 710 151 78 84 93
318 711 151 76 82 91
316 704 152 76 82 90
317 704 152 76 82 90
317 704 153 78 83 91
317 705 152 77 84 92
317 705 153 77 84 92
317 706 152 82 88 97
317 707 152 89 95 104
318 704 153 80 85 93
318 705 152 81 87 96
318 705 153 81 87 96
318 704 154 83 89 97
319 704 154 86 92 100
319 704 155 88 94 103
319 705 154 85 92 101
319 705 155 90 96 105
318 706 152 89 95 104
318 706 153 88 94 103
318 707 152 90 96 105
318 707 153 90 96 105
319 706 153 87 93 102
319 707 153 87 94 103
319 706 154 86 92 102
319 707 154 85 92 102
318 708 152 89 95 104
318 708 153 86 93 102
318 709 152 85 91 100
319 708 153 83 90 100
319 709 153 87 93 102
318 710 152 80 86 95
318 711 152 76 83 91
319 710 152 83 90 99
319 710 153 87 93 102
319 711 152 80 87 95
312 712 145 97 103 113
312 713 145 100 106 116
313 712 146 95 102 111
313 713 146 97 103 113
312 714 145 98 103 112
312 715 145 88 94 103
313 714 146 93 99 108
313 715 146 85 91 100
314 712 147 85 91 100
314 713 146 98 104 113
314 713 147 91 97 106
314 714 146 92 98 107
314 714 147 86 92 101
314 715 146 83 90 99
314 715 147 80 87 96
314 712 148 82 88 96
315 712 148 83 88 97
315 713 148 81 88 97
315 714 148 79 86 95
315 715 148 78 85 94
312 716 145 82 88 96
312 717 145 81 87 96
313 716 146 81 87 95
313 717 146 79 85 93
312 718 145 82 87 96
312 719 145 81 86 95
313 719 145 79 84 93
313 718 146 79 85 93
313 719 146 78 84 92
314 716 146 79 85 94
314 716 147 78 84 93
314 717 146 78 83 92
314 717 147 76 82 90
315 716 147 79 85 93
315 717 147 77 83 91
314 718 146 78 84 92
314 718 147 77 82 91
314 719 146 77 83 91
314 719 147 77 83 91
315 718 147 78 83 91
315 719 147 78 83 92
315 716 148 81 87 96
315 717 148 83 89 97
315 718 148 81 87 95
315 719 148 80 86 94
316 712 149 82 87 96
316 713 149 81 87 96
317 713 149 81 87 95
316 712 150 80 86 94
317 712 150 80 85 94
317 713 150 80 86 94
316 714 148 77 83 92
316 714 149 78 84 93
316 715 148 79 86 95
316 715 149 80 86 95
317 714 149 77 84 92
317 715 149 80 86 95
317 714 150 77 83 92
317 715 150 80 85 94
318 712 151 77 83 91
318 713 151 77 83 91
319 713 151 77 83 91
318 714 150 76 82 91
318 714 151 76 82 90
318 715 150 77 83 92
318 715 151 76 82 91
319 714 151 76 82 90
319 715 151 79 85 93
316 716 148 88 93 102
316 716 149 89 95 103
316 717 148 92 97 105
316 717 149 94 99 107
317 716 149 87 92 101
317 717 149 88 93 102
316 718 148 87 92 101
316 719 148 83 89 97
317 718 149 84 90 98
317 719 149 84 90 98
318 716 150 80 86 94
318 716 151 78 83 92
318 717 150 81 87 95
319 716 151 77 83 91
319 717 151 79 84 93
318 719 149 83 89 97
318 718 150 82 87 96
318 719 150 82 88 96
319 718 150 82 87 95
319 718 151 81 87 95
319 719 150 82 88 96
319 719 151 81 87 95
319 712 152 78 83 92
319 713 152 77 83 91
319 714 152 75 82 90
304 720 139 95 100 109
304 721 139 82 88 97
304 722 139 82 88 97
304 723 139 81 87 96
304 720 140 90 96 105
304 721 140 83 89 98
305 720 140 84 90 99
305 721 140 83 89 98
304 722 140 84 89 98
304 723 140 82 88 97
305 722 140 84 89 98
305 723 140 82 87 96
306 720 141 82 88 97
306 721 141 81 87 96
307 720 141 80 86 95
307 721 141 80 86 94
307 720 142 78 85 94
306 722 141 82 88 97
306 723 141 81 87 96
307 722 141 81 87 96
307 723 141 81 87 95
304 724 139 81 86 95
304 725 139 82 87 96
304 726 139 82 87 95
304 727 139 81 87 95
304 724 140 81 86 95
304 725 140 79 85 93
305 724 140 80 86 94
305 725 140 79 85 94
304 726 140 80 86 94
304 727 140 81 87 95
305 726 140 80 85 94
305 726 141 80 86 95
305 727 140 80 86 96
305 727 141 79 86 95
306 724 141 80 87 96
306 725 141 81 87 96
307 724 141 81 87 96
307 725 141 82 88 97
306 726 141 82 88 98
306 727 141 80 87 97
307 726 141 83 89 99
307 727 141 88 95 105
307 727 142 101 107 117
308 720 142 80 86 95
308 721 142 79 85 94
309 720 143 90 95 104
309 721 143 82 89 98
308 722 142 81 87 95
308 723 142 81 87 95
309 722 142 81 88 97
309 722 143 82 88 98
309 723 142 79 85 94
309 723 143 80 86 95
310 720 143 93 99 108
310 721 143 85 91 100
310 722 143 82 88 98
310 723 143 82 88 97
308 724 142 79 85 94
308 725 142 80 86 96
309 724 142 78 84 94
309 724 143 80 86 95
309 725 142 80 86 96
309 725 143 81 87 97
308 726 142 83 90 100
308 727 142 100 106 116
309 726 142 84 91 101
309 726 143 84 91 101
309 727 142 98 104 114
309 727 143 92 99 109
310 724 143 81 88 97
310 725 143 81 88 98
310 726 143 83 90 100
310 727 143 86 92 102
304 728 139 81 87 96
304 729 139 80 86 96
304 730 139 83 89 99
304 728 140 81 87 97
304 729 140 83 89 99
305 728 140 83 89 99
305 729 140 91 98 108
304 730 140 88 95 105
304 731 140 96 102 112
305 730 140 100 106 116
305 731 140 101 108 118
306 728 141 84 91 102
306 729 141 90 97 108
307 728 141 94 101 111
307 729 141 95 102 112
307 728 142 100 107 117
307 729 142 96 103 113
306 730 141 99 106 116
306 731 141 95 103 114
307 730 141 98 104 115
307 731 141 88 97 108
307 730 142 95 102 113
307 731 142 87 95 106
304 732 140 87 94 105
304 733 140 83 90 100
305 732 140 93 100 111
305 733 140 87 95 105
305 733 141 91 98 108
304 734 140 83 89 98
304 735 140 81 88 97
305 734 140 83 90 100
305 734 141 87 94 104
305 735 140 80 86 96
305 735 141 80 87 97
306 732 141 96 103 113
306 733 141 95 102 113
307 732 141 88 97 108
307 733 141 95 102 112
307 732 142 87 95 106
307 733 142 92 99 109
306 734 141 89 96 106
306 735 141 83 89 99
307 734 141 96 102 112
307 735 141 86 92 102
307 734 142 95 101 111
307 735 142 86 92 101
308 728 142 104 111 121
308 729 142 95 102 113
309 728 142 101 107 117
309 728 143 97 103 114
309 729 142 96 103 114
309 729 143 95 102 113
308 730 142 92 100 110
308 731 142 85 93 104
309 730 142 94 101 112
309 730 143 95 102 112
309 731 142 88 96 106
309 731 143 92 99 109
310 728 143 89 95 105
310 729 143 91 98 109
310 730 143 93 100 110
310 731 143 96 102 112
311 731 143 97 103 112
308 732 142 83 92 103
308 733 142 84 91 102
309 732 142 81 89 100
309 732 143 83 90 101
309 733 142 80 88 98
309 733 143 81 88 98
308 734 142 86 93 103
308 735 142 83 89 98
309 734 142 83 89 98
309 734 143 81 88 97
309 735 142 81 87 96
309 735 143 81 87 96
310 732 143 89 95 105
310 733 143 84 90 99
311 732 143 94 100 110
311 733 143 84 90 100
310 734 143 82 88 97
310 735 143 82 88 97
311 734 143 84 90 99
311 720 144 90 95 104
311 721 144 83 88 97
311 722 144 84 90 99
311 723 144 87 93 102
311 724 144 85 91 101
311 725 144 85 92 101
311 726 144 83 90 99
311 727 144 80 87 97
311 728 144 81 88 98
311 729 144 83 90 100
311 730 144 85 92 102
311 731 144 88 94 104
311 732 144 86 92 102
311 733 144 82 88 98
311 734 144 84 90 99
311 735 144 85 91 100
312 720 145 82 88 96
312 721 145 83 88 97
313 720 145 78 84 93
313 721 145 82 88 97
313 720 146 76 82 91
313 721 146 80 86 95
312 722 145 89 94 104
312 723 145 97 103 112
313 722 145 89 95 105
313 723 145 96 102 111
313 722 146 85 91 100
313 723 146 90 96 105
314 720 146 77 83 92
314 721 146 77 83 92
315 720 147 78 83 92
315 721 147 79 85 93
314 722 146 77 84 93
314 723 146 80 87 96
315 722 147 78 84 93
315 723 147 79 85 94
315 720 148 78 84 93
312 724 145 94 101 110
312 725 145 88 95 104
313 724 145 91 97 107
313 725 145 86 92 102
313 724 146 86 93 103
313 725 146 82 89 99
312 726 145 83 90 99
312 727 144 80 86 95
312 727 145 79 86 95
313 726 145 83 89 98
313 727 145 81 87 95
313 726 146 82 88 97
313 727 146 80 86 95
314 724 146 81 87 97
314 725 146 80 86 95
315 724 147 80 86 94
315 725 147 79 85 93
314 726 146 81 87 96
314 727 146 80 86 95
315 726 147 79 85 94
315 727 146 80 86 95
315 727 147 80 86 95
316 720 148 81 87 96
316 721 148 81 87 96
317 720 149 85 91 100
317 721 148 90 96 105
317 721 149 89 95 104
316 722 148 85 91 100
316 723 148 87 93 102
317 722 148 91 97 106
317 722 149 96 101 110
317 723 148 91 96 106
317 723 149 91 97 106
318 720 149 83 89 98
318 721 149 88 94 103
318 720 150 81 87 95
318 721 150 84 90 99
319 720 150 80 87 95
319 720 151 80 87 95
319 721 150 83 89 99
319 721 151 83 89 99
318 722 149 96 101 110
318 723 149 93 99 108
318 722 150 91 97 107
318 723 150 88 95 104
319 722 150 88 95 104
319 722 151 86 93 102
319 723 150 90 96 105
319 723 151 91 96 105
316 725 147 79 85 94
316 726 147 78 84 93
316 727 147 79 85 94
316 724 148 81 87 96
316 725 148 79 85 94
317 724 148 81 87 96
317 724 149 84 91 100
317 725 148 79 85 94
316 726 148 79 85 93
316 727 148 79 85 94
317 726 148 80 86 94
317 727 148 81 87 96
318 724 149 84 90 99
318 725 149 80 86 95
318 724 150 84 90 100
312 728 144 81 87 96
312 728 145 83 88 97
312 729 144 82 88 97
312 729 145 83 89 97
313 728 145 84 90 98
313 729 145 85 90 99
312 730 144 82 88 98
312 730 145 82 88 97
312 731 144 82 89 98
312 731 145 81 87 97
313 730 145 82 88 97
313 731 145 81 87 97
314 728 146 84 90 98
314 729 146 85 90 99
315 728 146 84 90 99
315 728 147 85 92 101
315 729 146 85 91 100
315 729 147 92 98 107
314 730 146 82 89 98
314 731 146 85 92 102
315 730 146 84 91 101
312 732 144 80 87 97
312 732 145 80 87 96
312 733 144 81 87 96
312 733 145 81 87 96
313 732 145 82 88 97
312 734 144 83 89 98
316 728 147 86 92 101
316 728 148 85 91 100
288 736 135 90 100 112
288 737 135 87 96 108
289 736 135 97 105 117
289 737 135 93 101 112
288 738 135 82 90 102
288 739 135 82 90 101
289 738 135 81 89 100
289 739 135 81 88 99
290 736 135 95 103 115
290 737 135 97 104 115
291 736 135 92 99 111
291 737 135 97 104 115
290 738 135 82 90 100
290 739 135 82 89 100
288 740 135 84 91 101
288 741 135 85 92 103
289 740 135 86 92 102
289 741 135 89 95 105
288 742 135 86 93 104
288 743 135 89 96 106
289 742 135 87 94 104
290 740 135 87 93 103
291 736 136 88 96 107
291 737 136 91 98 109
290 738 136 81 89 100
290 739 136 82 90 100
291 738 136 85 92 103
291 739 136 83 91 101
289 741 136 88 94 104
289 742 136 86 92 102
289 743 136 86 92 102
290 740 136 89 95 105
290 741 136 89 95 105
291 740 136 87 94 104
291 741 136 87 94 105
290 742 136 82 89 99
290 743 136 83 89 99
291 742 136 82 89 99
291 743 136 82 89 98
292 736 136 86 94 104
292 737 136 88 95 105
293 736 136 86 93 103
293 737 136 87 94 104
292 738 136 87 93 103
292 739 136 86 92 102
293 738 136 87 94 103
293 738 137 88 94 103
293 739 136 88 94 103
293 739 137 88 93 103
294 736 136 87 94 105
294 737 136 87 93 104
294 737 137 88 95 105
295 736 136 91 98 109
295 736 137 96 103 114
295 737 137 97 103 114
294 738 137 87 93 103
294 739 137 86 92 102
295 738 137 85 92 102
295 739 137 83 89 99
292 740 136 87 94 104
292 741 136 89 95 106
293 740 136 88 94 104
293 740 137 86 93 103
293 741 136 88 95 105
293 741 137 85 92 103
292 742 136 86 92 102
292 743 136 86 92 102
293 742 136 93 99 109
293 742 137 95 102 112
293 743 136 98 103 113
293 743 137 97 103 113
294 740 137 84 90 100
294 741 137 83 90 100
295 740 137 82 89 99
295 741 137 82 88 98
294 742 137 89 95 106
294 743 137 89 96 106
295 742 137 81 88 98
295 743 137 85 92 101
288 744 135 93 99 110
288 744 136 86 93 103
288 745 136 84 91 101
289 744 136 84 91 101
289 745 136 84 91 101
288 746 136 86 92 102
288 747 136 85 91 101
289 746 136 85 92 102
289 747 136 82 89 99
290 744 136 84 90 100
290 745 136 86 92 102
291 744 136 82 88 98
291 745 136 83 90 99
290 746 136 85 92 102
290 747 136 82 90 100
291 746 136 83 89 99
291 747 136 84 91 101
288 748 136 90 96 105
288 749 136 90 96 106
289 748 136 86 93 103
289 749 136 89 96 106
288 750 136 89 95 106
288 751 136 86 93 104
289 750 136 89 96 107
289 751 136 90 98 109
289 751 137 94 102 114
290 748 136 88 95 105
290 749 136 87 94 105
291 748 136 91 98 108
291 749 136 88 96 106
291 749 137 87 94 105
290 750 136 87 95 106
290 751 136 95 102 114
290 751 137 102 109 120
291 750 137 89 97 108
291 751 137 105 112 123
292 744 136 86 92 101
292 745 136 84 90 99
293 744 136 93 99 108
293 744 137 94 100 110
293 745 136 84 91 101
293 745 137 86 93 103
292 746 136 82 89 99
292 747 136 83 90 100
293 746 136 83 89 99
293 746 137 83 90 100
293 747 137 86 93 103
294 744 137 92 99 109
294 745 137 90 96 106
295 744 137 88 94 104
295 745 137 86 93 103
294 746 137 88 95 105
294 747 137 93 99 109
295 746 137 88 96 107
295 747 137 100 106 118
292 748 136 88 94 104
292 748 137 91 97 107
292 749 137 88 95 106
293 748 137 92 98 108
293 749 137 89 96 106
292 750 137 89 97 108
292 751 137 100 108 119
293 750 137 89 96 107
293 751 137 93 100 111
294 748 137 96 102 113
294 749 137 91 98 108
295 748 137 102 108 119
295 749 137 96 103 113
295 749 138 95 102 113
294 750 137 88 95 106
294 751 137 89 97 107
295 750 137 90 97 108
295 751 137 88 96 106
295 750 138 92 99 110
295 751 138 88 95 106
296 736 137 106 113 124
296 737 137 103 110 121
297 736 137 103 111 122
297 737 137 100 108 119
296 738 137 89 97 107
296 739 137 83 90 100
297 738 137 91 99 109
297 739 137 83 91 101
297 739 138 82 89 100
298 736 137 104 111 123
298 737 137 100 108 119
298 736 138 102 109 121
298 737 138 97 104 115
299 736 138 92 100 111
299 737 138 95 102 113
298 738 138 84 92 103
298 739 138 81 88 98
299 738 138 84 92 102
299 739 138 81 88 97
296 740 137 82 89 98
296 741 137 81 88 97
297 740 137 81 87 97
297 741 137 78 85 95
297 740 138 80 87 97
297 741 138 79 85 95
296 742 137 80 87 96
296 743 137 81 88 97
297 742 138 82 87 97
297 743 138 81 88 97
298 740 138 81 87 97
298 741 138 82 88 97
299 740 138 82 88 97
299 741 138 85 91 100
298 742 138 83 89 98
298 743 138 82 88 97
299 742 138 83 89 98
299 743 138 82 88 98
300 736 138 82 89 99
300 737 138 85 92 102
300 737 139 81 87 97
301 736 139 82 88 98
301 737 139 83 89 98
300 738 138 81 87 97
300 738 139 80 86 96
300 739 138 81 87 97
300 739 139 82 88 97
301 738 139 83 89 98
301 739 139 85 91 101
302 736 139 83 89 98
302 737 139 84 90 99
303 736 139 83 89 98
303 737 139 82 89 98
302 738 139 86 92 101
302 739 139 89 95 104
303 736 140 83 89 98
303 737 140 83 89 98
303 738 140 86 92 101
303 739 140 88 94 103
300 740 138 83 89 98
300 740 139 87 93 102
300 741 138 87 92 101
300 741 139 89 94 103
301 740 139 97 102 111
301 741 139 101 106 115
300 742 138 83 89 98
300 742 139 82 88 97
300 743 138 82 88 97
300 743 139 82 88 98
301 742 139 85 92 101
301 743 139 82 88 98
302 740 139 98 103 113
302 741 139 101 107 116
302 742 139 87 93 103
302 743 139 83 90 100
302 740 140 100 106 115
302 741 140 96 102 112
303 740 140 93 99 108
303 741 140 88 95 104
302 742 140 85 91 101
302 743 140 84 90 100
303 742 140 84 91 101
303 743 140 84 91 101
296 744 137 84 90 100
296 745 137 85 93 103
297 744 138 83 89 99
297 745 138 89 96 107
296 746 137 93 101 112
296 747 137 109 116 127
296 746 138 100 107 118
296 747 138 113 119 130
297 746 138 100 107 118
297 747 138 108 114 125
298 744 138 83 90 99
298 745 138 88 95 105
299 744 138 85 91 100
299 745 138 88 94 104
299 745 139 89 95 105
298 746 138 92 99 110
298 747 138 95 102 113
299 746 138 90 97 107
299 746 139 90 97 107
299 747 138 92 99 109
299 747 139 92 98 109
296 748 137 112 119 130
296 748 138 106 113 124
296 749 138 94 101 112
297 748 138 97 104 116
297 749 138 90 97 108
296 750 138 89 97 107
296 751 138 90 97 107
297 750 138 91 98 108
297 751 138 89 96 106
297 751 139 90 96 106
298 748 138 91 98 110
298 748 139 89 97 108
298 749 138 91 97 108
298 749 139 90 97 107
299 748 139 89 96 107
299 749 139 89 96 107
298 750 139 91 97 107
298 751 139 92 98 108
299 750 139 90 97 107
300 744 139 85 91 101
300 745 139 89 95 105
301 744 139 84 91 101
301 745 139 89 97 107
300 746 139 94 100 110
300 747 139 93 99 110
301 746 139 103 109 120
301 745 140 95 102 113
301 746 140 106 113 123
301 747 140 104 110 121
302 744 140 85 92 103
302 745 140 97 104 116
303 744 140 84 92 102
303 745 140 95 103 114
303 745 141 90 99 110
302 746 140 110 116 128
302 747 140 108 115 126
303 746 140 110 117 129
300 748 139 87 94 105
300 749 139 88 94 105
300 749 140 87 93 103
301 748 140 90 97 107
288 752 136 86 93 105
288 752 137 87 96 107
288 753 137 97 105 117
289 752 136 88 96 108
289 752 137 92 101 113
289 753 137 96 105 118
288 754 137 108 116 128
288 755 137 105 113 125
289 754 137 104 113 126
289 755 137 98 108 120
290 752 137 101 109 121
290 753 137 101 109 121
291 752 137 106 113 125
291 753 137 100 107 119
290 754 137 105 114 127
290 755 137 97 106 120
291 754 137 104 112 124
291 755 137 92 102 114
288 756 137 99 107 119
288 757 137 92 100 111
289 756 137 99 107 119
289 757 137 101 107 118
288 758 137 87 95 105
289 758 137 100 106 116
288 758 138 88 95 105
288 759 138 82 89 99
289 758 138 95 101 111
289 759 138 86 93 103
290 756 137 95 103 116
290 757 137 95 103 114
291 756 137 89 97 110
291 757 137 86 94 106
291 757 138 86 94 105
290 758 138 95 102 112
290 759 138 89 96 106
291 758 138 87 94 105
291 759 138 88 95 106
292 752 137 100 108 119
292 753 137 100 107 119
293 752 137 92 100 112
293 753 137 97 105 117
292 754 137 103 111 122
292 755 137 98 106 118
293 754 137 101 109 120
293 755 137 105 112 124
293 755 138 104 112 123
294 752 137 89 97 108
294 753 137 93 101 112
294 752 138 89 96 107
294 753 138 91 99 110
295 752 138 88 95 106
295 753 138 89 97 107
294 754 138 94 102 113
294 755 138 98 106 118
295 754 138 89 96 107
295 755 138 89 96 108
292 756 137 87 95 107
292 756 138 90 98 109
292 757 138 85 93 103
293 756 138 95 102 113
293 757 138 84 92 102
292 758 138 87 94 104
294 756 138 94 101 112
288 760 138 82 89 99
288 761 138 83 90 100
289 760 138 85 92 103
289 761 138 90 97 108
288 762 138 87 94 105
290 760 138 93 99 110
296 752 138 89 95 105
296 753 138 90 96 106
297 752 138 89 95 105
297 752 139 88 95 105
297 753 138 89 95 105
296 754 138 89 96 106
304 736 140 83 89 99
304 737 140 84 90 99
305 736 140 83 89 99
305 736 141 83 89 99
305 737 140 84 90 100
305 737 141 83 89 99
304 738 140 85 91 101
304 739 140 85 92 101
304 739 141 83 89 99
305 738 141 82 89 99
305 739 141 83 90 100
306 736 141 83 90 100
306 737 141 83 90 100
307 736 141 84 91 101
307 737 141 87 95 105
307 736 142 84 91 101
307 737 142 92 99 109
306 738 141 89 96 106
306 739 141 87 94 104
307 738 141 99 105 115
307 738 142 103 109 119
307 739 142 91 98 108
304 740 140 85 91 101
304 740 141 84 90 100
304 741 140 86 92 101
304 741 141 85 91 100
305 740 141 84 91 101
305 741 141 85 91 101
304 742 141 87 93 102
304 743 141 86 92 102
305 742 141 86 92 101
305 743 141 86 92 101
306 740 141 84 91 101
306 741 141 85 91 100
306 740 142 83 90 100
306 741 142 84 90 99
307 740 142 82 90 99
308 736 142 82 89 98
308 737 142 92 98 108
309 736 142 83 89 98
309 736 143 84 89 98
309 737 142 85 91 101
309 737 143 86 91 101
308 738 142 98 104 114
308 739 142 88 95 105
309 738 143 87 93 103
310 736 143 85 90 99
310 737 143 85 91 100
304 744 141 86 93 103
310 736 144 85 91 100
320 694 159 71 76 83
320 695 158 73 79 86
320 695 159 73 78 85
320 696 158 75 81 88
320 696 159 74 79 86
320 697 158 81 86 94
320 697 159 77 82 90
321 697 159 76 81 89
320 698 157 75 81 89
320 699 157 73 79 87
320 698 158 77 83 91
320 698 159 78 83 91
320 699 158 73 79 87
321 698 158 73 79 87
321 698 159 74 80 88
321 699 158 72 79 87
321 699 159 73 78 86
322 699 159 77 82 89
320 703 155 78 84 93
320 700 157 71 77 85
320 701 156 72 78 85
320 701 157 71 77 85
321 701 157 72 78 86
320 700 158 72 78 86
321 700 158 75 81 89
321 700 159 78 83 91
321 701 158 75 81 89
320 702 156 73 79 87
320 702 157 75 80 88
320 703 156 76 83 91
321 702 157 75 81 89
321 703 157 76 82 90
321 702 158 76 81 89
321 703 158 75 80 88
322 700 159 84 89 96
322 701 158 82 87 95
322 701 159 87 92 99
322 702 158 79 85 92
322 702 159 81 86 94
322 703 158 75 81 89
322 703 159 77 82 90
323 703 159 76 81 89
320 687 166 68 72 79
320 687 167 67 72 79
320 682 171 70 74 80
320 683 170 67 72 79
320 683 171 69 73 80
320 680 173 68 72 78
320 681 172 69 73 79
320 681 173 70 73 78
320 680 174 66 70 76
320 680 175 64 68 74
320 681 174 68 72 78
320 681 175 64 69 75
320 682 172 70 74 80
320 682 173 70 74 79
320 683 172 70 74 81
320 683 173 71 75 81
321 683 173 73 77 84
320 682 174 69 73 78
320 682 175 66 70 76
321 682 175 65 70 76
321 683 174 73 77 84
321 683 175 69 74 81
320 684 169 67 73 80
320 685 168 66 72 79
320 685 169 67 72 79
320 684 170 67 72 79
320 684 171 68 73 79
320 685 170 67 72 79
320 685 171 68 73 80
321 685 171 70 75 82
320 686 168 66 71 79
320 686 169 66 72 79
320 687 168 67 72 79
320 687 169 68 74 81
321 687 168 69 74 81
321 687 169 71 77 83
320 686 170 67 72 79
321 686 170 69 74 81
321 686 171 73 78 85
321 687 170 76 81 87
321 687 171 78 82 89
322 687 171 77 82 89
320 684 172 70 74 81
321 684 172 70 75 82
321 684 173 76 80 87
321 685 172 70 76 83
321 685 173 74 80 87
321 684 174 82 86 93
321 684 175 80 84 91
321 685 174 78 83 90
321 686 172 76 82 89
321 686 173 76 82 89
321 687 172 78 83 91
322 685 175 77 82 89
322 686 173 79 85 93
322 687 172 77 82 90
322 687 173 77 83 91
322 686 174 78 83 91
322 686 175 75 81 89
322 687 174 76 82 90
322 687 175 76 81 89
323 687 175 72 78 86
320 679 178 72 76 82
320 679 179 70 75 81
320 679 180 68 72 78
320 679 181 63 68 73
320 678 182 61 65 71
320 678 183 60 64 70
320 679 182 62 66 71
320 679 183 60 64 70
320 680 176 64 69 74
320 680 177 66 70 76
320 681 176 62 67 73
320 681 177 64 68 74
321 681 177 66 71 77
320 680 178 67 71 77
320 680 179 65 70 76
320 681 178 67 71 77
320 681 179 69 74 80
321 681 178 69 74 80
321 681 179 74 78 85
321 682 176 63 68 75
321 682 177 65 69 76
321 683 176 68 73 80
321 683 177 66 70 77
321 682 178 69 74 81
321 682 179 75 79 86
321 683 178 69 74 80
321 683 179 73 78 85
322 683 178 67 72 79
322 683 179 70 75 82
320 680 180 64 69 75
320 680 181 63 68 75
321 681 180 73 78 85
321 681 181 69 74 81
320 680 182 62 67 73
320 680 183 59 64 69
321 680 182 60 65 72
321 681 182 64 69 75
321 682 180 77 82 89
321 682 181 69 74 82
321 683 180 74 79 86
321 682 182 64 69 76
322 683 180 68 74 81
322 683 181 65 70 78
321 684 176 71 76 83
322 684 176 73 78 85
322 684 177 65 70 76
322 685 176 72 77 84
322 685 177 65 70 77
322 684 178 65 70 77
322 684 179 65 71 78
322 685 178 63 67 74
322 685 179 60 66 72
322 686 176 71 76 83
322 686 177 67 72 78
322 687 176 73 79 86
323 687 176 73 78 85
323 687 177 69 74 80
322 686 178 64 68 75
323 686 178 64 69 75
323 686 179 61 66 72
323 687 178 64 68 74
323 687 179 62 67 73
322 684 180 63 69 75
322 685 180 60 65 71
320 691 163 83 89 97
320 688 165 67 73 81
320 689 165 69 75 82
320 688 166 69 74 81
320 688 167 71 75 82
320 689 166 69 74 81
320 689 167 70 75 82
321 689 167 70 75 81
320 690 164 74 79 87
320 690 165 70 76 83
320 691 164 78 83 91
320 691 165 72 77 84
321 691 164 77 82 89
321 691 165 72 77 84
320 690 166 69 74 81
321 690 166 70 75 82
321 690 167 71 75 82
321 691 166 70 75 82
321 691 167 71 76 82
322 691 166 71 76 83
322 691 167 71 75 82
320 692 161 82 87 95
320 693 160 74 79 86
320 693 161 75 80 87
320 692 162 78 84 92
320 692 163 78 84 91
320 693 162 73 78 86
321 692 163 75 81 88
321 693 162 71 77 85
321 693 163 71 77 84
320 694 160 73 77 84
320 694 161 72 77 84
320 695 160 72 76 83
321 694 161 71 76 83
321 695 160 72 77 83
321 695 161 72 77 83
321 694 162 70 75 83
321 694 163 68 74 82
321 695 162 70 75 82
322 694 163 69 74 81
322 695 162 69 75 82
322 695 163 70 75 82
321 692 164 76 81 88
321 692 165 71 76 84
321 693 164 70 76 83
321 693 165 70 76 84
322 692 165 71 76 83
322 693 164 69 75 83
322 693 165 70 76 83
322 692 166 72 77 84
322 692 167 72 76 83
322 693 166 71 77 84
322 693 167 71 76 83
323 693 167 70 75 82
322 694 164 70 76 84
322 694 165 75 80 87
322 695 164 74 79 86
322 695 165 83 88 95
323 695 165 84 89 96
322 694 166 71 77 84
323 694 166 73 78 85
323 694 167 70 75 82
323 695 166 81 85 92
323 695 167 72 77 84
321 688 168 70 75 81
321 688 169 70 75 81
321 689 168 70 75 81
321 689 169 71 75 81
321 688 170 76 80 87
321 690 168 70 75 81
322 689 169 70 74 80
322 688 170 71 76 82
322 688 171 76 81 87
322 689 170 71 75 81
322 689 171 75 79 86
322 690 168 70 74 80
322 690 169 70 74 80
322 691 168 71 75 81
322 691 169 70 74 80
323 691 169 69 74 80
322 690 170 69 74 80
322 690 171 73 77 84
323 690 170 68 72 79
323 690 171 71 75 82
323 691 170 68 73 80
323 691 171 68 73 80
322 688 172 75 80 88
322 688 173 72 79 87
322 689 172 78 82 89
322 689 173 76 81 89
323 689 172 78 83 90
323 689 173 72 78 86
322 688 174 71 78 86
323 688 174 73 79 87
323 688 175 74 80 88
323 689 174 68 74 82
323 689 175 70 76 84
323 690 172 75 79 87
323 690 173 69 74 81
323 691 172 70 74 81
323 691 173 67 71 77
323 690 174 64 69 76
323 690 175 64 70 77
322 692 168 71 75 82
323 692 168 71 76 82
323 692 169 70 74 81
323 693 168 70 74 81
323 693 169 70 74 81
323 692 170 69 74 80
323 692 171 69 74 81
323 693 170 69 74 81
323 693 171 70 74 81
323 694 168 68 73 80
323 694 169 68 73 79
323 695 168 68 73 80
323 692 172 70 74 81
324 691 173 67 71 77
324 690 174 64 68 75
324 690 175 62 68 75
324 691 174 65 69 75
324 691 175 64 68 75
324 693 170 70 74 81
324 693 171 72 77 83
324 694 169 69 73 80
324 695 168 68 72 79
324 695 169 68 72 78
324 694 170 77 80 87
324 694 171 81 84 91
324 695 170 74 77 84
324 695 171 76 80 86
324 692 172 69 73 79
324 692 173 66 70 77
324 693 172 71 75 81
324 693 173 67 71 77
324 692 174 64 68 75
324 692 175 63 68 74
324 693 174 64 68 75
324 693 175 62 66 72
324 694 172 75 79 85
324 694 173 66 70 77
324 695 172 72 75 82
324 695 173 65 69 75
325 695 173 60 65 71
324 694 174 62 67 74
324 694 175 61 65 72
324 695 174 60 65 72
325 694 175 61 65 72
325 695 174 60 65 71
325 695 175 61 65 71
321 696 160 74 78 84
321 696 161 73 77 83
321 697 160 74 79 85
321 697 161 74 77 83
321 696 162 71 76 82
321 698 160 74 79 85
322 697 161 72 76 82
322 696 162 70 75 82
322 696 163 71 75 82
322 697 162 70 75 81
322 697 163 70 75 82
323 697 163 69 74 81
322 698 160 74 79 85
322 698 161 72 77 83
322 699 160 78 83 90
322 699 161 74 79 86
322 698 162 70 75 81
322 699 162 70 75 82
323 698 162 70 74 81
323 698 163 68 74 81
323 699 162 70 75 82
323 699 163 69 74 82
322 696 164 71 76 83
323 696 164 71 76 83
323 696 165 76 80 88
323 697 164 69 74 81
323 697 165 71 76 83
323 696 166 72 77 84
323 696 167 73 78 85
323 697 166 70 75 82
323 698 164 66 72 79
323 698 165 67 72 79
323 699 164 69 75 82
323 699 165 70 75 83
322 700 160 86 91 98
322 700 161 80 85 92
322 701 160 88 92 100
323 700 161 75 80 87
323 701 160 83 88 95
323 701 161 76 81 89
323 700 162 71 76 83
323 700 163 72 77 85
323 701 162 71 76 83
323 701 163 73 78 85
323 702 160 76 81 89
323 702 161 72 77 85
323 703 160 75 80 87
323 703 161 71 76 83
323 702 162 71 76 83
323 700 164 75 80 88
324 696 167 70 75 82
324 697 166 69 74 81
324 697 167 69 74 81
324 698 165 68 73 80
324 699 165 77 82 89
324 698 166 68 74 81
324 698 167 67 72 80
324 699 166 71 77 85
324 699 167 66 73 81
324 701 162 72 77 84
324 701 163 74 79 86
324 703 161 70 75 82
324 702 162 72 76 83
324 702 163 71 75 82
324 703 162 71 75 82
324 703 163 71 75 82
324 700 164 82 87 94
324 700 165 88 92 100
324 701 164 82 87 94
324 701 165 87 91 98
324 700 166 79 85 93
324 700 167 74 80 88
324 701 166 85 91 99
325 700 167 78 84 92
325 701 166 81 87 94
325 701 167 78 84 92
324 702 164 73 78 85
324 702 165 76 81 88
324 703 164 70 75 81
325 702 165 74 79 86
325 703 164 70 75 82
325 703 165 69 73 80
325 702 166 75 81 88
325 702 167 75 81 89
325 703 166 69 74 81
325 703 167 70 75 83
324 696 168 68 73 80
324 696 169 67 72 79
324 697 168 67 72 79
324 697 169 67 71 78
324 696 170 68 72 78
324 696 171 68 72 78
324 697 170 67 71 77
324 697 171 67 71 77
325 697 171 66 70 76
324 698 168 66 71 78
324 698 169 66 70 77
324 699 168 67 73 81
325 698 169 67 72 78
325 699 168 69 74 82
325 699 169 67 72 79
324 698 170 66 70 76
325 698 170 66 71 77
325 698 171 67 71 76
325 699 170 67 72 78
325 699 171 68 71 77
324 696 172 65 69 76
325 696 172 63 67 73
325 696 173 62 66 72
325 697 172 65 69 74
325 697 173 63 66 72
325 696 174 61 65 71
325 696 175 60 64 70
325 697 174 61 65 71
325 698 172 66 70 76
325 698 173 62 67 73
325 699 172 66 70 76
325 699 173 64 69 75
325 698 174 62 66 72
325 699 174 63 68 73
325 700 168 72 78 85
325 700 169 67 72 80
325 701 168 73 79 87
325 701 169 67 73 80
325 700 170 67 71 78
325 700 171 67 71 77
325 701 170 65 70 76
325 702 168 73 79 87
325 702 169 69 74 82
325 703 168 68 74 82
326 700 171 67 71 77
326 701 170 66 70 77
326 701 171 65 70 76
326 702 169 67 72 79
326 703 168 67 73 81
326 703 169 66 71 78
326 702 170 65 70 77
326 702 171 67 71 77
326 703 170 66 71 77
326 703 171 68 73 79
325 700 172 67 70 76
326 700 172 66 70 76
326 700 173 64 69 75
326 701 172 66 70 76
326 701 173 65 70 77
326 702 172 69 73 79
326 703 172 69 74 80
323 688 176 74 80 87
323 688 177 70 74 81
323 689 176 73 78 85
323 689 177 71 75 82
323 688 178 66 70 76
323 689 178 66 71 77
323 690 176 67 72 80
324 689 177 70 74 81
324 690 176 65 70 78
324 690 177 66 70 76
324 691 176 63 68 74
324 691 177 62 67 73
324 692 176 62 66 73
324 692 177 61 65 71
324 693 176 61 65 71
325 693 176 61 65 70
320 704 155 89 95 104
320 705 155 87 94 103
320 706 154 85 93 102
320 706 155 83 90 100
320 707 154 83 90 100
320 707 155 83 90 99
321 706 155 82 89 98
321 707 155 82 89 98
320 704 156 85 91 100
320 705 156 86 92 102
321 704 156 78 84 93
321 704 157 76 82 90
321 705 156 81 88 97
321 705 157 76 82 91
321 706 156 82 89 98
321 707 156 81 88 97
322 705 157 74 80 89
322 704 158 74 80 88
322 704 159 74 79 87
322 705 158 73 78 86
323 704 159 73 78 86
323 705 159 72 77 85
322 706 157 78 84 93
322 707 156 79 86 95
322 707 157 76 83 91
322 706 158 73 79 87
322 707 158 71 77 86
323 706 158 72 78 86
323 706 159 73 78 86
323 707 158 71 77 85
323 707 159 72 77 85
320 709 153 82 89 98
320 708 154 79 86 96
320 708 155 76 84 93
320 709 154 78 85 94
321 708 155 81 88 96
321 709 154 77 84 93
321 709 155 77 84 92
320 710 153 85 91 100
320 711 153 86 91 100
320 710 154 79 86 95
321 710 154 76 83 91
321 710 155 73 79 88
321 711 154 78 84 93
321 711 155 74 80 88
322 709 155 77 83 92
322 710 155 73 80 88
322 711 155 73 79 88
322 708 156 85 90 99
322 708 157 79 85 94
322 709 156 80 86 95
322 709 157 82 87 96
323 708 157 78 84 93
323 709 157 77 82 91
323 708 158 73 79 87
323 708 159 72 78 85
323 709 158 74 79 87
322 710 156 74 80 88
322 711 156 75 81 89
323 710 157 74 80 87
323 711 156 78 83 90
323 711 157 79 84 91
323 710 158 73 79 87
323 711 158 77 82 90
324 708 159 73 78 85
324 709 159 73 78 85
324 710 158 73 78 85
324 710 159 72 77 84
324 711 158 76 80 88
324 711 159 74 79 86
320 718 151 81 86 95
320 719 151 81 86 95
320 712 152 79 85 94
320 712 153 80 86 94
320 713 152 78 84 92
320 713 153 79 85 94
321 713 153 80 86 95
321 712 154 77 83 92
321 712 155 76 82 90
321 713 154 79 85 93
320 714 152 82 87 96
320 714 153 86 91 100
320 715 152 87 92 101
320 715 153 92 97 105
321 714 153 87 92 101
321 715 153 92 97 105
321 714 154 83 89 97
321 715 154 85 91 99
322 712 155 76 81 90
322 713 155 77 83 91
322 714 154 79 85 93
322 714 155 77 83 91
322 715 154 81 87 95
322 715 155 79 84 92
323 715 155 77 82 91
322 712 156 77 83 90
323 712 156 79 84 91
323 712 157 80 85 92
323 713 156 78 83 92
323 713 157 80 85 93
323 714 156 77 83 91
323 714 157 76 82 91
323 715 156 76 82 90
320 716 152 81 86 95
320 717 152 79 84 93
321 716 153 81 87 95
321 717 153 80 85 94
321 716 154 80 86 95
320 718 152 81 86 94
320 719 152 80 86 94
321 718 153 79 85 93
321 719 152 80 85 94
321 719 153 80 85 94
322 716 154 80 85 94
322 716 155 79 85 93
322 717 154 80 85 94
323 716 155 78 84 92
322 719 153 79 85 93
322 718 154 79 84 93
323 716 156 77 83 91
324 713 157 81 87 95
324 712 158 78 83 91
324 712 159 75 80 88
324 713 158 79 84 92
325 712 159 75 80 88
324 714 157 78 84 92
324 714 158 81 86 94
320 720 151 80 86 95
320 721 151 81 87 96
320 722 151 84 90 99
320 720 152 79 85 94
320 721 152 79 85 94
321 720 152 79 85 94
321 720 153 79 85 93
323 704 160 72 77 84
323 704 161 70 75 82
323 705 160 72 77 84
323 706 160 72 77 85
324 704 161 69 74 81
324 705 160 72 76 83
324 705 161 71 76 83
324 704 162 70 75 81
324 704 163 71 75 82
324 705 162 72 76 83
324 705 163 71 75 82
325 705 163 71 76 84
324 706 160 73 78 86
324 706 161 74 80 87
324 707 160 74 79 86
324 707 161 78 83 90
324 706 162 79 84 91
324 707 162 83 88 95
325 706 162 79 84 92
325 706 163 78 83 91
325 707 162 86 92 99
325 707 163 88 93 101
325 704 164 71 75 82
325 704 165 69 74 80
325 705 164 70 75 83
325 705 165 70 75 83
325 704 166 68 73 80
325 704 167 68 73 80
325 705 166 68 73 80
325 706 164 76 82 90
325 706 165 76 81 89
325 707 164 83 89 97
326 705 165 71 76 83
326 704 167 68 73 80
326 705 166 69 74 81
326 705 167 69 73 80
326 706 165 73 78 85
326 707 164 82 88 97
326 707 165 75 80 88
326 706 166 71 76 83
326 706 167 71 76 82
326 707 166 72 77 83
324 708 160 75 80 87
324 708 161 81 86 94
324 709 160 75 80 88
324 709 161 80 85 93
325 708 161 89 94 101
325 709 161 88 93 100
325 708 162 88 93 101
325 708 163 88 94 102
325 709 162 90 95 103
325 709 163 91 96 104
324 710 160 73 78 85
324 711 160 73 78 85
325 710 160 74 79 86
325 710 161 78 83 91
325 711 160 75 80 87
325 711 161 75 80 87
325 710 162 86 91 99
325 708 164 84 90 98
326 708 164 85 90 99
326 704 168 68 73 80
326 704 169 67 72 79
326 705 168 68 73 80
326 705 169 69 74 81
326 704 170 67 72 78
326 704 171 70 74 80
256 768 141 90 97 107
256 769 141 90 97 107
257 768 141 92 99 109
257 769 141 91 98 108
256 770 141 89 96 107
256 771 141 90 97 108
257 770 141 91 97 108
257 771 141 89 96 107
256 771 142 92 99 110
258 768 141 94 101 112
258 769 141 91 98 109
259 768 140 97 103 114
259 768 141 96 102 113
259 769 141 91 98 109
258 770 141 91 98 108
258 771 141 90 97 107
259 770 141 90 97 108
259 771 141 90 97 108
257 772 141 88 96 107
256 772 142 97 104 116
256 773 142 102 109 120
257 772 142 91 98 110
257 773 142 92 99 110
256 774 142 97 105 116
256 775 142 90 98 109
257 774 142 92 99 110
257 775 142 88 95 106
258 772 141 88 95 106
258 773 141 89 96 107
259 772 141 88 95 106
259 773 141 91 98 109
258 773 142 91 98 109
259 773 142 91 98 109
258 774 142 91 98 109
258 775 142 91 98 108
259 774 142 92 99 110
259 775 142 90 97 108
260 768 140 103 110 121
260 769 140 100 108 120
260 769 141 93 100 111
261 768 140 112 119 131
261 769 140 99 106 118
261 769 141 94 101 112
260 770 141 89 96 108
260 771 141 88 96 107
261 770 141 91 98 109
261 771 141 90 97 109
262 768 140 106 113 125
262 769 140 94 102 113
263 768 140 96 103 115
263 769 140 91 99 110
262 770 141 91 98 109
262 771 141 91 98 109
263 770 140 90 97 108
263 770 141 89 96 107
263 771 141 89 96 108
260 772 141 92 99 111
260 773 141 99 107 118
261 772 141 98 105 117
261 773 141 106 113 125
260 774 141 99 107 118
261 774 141 104 112 124
260 774 142 95 102 114
260 775 142 90 98 110
261 775 142 92 100 112
262 772 141 101 109 120
262 773 141 108 115 127
263 772 141 94 102 113
263 773 141 103 110 122
262 774 141 104 111 124
262 775 141 96 104 117
263 774 141 102 110 122
263 775 141 97 105 117
262 775 142 92 100 112
256 776 142 87 94 106
256 776 143 86 94 105
256 777 143 88 95 106
257 776 142 87 94 105
257 777 142 91 98 109
257 777 143 90 97 108
256 778 143 89 96 107
256 779 143 89 96 107
257 778 143 90 97 109
257 779 143 92 100 111
258 776 142 90 97 107
258 777 142 93 99 111
259 776 142 88 95 106
259 777 142 92 99 110
258 778 143 94 102 114
258 779 143 99 107 119
259 778 142 95 102 114
259 778 143 96 104 116
259 779 143 103 111 123
256 780 143 90 98 110
256 781 143 89 97 108
257 780 143 95 102 114
257 781 143 95 103 115
256 782 143 89 97 108
257 782 143 95 104 116
258 780 143 105 113 125
258 781 143 108 116 128
259 780 143 108 116 129
259 781 143 110 119 132
258 782 143 109 118 131
259 782 143 112 122 135
260 776 142 87 95 106
260 777 142 92 99 110
261 776 142 90 97 108
261 777 142 94 101 112
260 778 142 95 103 115
260 779 142 98 107 119
260 779 143 102 110 123
261 778 142 97 105 117
261 779 142 101 109 121
261 779 143 102 110 123
262 776 142 91 99 110
262 777 142 94 101 112
263 776 142 92 99 110
263 777 142 94 100 111
262 778 142 98 105 116
262 779 142 98 106 118
263 778 142 95 102 113
263 779 142 96 103 114
260 780 143 108 116 129
260 781 143 109 118 132
261 780 143 102 111 124
261 781 143 111 119 132
260 782 143 113 122 136
260 783 143 112 121 134
261 782 143 118 126 139
261 783 143 108 117 130
262 780 143 94 103 115
262 781 143 101 110 122
263 780 142 93 101 113
263 780 143 91 99 111
263 781 143 92 101 113
262 782 143 113 121 133
262 783 143 105 114 126
263 782 143 99 107 120
263 783 143 99 107 120
264 768 140 90 98 109
264 769 140 90 97 108
265 768 140 91 98 109
265 769 140 89 96 107
264 770 140 88 95 106
264 771 140 87 94 105
264 771 141 88 96 107
265 770 140 87 94 104
265 771 140 85 92 103
266 768 140 90 97 108
266 769 140 89 96 106
267 768 140 87 95 106
267 769 140 87 94 104
266 770 140 86 93 103
266 771 140 85 92 102
267 770 140 85 92 103
267 771 140 85 92 102
264 772 140 87 95 105
264 772 141 93 101 112
264 773 141 101 108 120
265 772 140 85 93 103
265 772 141 87 94 105
265 773 141 94 101 112
264 774 141 102 109 121
264 775 141 97 104 116
265 774 141 96 104 115
265 775 141 90 98 110
266 772 140 85 92 103
266 772 141 88 95 106
266 773 141 90 97 108
267 772 140 88 95 105
267 773 140 91 97 108
267 773 141 92 98 109
266 774 141 92 99 110
266 775 141 90 97 109
267 774 141 92 99 110
267 775 141 91 98 109
271 768 139 89 95 106
268 768 140 88 95 106
268 769 140 87 94 105
269 768 140 87 94 105
269 769 140 88 95 106
268 770 140 86 93 103
268 771 140 85 92 102
269 770 140 87 94 105
269 771 140 86 92 103
270 768 140 86 94 104
270 769 140 87 94 105
271 768 140 88 95 105
271 769 140 88 95 105
270 770 140 88 95 105
270 771 140 87 94 104
271 770 140 88 94 105
271 771 140 86 93 104
268 772 140 87 94 104
268 773 140 89 96 106
268 773 141 90 97 108
269 772 140 86 93 104
269 773 140 88 95 107
268 774 141 90 97 109
268 775 141 91 99 111
269 774 141 89 97 109
269 775 141 93 102 114
270 772 140 86 93 104
270 773 140 88 96 107
271 772 140 86 94 105
271 773 140 95 103 115
270 774 140 88 98 110
270 774 141 91 100 113
270 775 141 96 105 118
271 774 140 104 113 125
271 774 141 107 115 127
271 775 141 107 115 128
264 776 141 92 100 111
265 776 141 90 97 108
264 776 142 91 98 110
264 777 142 92 99 110
265 776 142 90 97 109
265 777 142 91 98 110
264 778 142 95 102 113
264 779 142 97 104 115
265 778 142 93 100 111
265 779 142 95 101 112
266 776 141 92 99 111
267 776 141 96 103 114
266 776 142 93 101 112
266 777 142 92 100 111
267 777 142 101 108 120
266 778 142 91 99 111
266 779 142 93 100 112
267 778 142 94 102 114
267 779 142 92 100 112
264 780 142 95 102 113
264 780 143 93 100 111
264 781 143 92 100 111
265 780 142 96 102 113
265 780 143 95 102 113
