ply
format ascii 1.0
comment PCL generated
element vertex 1223
property float x
property float y
property float z
property uchar red
property uchar green
property uchar blue
element camera 0
property float view_px
property float view_py
property float view_pz
property float x_axisx
property float x_axisy
property float x_axisz
property float y_axisx
property float y_axisy
property float y_axisz
property float z_axisx
property float z_axisy
property float z_axisz
property float focal
property float scalex
property float scaley
property float centerx
property float centery
property int viewportx
property int viewporty
property float k1
property float k2
end_header
69.839897 134.00363 244.90053 32 38 44
70.842857 133.00659 244.89825 32 38 45
70.839882 134.00659 244.90302 33 39 45
70.837395 134.0018 245.903 31 37 43
64.846886 135.00793 240.89287 34 42 49
64.84391 136.0079 240.89764 34 42 49
63.840942 137.00491 240.89992 36 44 51
63.837971 138.00491 240.90469 37 44 52
63.835484 138.00012 241.90469 33 42 50
64.840935 137.0079 240.9024 34 42 50
64.838448 137.00311 241.9024 33 40 47
64.835472 138.00308 241.9072 33 41 48
64.832993 137.99829 242.90717 33 40 47
64.830505 137.9935 243.90717 33 40 47
65.846878 135.01086 240.89536 34 41 48
65.844391 135.0061 241.89536 33 40 47
65.841415 136.00607 241.90013 33 40 47
66.844391 135.00906 241.89786 33 40 47
65.838936 136.00128 242.90012 33 40 47
66.841911 135.00427 242.89784 33 40 47
66.838936 136.00427 242.9026 33 40 47
66.836449 135.99948 243.9026 32 39 46
65.83844 137.00607 241.90491 32 40 47
65.83596 137.00128 242.90489 33 40 47
65.833466 136.99649 243.90488 32 40 47
65.830498 137.99646 243.90967 33 40 47
66.833466 136.99945 243.90738 32 39 46
65.828026 137.9917 244.90965 33 40 47
66.830986 136.99466 244.90736 32 39 46
66.828018 137.99466 244.91214 32 39 47
66.825531 137.98987 245.91211 33 41 48
63.8325 139.00012 241.90947 35 43 51
63.830021 138.99533 242.90945 34 42 50
63.827049 139.99533 242.91422 36 43 51
63.824562 139.99054 243.91422 37 44 51
64.830009 138.99829 242.91194 34 41 48
64.827522 138.9935 243.91194 35 42 49
64.824554 139.9935 243.91672 36 43 50
63.824074 140.9953 242.91901 38 46 53
63.821587 140.99054 243.91901 39 46 54
63.818611 141.99051 243.92377 40 48 56
64.825043 138.98874 244.91191 35 42 50
64.822075 139.98871 244.9167 37 44 51
64.819588 139.98395 245.91669 37 44 52
63.819107 140.98575 244.91899 39 46 54
63.816132 141.98572 244.92375 41 48 56
64.819099 140.98871 244.92146 38 46 53
64.816612 140.98392 245.92145 39 46 54
64.816124 141.98868 244.92625 41 48 56
64.813637 141.98389 245.92624 40 47 55
65.825043 138.9917 244.91441 34 41 48
65.822556 138.98691 245.9144 34 42 49
65.81958 139.98691 245.91919 36 43 51
66.822548 138.98987 245.9169 34 41 48
65.817101 139.98212 246.91917 37 44 52
66.820068 138.98508 246.9169 35 42 48
66.817093 139.98508 246.92166 37 43 50
66.814598 139.98029 247.92165 38 44 51
65.816605 140.98688 245.92395 38 45 53
65.814125 140.98209 246.92395 39 46 54
65.81163 140.97729 247.92393 39 46 53
65.81115 141.98209 246.92871 41 48 56
65.808655 141.97729 247.9287 41 48 55
66.811638 140.98026 247.92644 39 46 53
66.808662 141.98026 247.9312 40 47 55
67.841896 135.00726 242.90033 33 39 46
67.839409 135.00247 243.90033 31 38 45
67.836441 136.00244 243.90511 32 39 46
68.839409 135.00543 243.90282 31 38 45
68.836433 136.0054 243.90761 32 39 46
67.833961 135.99765 244.90509 32 39 46
68.836929 135.00064 244.9028 31 37 44
68.833954 136.00061 244.90758 32 39 46
68.831467 135.99585 245.90756 32 39 45
67.830978 136.99765 244.90987 31 38 45
67.828491 136.99286 245.90985 32 39 45
67.825523 137.99283 245.91461 34 40 47
68.828491 136.99582 245.91234 32 38 45
67.823044 137.98807 246.91461 34 40 46
67.820557 137.98328 247.9146 35 41 47
68.826012 136.99103 246.91232 32 38 45
68.823524 136.98627 247.91231 34 39 46
68.820549 137.98624 247.9171 35 40 46
69.836914 135.0036 244.9053 32 38 45
69.834427 134.99881 245.90529 32 38 44
69.831451 135.99881 245.91006 33 39 45
70.834419 135.00177 245.90778 31 37 43
69.828972 135.99402 246.91006 32 38 44
70.83194 134.99698 246.90778 31 37 43
70.828972 135.99698 246.91255 33 38 44
70.826485 135.99219 247.91254 33 38 44
69.825996 136.99399 246.91483 32 38 45
69.823509 136.98923 247.91481 33 38 44
69.820534 137.9892 247.9196 35 40 46
70.823502 136.99219 247.91731 32 37 43
67.820068 138.98807 246.9194 34 41 47
67.817581 138.98328 247.91937 35 41 48
67.814606 139.98328 247.92415 37 43 49
66.809151 140.97549 248.92642 39 46 53
66.806175 141.97546 248.9312 40 47 54
68.818062 137.98145 248.9171 36 42 48
69.821014 136.98444 248.91481 33 39 45
69.818047 137.98444 248.91959 35 41 47
69.815559 137.97964 249.91957 36 41 47
70.821014 136.9874 248.91731 33 39 45
70.818527 136.9826 249.9173 35 40 46
70.815559 137.9826 249.92206 34 40 46
70.816048 136.97781 250.91728 36 41 47
70.81308 137.97781 250.92206 36 41 48
70.810593 137.97302 251.92204 37 43 49
67.815094 138.97849 248.91937 36 42 49
67.812119 139.97849 248.92415 38 44 51
68.815079 138.98145 248.92186 36 41 47
68.812592 138.97668 249.92184 36 42 48
68.812111 139.98145 248.92665 37 43 50
68.809624 139.97665 249.92662 37 43 49
68.807144 139.97186 250.92662 37 43 50
67.809135 140.97845 248.92891 40 46 53
67.806648 140.97366 249.92889 40 46 53
67.806168 141.97845 248.9337 41 47 54
67.80368 141.97366 249.93369 40 46 53
68.806641 140.97662 249.9314 39 45 52
68.803673 141.97662 249.93617 39 46 53
68.804161 140.97186 250.9314 39 44 51
68.801674 140.96707 251.93135 39 45 52
68.801193 141.97186 250.93617 39 45 52
68.798706 141.96707 251.93614 39 45 52
69.812584 138.97964 249.92435 36 42 48
69.810104 138.97485 250.92433 37 42 49
69.807617 138.97006 251.92432 37 43 49
69.807129 139.97482 250.92911 37 43 49
69.804642 139.97006 251.92909 38 44 50
70.80761 138.97302 251.92682 37 43 50
70.804634 139.97299 251.93159 36 43 50
69.801666 140.97003 251.93387 38 45 52
70.80513 138.96826 252.92679 37 43 50
70.802155 139.96823 252.93155 37 44 51
70.799667 139.96344 253.93155 37 44 51
69.799187 140.96524 252.93384 39 46 53
69.796211 141.96524 252.93861 38 46 53
70.799179 140.96823 252.93634 38 45 52
70.796692 140.96341 253.93634 37 44 52
70.791237 141.95862 254.9411 38 45 53
71.86319 127.01442 243.8721 31 37 43
71.860207 128.0144 243.87688 30 36 43
71.857231 129.01437 243.88167 30 37 43
71.854256 130.01437 243.88643 31 37 44
71.86071 127.00964 244.87209 30 37 43
72.860695 127.01259 244.87459 31 37 43
72.858208 127.00781 245.87457 30 37 44
72.857719 128.01257 244.87936 30 36 43
72.854744 129.01259 244.88414 31 37 43
72.851768 130.01257 244.88892 31 37 43
73.860695 127.01556 244.87708 30 36 43
73.858208 127.01078 245.87706 29 36 43
73.857719 128.01555 244.88187 30 36 42
73.855232 128.01077 245.88184 30 36 42
74.8582 127.01373 245.87956 29 36 42
74.855217 128.01373 245.88434 29 35 41
73.854744 129.01553 244.88663 30 36 43
73.852257 129.01076 245.88661 31 36 43
73.851761 130.01553 244.89142 31 37 43
73.849274 130.01074 245.8914 30 36 42
74.852249 129.0137 245.88911 30 36 41
74.849266 130.0137 245.89388 31 36 42
74.846786 130.00894 246.89388 31 36 42
71.85128 131.01434 243.89122 31 38 44
71.848297 132.01434 243.89598 31 38 44
71.845818 132.00955 244.89597 31 37 44
72.848801 131.01254 244.89368 31 37 44
72.846313 131.00778 245.89366 31 37 43
72.845818 132.01254 244.89847 31 37 43
72.84333 132.00775 245.89845 31 37 43
71.842857 133.00955 244.90076 31 37 43
71.84037 133.00479 245.90073 31 37 44
71.837395 134.00476 245.9055 32 38 45
72.840363 133.00775 245.90321 30 37 43
71.834915 133.99997 246.9055 32 38 44
72.837875 133.00296 246.90321 30 36 43
72.834908 134.00296 246.908 31 37 44
72.83242 133.99817 247.90797 30 36 43
73.846306 131.01071 245.89616 30 36 42
73.843826 131.00595 246.89616 31 37 42
73.840843 132.00592 246.90094 31 37 43
73.838356 132.00116 247.90092 29 35 41
74.843819 131.00891 246.89867 31 36 42
74.841331 131.00412 247.89865 31 37 43
74.840843 132.00888 246.90343 29 36 42
74.838356 132.00412 247.90341 30 35 41
73.837868 133.00592 246.90572 30 36 42
73.835381 133.00113 247.9057 30 36 42
73.83242 134.00113 247.91048 31 37 43
74.835381 133.00412 247.9082 29 35 41
75.858192 127.0167 245.88206 29 35 42
75.855217 128.01669 245.88683 29 35 41
75.852737 128.0119 246.88683 29 34 40
76.855713 127.01488 246.88455 29 35 41
76.85273 128.01486 246.88933 29 35 41
75.852242 129.01669 245.89162 29 34 41
75.849762 129.0119 246.89162 29 35 40
75.846786 130.01187 246.89638 31 36 41
75.844299 130.00711 247.89636 29 34 40
76.849754 129.01486 246.8941 29 35 41
76.847267 129.01007 247.89407 29 34 40
76.846779 130.01483 246.89888 30 35 41
76.844292 130.01004 247.89886 29 34 40
77.855698 127.01785 246.88704 29 35 41
77.85321 127.01307 247.88702 29 34 40
77.852722 128.01784 246.89183 29 34 40
77.850235 128.01306 247.89182 29 34 40
78.853203 127.01603 247.88953 29 35 40
77.84726 129.01306 247.89658 28 34 40
77.844284 130.01303 247.90137 28 34 40
75.841324 131.00708 247.90114 31 36 42
75.838341 132.00708 247.90591 31 37 43
76.841316 131.01004 247.90363 29 34 40
73.829933 133.99634 248.91048 31 36 42
73.827446 133.99155 249.91046 31 37 44
74.832901 132.99933 248.90819 30 35 41
74.830406 132.99454 249.90817 30 36 42
74.829926 133.9993 248.91296 30 36 42
74.827431 133.99451 249.91295 31 36 42
74.824951 133.98975 250.91293 33 37 43
78.850723 127.01125 248.88953 30 35 42
78.84774 128.01123 248.89429 29 34 41
78.845253 128.00645 249.89427 28 34 41
77.841805 130.00827 248.90137 29 35 41
77.839317 130.00348 249.90134 29 35 41
78.844772 129.01123 248.89908 28 34 41
78.842285 129.00644 249.89906 28 35 41
78.841789 130.0112 248.90384 29 35 41
78.839302 130.00644 249.90382 29 35 41
78.839798 129.00168 250.89905 29 35 42
78.836815 130.00165 250.90382 28 35 41
78.834328 129.99686 251.90381 29 35 41
75.835861 132.00229 248.90591 32 36 42
75.833366 131.9975 249.90588 33 38 43
76.838837 131.00525 248.90363 29 34 40
76.836349 131.00049 249.90361 30 35 40
76.835854 132.00525 248.90842 33 38 43
76.833366 132.00046 249.90839 33 38 43
76.830879 131.99567 250.90839 32 37 43
75.832893 133.00229 248.91069 31 36 42
75.830406 132.9975 249.91068 32 37 42
75.827919 132.99271 250.91068 32 37 43
75.824944 133.99271 250.91544 33 37 43
75.822456 133.98792 251.91542 34 39 44
76.827919 132.99567 250.91316 33 39 44
76.825424 132.99088 251.91313 32 37 43
76.822456 133.99088 251.91792 33 38 45
77.838837 131.00824 248.90613 29 34 40
77.836349 131.00345 249.90611 29 35 41
77.833366 132.00345 249.91089 30 35 41
77.833862 130.99866 250.90611 29 35 41
77.830879 131.99866 250.91089 30 36 42
77.828392 131.99387 251.91087 30 36 42
78.833839 131.00162 250.9086 30 36 42
78.831352 130.99686 251.90858 30 35 41
78.828377 131.99683 251.91336 32 37 43
77.825417 132.99387 251.91563 30 36 42
75.819977 133.98312 252.91541 30 36 42
76.822945 132.98611 252.91312 32 38 44
76.819977 133.98608 252.91791 32 38 44
76.81749 133.98129 253.91791 32 38 45
76.81501 133.9765 254.91788 34 39 46
77.825912 131.98911 252.91086 32 37 43
78.828873 130.99207 252.90857 31 36 42
78.825897 131.99203 252.91335 31 36 42
78.82341 131.98724 253.91333 31 36 42
78.82093 131.98245 254.91333 31 37 43
77.822937 132.98911 252.91562 30 36 42
77.82045 132.98428 253.91562 32 37 43
77.817482 133.98428 253.92039 34 39 46
78.820435 132.98724 253.91812 32 37 43
77.81797 132.97949 254.91559 33 38 44
77.815002 133.97949 254.92038 32 38 44
77.812515 133.9747 255.92035 32 38 44
78.817955 132.98245 254.91809 32 38 44
78.815468 132.97769 255.91806 31 37 43
78.8125 133.97766 255.92282 32 38 43
71.831932 134.99997 246.91028 30 36 43
71.829445 134.99518 247.91026 29 35 42
71.826477 135.99515 247.91502 31 37 43
72.829437 134.99814 247.91275 30 36 43
71.823997 135.99039 248.91502 32 37 44
71.821503 135.9856 249.91501 33 38 45
72.826958 134.99335 248.91275 31 37 43
72.824463 134.98859 249.91272 32 38 44
72.823982 135.99335 248.91753 31 37 43
72.821487 135.98859 249.91751 33 38 45
72.819008 135.9838 250.91751 33 39 45
72.816521 135.979 251.91748 34 40 45
71.821014 136.99036 248.91982 34 40 46
71.81852 136.98557 249.9198 33 39 45
71.81604 136.9808 250.91978 34 39 46
71.813065 137.98077 250.92456 36 41 47
71.810577 137.97598 251.92455 36 42 48
72.816032 136.98376 250.92227 35 40 47
72.813553 136.97897 251.92226 36 41 47
73.824463 134.99155 249.91522 31 37 44
73.821983 134.98676 250.91522 32 37 43
73.819008 135.98676 250.92001 32 37 43
73.816521 135.98196 251.91998 33 38 44
74.821976 134.98972 250.91772 33 38 43
74.819489 134.98495 251.91771 33 39 45
74.816513 135.98492 251.92247 33 38 44
73.813545 136.98193 251.92476 35 41 47
71.808098 137.97122 252.92451 37 43 49
72.811073 136.97418 252.92224 36 41 47
72.808098 137.97418 252.92702 36 42 48
72.805611 137.96939 253.927 36 42 49
73.814041 135.97717 252.91997 34 39 45
74.817009 134.98016 252.91768 33 39 45
74.814034 135.98013 252.92245 33 38 45
74.811546 135.97534 253.92245 32 38 45
74.809067 135.97055 254.92242 33 40 47
73.811066 136.97714 252.92474 35 40 46
73.808571 136.97235 253.92473 34 40 47
73.805603 137.97235 253.9295 35 41 48
74.808563 136.97531 253.92723 33 40 47
73.803123 137.96756 254.92947 35 42 49
73.800636 137.96277 255.92947 36 43 50
74.806084 136.97055 254.92722 33 40 47
74.803596 136.96576 255.92719 33 40 47
74.803123 137.97052 254.93198 34 41 48
74.800636 137.96573 255.93198 35 42 49
71.805122 138.97122 252.92929 38 43 50
71.802635 138.9664 253.92928 37 43 50
71.799667 139.9664 253.93405 37 44 51
72.802628 138.96939 253.93178 37 43 49
71.797188 139.96161 254.93402 38 44 52
72.800148 138.9646 254.93176 36 43 50
72.79718 139.9646 254.93652 37 44 51
72.794693 139.95981 255.93652 38 45 52
71.794205 140.96158 254.93881 38 45 52
72.79171 140.95978 255.94131 39 46 53
73.80014 138.96756 254.93427 36 43 50
73.797653 138.96277 255.93423 37 44 51
73.794678 139.96277 255.939 37 44 52
75.819473 134.98792 251.92021 34 39 45
75.816994 134.98312 252.92018 32 38 44
75.814507 134.9783 253.92018 32 38 44
75.811546 135.9783 253.92496 32 38 45
76.814507 134.98126 253.92267 32 38 45
75.809067 135.97351 254.92493 33 39 45
75.80658 135.96875 255.9249 33 40 47
76.812027 134.9765 254.92264 32 38 45
76.80954 134.97171 255.92264 34 39 46
76.809052 135.97647 254.92743 34 40 47
76.806564 135.97168 255.9274 33 39 46
75.803596 136.96872 255.92966 33 40 47
77.809532 134.97467 255.92514 34 39 45
63.813152 142.98572 244.92853 42 49 57
63.810181 143.98569 244.9333 43 50 58
64.813148 142.98868 244.93103 42 49 57
64.810661 142.98389 245.931 42 49 57
65.808174 142.98206 246.9335 42 49 57
65.805672 142.97726 247.93349 41 48 56
66.800705 142.97067 249.93596 41 48 56
79.850716 127.01421 248.89203 30 35 41
79.848228 127.00942 249.892 30 36 42
79.845245 128.00941 249.89677 29 35 41
80.848221 127.01239 249.89449 30 36 42
79.842758 128.00464 250.89677 30 35 42
79.840271 127.99985 251.89676 30 35 41
80.845741 127.0076 250.89449 30 36 42
80.843246 127.00282 251.89447 29 35 42
80.840271 128.00281 251.89925 30 35 41
79.839783 129.00464 250.90155 29 35 42
79.837296 128.99985 251.90154 30 36 42
79.836815 130.00461 250.90633 29 35 41
79.83432 129.99982 251.90631 30 35 41
81.843239 127.00578 251.89697 31 36 43
80.840767 126.99803 252.89445 30 35 42
80.837791 127.99802 252.89923 31 36 42
80.835304 127.99325 253.89923 30 36 42
79.834816 128.99506 252.90152 30 35 41
79.831841 129.99503 252.90628 30 36 42
79.829353 129.99023 253.90628 31 36 42
80.834816 128.99802 252.90401 29 35 41
80.832329 128.99323 253.90399 30 36 42
80.829353 129.99319 253.90878 31 37 43
79.826881 129.98547 254.90625 31 36 42
80.829849 128.98843 254.90399 29 35 41
80.827362 128.98364 255.90396 30 35 41
80.826874 129.98843 254.90875 30 36 42
80.824379 129.98364 255.90872 31 36 42
81.840759 127.00101 252.89696 30 36 42
81.838272 126.99622 253.89694 30 36 43
81.835297 127.99621 253.90173 30 36 42
81.835793 126.99144 254.89694 31 37 42
81.832817 127.99143 254.9017 30 36 42
81.83033 127.98664 255.9017 31 36 41
82.835785 126.99439 254.89941 31 36 42
82.833298 126.98962 255.89938 31 36 41
81.829842 128.99139 254.90649 30 35 41
81.827354 128.9866 255.90646 30 36 42
79.828873 130.99503 252.91107 29 35 42
79.826385 130.99023 253.91107 30 36 42
79.823906 130.98544 254.91104 30 36 42
79.821419 130.98065 255.91104 30 36 42
79.820923 131.98544 254.9158 31 37 43
79.818436 131.98065 255.9158 31 36 42
80.821411 130.98361 255.91351 31 36 42
110.84305 127.09174 251.96941 38 45 53
110.84007 128.09174 251.9742 39 45 52
108.83809 127.07623 253.9644 38 45 53
107.83313 127.06371 255.96188 38 45 53
107.83015 128.06369 255.96664 37 45 53
108.83561 127.07146 254.96439 40 46 53
108.83312 127.06667 255.96439 40 46 54
108.83263 128.07144 254.96915 40 46 53
108.83015 128.06665 255.96915 39 46 53
108.82717 129.06665 255.97391 38 45 53
108.82419 130.06662 255.97867 37 45 53
109.84057 127.08398 252.9669 36 44 52
109.83808 127.0792 253.9669 36 45 53
109.83759 128.08398 252.97168 35 43 52
109.83511 128.07919 253.97166 36 45 53
110.84057 127.08694 252.96939 37 44 52
110.83759 128.08694 252.97418 37 44 52
109.83263 128.0744 254.97165 39 46 54
109.83213 129.07918 253.97644 35 44 52
110.83462 129.08691 252.97894 37 45 52
110.83213 129.08214 253.97894 35 43 52
110.83163 130.08691 252.98373 37 44 52
110.82915 130.08212 253.98372 36 44 52
109.82965 129.0744 254.97641 38 45 53
109.82716 129.06961 255.97641 39 45 53
109.82668 130.07437 254.9812 37 45 53
109.82419 130.06958 255.98117 38 45 53
110.82667 130.07733 254.9837 36 44 52
110.82866 131.08688 252.98849 38 45 52
110.82617 131.08209 253.98849 37 45 52
109.82122 131.06958 255.98596 37 45 53
109.81824 132.06955 255.99075 37 45 53
110.82369 131.07733 254.98846 36 44 52
118.8728 127.17285 239.98958 40 47 54
124.90257 127.24803 228.00475 41 49 58
124.89958 128.24802 228.00951 40 49 58
124.89661 129.24802 228.01428 37 47 56
124.89363 130.24802 228.01906 36 46 55
125.90753 127.26057 226.00725 41 49 57
125.90504 127.25578 227.00725 42 50 58
125.90256 127.251 228.00723 41 50 59
125.90207 128.25577 227.01204 39 48 57
125.89957 128.25099 228.01201 39 48 58
125.8966 129.25098 228.01678 38 47 56
124.90009 127.24324 229.0047 36 45 55
124.8976 127.23846 230.0047 33 43 52
124.8971 128.24324 229.00949 38 47 57
124.89462 128.23846 230.00949 35 44 53
123.89513 127.23072 231.0022 37 45 54
123.89264 127.22594 232.0022 39 47 55
123.89215 128.23071 231.00697 38 46 54
123.88966 128.22592 232.00696 38 47 55
124.89214 128.23367 231.00948 36 45 53
124.89413 129.24323 229.01427 37 47 56
124.89164 129.23843 230.01425 36 46 55
124.89115 130.24323 229.01904 37 46 55
124.88866 130.23843 230.01904 38 47 55
123.88918 129.23068 231.01175 38 46 55
123.88669 129.22591 232.01175 38 46 55
123.8862 130.23065 231.01653 37 45 53
123.88371 130.22589 232.01651 37 46 54
124.88916 129.23367 231.01424 37 46 54
124.88618 130.23364 231.01903 38 46 55
124.8837 130.22888 232.01901 37 45 54
124.88818 131.24319 229.02382 37 46 55
123.88074 131.22586 232.0213 36 44 52
121.88769 127.21044 233.99715 35 43 52
122.89017 127.21819 232.99968 39 46 54
122.88768 127.2134 233.99965 37 44 52
122.88718 128.21817 233.00446 37 45 53
122.8847 128.21338 234.00444 37 45 53
121.88521 127.20566 234.99713 36 44 52
121.88272 127.20087 235.99712 36 44 52
121.88223 128.20566 235.00192 37 44 51
121.87974 128.20087 236.00189 37 44 52
122.88222 128.20862 235.00441 37 44 51
122.88173 129.21338 234.0092 37 44 52
122.87875 130.21335 234.01398 38 45 53
121.87677 129.20084 236.00667 38 44 52
122.87925 129.20859 235.00919 38 45 52
122.87676 129.20381 236.00917 38 45 52
122.87627 130.20856 235.01396 39 45 53
122.87379 130.2038 236.01393 38 45 53
119.87775 127.18538 237.9921 37 45 53
120.88024 127.19313 236.99463 37 45 53
120.87775 127.18835 237.9946 37 45 53
120.87727 128.19312 236.99939 36 44 52
120.87478 128.18834 237.99937 37 45 53
119.87527 127.18059 238.9921 38 45 53
119.87279 127.17581 239.99208 39 46 54
119.8723 128.18057 238.99687 38 45 54
119.86981 128.17581 239.99684 39 46 54
120.87229 128.18356 238.99937 37 45 53
120.87181 129.18832 238.00415 37 45 53
120.86883 130.18829 238.00893 36 44 53
119.86684 129.17578 240.00163 38 46 53
119.86385 130.17578 240.00641 38 45 53
120.86932 129.18353 239.00415 37 45 53
120.86684 129.17874 240.00414 37 44 52
120.86634 130.18353 239.00893 36 44 52
120.86385 130.17874 240.00891 37 44 52
121.88024 127.19609 236.99712 36 44 52
121.87726 128.19608 237.00189 36 44 52
121.87429 129.19608 237.00667 36 44 53
121.8718 129.19128 238.00664 36 44 53
121.87131 130.19604 237.01144 37 45 53
121.86882 130.19125 238.01143 36 44 53
122.87131 130.19901 237.01393 39 46 53
122.8733 131.20856 235.01874 38 45 52
123.88718 128.22115 233.00694 38 46 54
123.88421 129.22113 233.01173 37 45 53
123.88172 129.21634 234.01172 36 45 53
123.88123 130.2211 233.01649 37 45 53
123.87875 130.21631 234.01649 38 45 52
123.87826 131.2211 233.02129 37 44 52
114.85793 127.13229 245.97949 41 46 53
113.85297 127.11975 247.97696 40 47 54
114.85545 127.12749 246.97948 41 47 54
114.85296 127.12272 247.97946 40 46 53
114.85247 128.12749 246.98427 41 46 52
114.84998 128.12271 247.98425 41 47 54
114.84701 129.12271 247.98901 41 47 54
114.84402 130.12271 247.9938 39 46 53
114.84106 131.12268 247.99857 38 44 52
116.86536 127.15257 242.98453 36 43 51
116.86288 127.14779 243.98453 36 43 50
116.85989 128.14778 243.9893 36 42 50
116.85693 129.14777 243.99408 36 42 50
117.86784 127.16032 241.98705 36 43 51
117.86485 128.16031 241.99184 35 43 51
118.87032 127.16807 240.98956 38 45 53
118.86784 127.16328 241.98955 36 43 51
118.86734 128.16806 240.99434 38 45 52
118.86485 128.16327 241.99434 36 43 51
117.86536 127.15554 242.98701 36 43 51
117.86237 128.15553 242.99181 36 43 51
118.86436 129.16803 240.99911 38 45 52
118.86188 129.16325 241.99911 37 44 52
118.8589 130.16324 242.00389 37 44 52
117.8594 129.15552 242.99657 37 44 51
117.85691 129.15073 243.99657 37 43 51
117.85394 130.1507 244.00136 38 44 51
118.8594 129.15848 242.99908 37 44 51
118.85642 130.15845 243.00388 37 44 51
115.8604 127.14003 244.98201 37 43 49
115.85791 127.13525 245.98199 39 45 51
115.85743 128.14001 244.98677 37 42 49
115.85493 128.13525 245.98676 39 44 50
116.85741 128.14299 244.98927 36 42 49
115.85246 128.13046 246.98676 41 46 52
115.85197 129.13522 245.99155 40 45 51
116.85445 129.14297 244.99406 37 43 50
116.85196 129.13818 245.99405 37 43 50
116.85146 130.14297 244.99883 37 44 51
116.84898 130.13818 245.99881 37 44 51
115.84949 129.13046 246.99153 40 45 51
115.847 129.12567 247.99152 40 46 53
115.8465 130.13043 246.99631 37 44 51
115.84402 130.12564 247.99629 39 45 52
116.8465 130.13339 246.99881 36 43 50
117.85444 129.14594 244.99655 37 43 51
117.85146 130.1459 245.00133 37 44 51
118.85593 131.16321 242.00867 37 44 51
117.85097 131.1507 244.00612 38 45 52
116.846 131.13815 246.0036 36 43 51
115.84354 131.1304 247.00108 38 45 52
115.84104 131.12564 248.00107 38 45 52
116.84352 131.13339 247.00359 35 43 51
117.846 131.14111 246.00609 37 43 51
112.85049 127.11201 248.97447 40 46 54
112.848 127.10722 249.97446 40 47 54
112.84502 128.10721 249.97922 40 46 53
111.84553 127.09947 250.97194 40 46 53
111.84254 128.09946 250.97672 39 45 52
111.84006 128.0947 251.97668 39 45 52
112.84254 128.10245 250.97922 38 45 52
112.84205 129.10721 249.98401 38 44 52
112.83907 130.10718 249.98877 38 44 52
111.83958 129.09946 250.98151 38 45 52
111.83709 129.09467 251.98146 39 45 53
111.83411 130.09467 251.98624 37 44 51
112.83957 129.10242 250.98399 37 44 51
112.83659 130.10239 250.98877 36 43 50
113.85048 127.11497 248.97696 41 47 54
113.8475 128.11496 248.98174 40 47 54
114.8475 128.11792 248.98424 41 47 54
113.84453 129.11496 248.98651 40 46 53
113.84204 129.11017 249.9865 39 45 52
113.83907 130.11014 249.99127 39 45 53
114.84452 129.11792 248.98901 41 47 54
114.84154 130.11792 248.99379 39 46 53
111.83461 129.0899 252.98145 39 45 53
111.83163 130.08987 252.98622 37 44 52
111.83113 131.09464 251.99101 36 43 50
112.83362 131.10239 250.99356 38 44 51
112.83113 131.0976 251.99352 36 43 50
113.83609 131.11014 249.99605 39 45 52
114.83858 131.11789 248.99857 38 44 51
111.82865 131.08984 252.991 38 45 52
119.86733 128.17102 240.99683 38 45 53
119.86436 129.17102 241.00162 39 46 53
119.86187 129.16623 242.0016 39 45 52
119.86137 130.17099 241.00638 39 45 53
119.85889 130.1662 242.00638 39 45 52
73.88147 109.9584 256.79572 32 38 45
74.881462 109.96136 256.79822 33 40 47
75.884422 108.96434 256.79596 34 40 48
75.881454 109.96432 256.80072 35 41 48
76.884422 108.96731 256.79846 37 43 50
76.881447 109.96729 256.80322 38 44 51
77.884415 108.97027 256.80096 40 45 52
77.881439 109.97025 256.80573 44 50 57
77.878952 109.96547 257.80566 47 53 61
78.884399 108.97324 256.80347 41 48 56
78.881432 109.97321 256.80823 51 58 66
78.878944 109.96844 257.80817 47 54 62
70.869583 113.94946 256.80734 35 41 48
68.863647 115.9435 256.81192 39 46 53
67.860687 116.94052 256.81415 42 49 57
67.857704 117.94051 256.81894 48 56 65
68.860672 116.94349 256.81668 44 51 59
68.857704 117.94347 256.82147 49 57 66
69.866623 114.94647 256.80963 37 44 52
69.86364 115.94646 256.81439 42 49 57
70.866608 114.94944 256.81213 38 45 53
70.863632 115.94942 256.81689 44 52 60
70.861145 115.94463 257.81686 46 54 64
69.860664 116.94645 256.81918 48 56 65
69.857689 117.94643 256.82397 50 59 69
70.860657 116.94941 256.82169 48 56 66
70.857674 117.94939 256.82648 49 58 69
70.855194 117.94462 257.82642 47 57 67
67.854729 118.94049 256.8237 46 56 67
68.854729 118.94346 256.82623 47 57 68
69.854713 118.94642 256.82874 47 57 68
70.854713 118.94938 256.83124 45 56 67
72.875519 111.95541 256.8028 33 40 46
71.872551 112.95243 256.80505 34 40 47
71.869576 113.95242 256.80984 37 44 51
72.872551 112.95539 256.80756 37 43 50
72.869576 113.95538 256.81235 40 46 54
73.878487 110.9584 256.80054 33 39 46
73.875519 111.95837 256.8053 35 42 48
74.878479 110.96136 256.80301 36 43 50
74.875504 111.96134 256.8078 41 46 53
74.873016 111.95655 257.80774 48 53 61
73.872543 112.95836 256.81006 40 46 53
73.870064 112.95358 257.81 43 49 57
73.86956 113.95835 256.81482 40 47 54
73.867073 113.95358 257.81482 43 50 58
74.870049 112.95654 257.8125 47 53 61
74.867073 113.95653 257.81732 47 54 62
71.8666 114.95241 256.81464 40 48 56
71.864113 114.94762 257.81458 43 51 59
71.861145 115.9476 257.81934 45 53 63
72.8666 114.95536 256.81714 42 49 57
72.86412 114.95058 257.81708 44 52 61
72.86113 115.95057 257.82184 46 55 65
71.858177 116.94759 257.82416 46 56 66
71.857674 117.95236 256.82898 45 55 66
72.860649 116.95534 256.82666 46 56 67
72.858162 116.95056 257.82663 46 56 67
72.857666 117.95533 256.83142 43 53 65
73.864105 114.95355 257.81958 46 54 63
73.86113 115.95354 257.82434 46 56 66
74.864105 114.95651 257.82208 49 57 66
74.861122 115.95649 257.82684 46 56 66
73.860634 116.95831 256.82916 43 53 64
73.858162 116.95353 257.82913 44 54 65
73.857666 117.95829 256.83392 42 51 62
74.858147 116.95648 257.83163 43 52 63
74.857658 117.96125 256.83643 41 50 59
75.878479 110.96431 256.80548 41 46 54
75.875999 110.95953 257.80548 47 53 60
75.873024 111.95952 257.81024 48 54 62
76.878471 110.96729 256.80798 39 46 53
76.875984 110.9625 257.80798 43 49 57
76.873009 111.96249 257.81274 45 52 61
75.870056 112.9595 257.815 47 54 63
75.867065 113.95949 257.81979 46 54 63
76.870033 112.96247 257.8175 45 53 62
76.867065 113.96246 257.8223 45 54 64
76.867554 112.95768 258.81754 46 54 64
76.864578 113.95767 258.8223 47 55 65
77.875977 110.96545 257.81046 47 53 61
77.873009 111.96544 257.81525 46 53 61
78.875969 110.96843 257.81296 47 54 63
77.870522 111.96066 258.81525 47 55 64
78.873482 110.96365 258.81296 47 55 64
78.870514 111.96363 258.81775 48 56 66
77.867554 112.96065 258.82004 46 54 64
77.864571 113.96063 258.8248 46 55 65
78.867538 112.96362 258.82254 46 55 66
78.864555 113.96361 258.8273 46 55 66
75.86409 114.95947 257.82458 48 57 67
75.861122 115.95946 257.82935 45 55 66
76.86409 114.96244 257.82706 47 56 66
76.861107 115.96243 257.83185 44 54 65
76.861603 114.95766 258.82706 46 55 65
75.860626 116.96423 256.83417 41 50 60
75.858147 116.95945 257.83411 42 52 62
75.857643 117.96422 256.83893 39 48 57
76.860626 116.96719 256.83667 40 49 58
76.858139 116.96242 257.83661 41 51 61
76.857643 117.96718 256.84143 38 47 56
77.864082 114.96541 257.82956 46 55 65
77.861107 115.96539 257.83435 44 53 63
78.861092 115.96835 257.83682 41 50 59
77.861603 114.96062 258.82956 45 55 65
78.861588 114.96359 258.83206 43 52 62
78.858604 115.96357 258.83682 40 49 58
77.860619 116.97016 256.83917 39 47 56
77.858139 116.96538 257.83911 40 50 59
77.857635 117.97014 256.84393 37 46 55
78.860596 116.97313 256.84164 37 46 55
78.858116 116.96835 257.84161 38 47 56
78.857628 117.97311 256.84644 35 43 51
71.854706 118.95235 256.83374 42 53 64
72.854691 118.95531 256.83624 42 52 63
73.854691 118.95827 256.83875 41 50 60
74.854683 118.96124 256.84122 40 49 59
79.884392 108.9762 256.80594 44 52 60
79.878944 109.9714 257.81067 48 56 65
80.884384 108.97916 256.80844 44 52 61
80.878922 109.97436 257.81317 46 55 64
81.884384 108.98213 256.81094 41 50 59
81.878929 109.97733 257.81567 46 54 64
82.884377 108.98508 256.81345 44 52 61
82.881889 108.98031 257.81339 41 51 60
82.878914 109.98029 257.81818 44 53 63
83.884361 108.98804 256.81595 46 54 63
83.881889 108.98327 257.81589 41 50 59
83.878922 109.98325 257.82065 41 51 61
84.884361 108.99102 256.81845 48 56 65
84.881874 108.98623 257.81839 41 50 59
84.878906 109.98621 257.82315 39 48 58
84.876427 109.98144 258.82318 37 47 57
85.884354 108.99398 256.82095 42 50 59
85.881874 108.9892 257.82089 39 47 56
85.878899 109.98917 257.82565 38 47 56
86.884354 108.99694 256.82343 40 49 57
86.881866 108.99216 257.82339 38 46 54
86.878891 109.99215 257.82816 37 45 54
85.876411 109.9844 258.82568 37 46 55
86.876411 109.98736 258.82819 37 45 54
87.884338 108.99991 256.82593 41 49 57
87.881851 108.99512 257.8259 39 47 55
87.878876 109.99511 257.83066 38 46 54
88.884323 109.00287 256.82843 39 46 54
88.881844 108.99809 257.82837 39 46 54
88.878883 109.99806 257.83316 38 45 53
87.876396 109.99033 258.83069 39 46 54
88.876396 109.99329 258.83319 39 46 53
89.884323 109.00584 256.8309 39 45 52
89.881355 110.00582 256.83569 38 44 52
89.87886 110.00104 257.83566 38 45 53
90.884315 109.0088 256.8334 38 44 51
90.88134 110.00877 256.8382 37 44 51
90.87886 110.004 257.83813 37 44 51
89.876381 109.99625 258.83569 39 46 53
90.876373 109.99921 258.83813 39 45 52
91.88134 110.01175 256.8407 37 43 50
91.878853 110.00697 257.84064 37 43 50
92.881332 110.01471 256.8432 37 43 50
79.875954 110.97139 257.81546 47 55 64
79.873474 110.96661 258.81546 47 56 65
79.870499 111.96659 258.82022 47 56 66
80.873474 110.96957 258.81796 47 56 66
80.870499 111.96955 258.82272 46 56 66
79.867531 112.96657 258.82504 46 55 66
79.864555 113.96656 258.8298 45 55 65
80.867523 112.96954 258.82751 45 55 65
80.864548 113.96952 258.83231 44 53 63
81.873466 110.97253 258.82047 46 55 65
81.870491 111.97252 258.82523 45 54 65
82.873451 110.97549 258.82297 45 54 64
82.870483 111.97549 258.82773 43 52 62
81.867516 112.9725 258.83002 42 52 62
81.86454 113.9725 258.83481 40 50 59
82.867516 112.97546 258.83252 39 49 59
82.864532 113.97546 258.83728 37 46 56
79.861084 115.97131 257.83932 38 47 56
80.861084 115.97427 257.84183 36 44 53
79.86158 114.96655 258.83456 42 51 60
79.858604 115.96654 258.83932 38 47 56
80.861572 114.96951 258.83707 40 49 59
80.858589 115.96949 258.84183 37 45 54
79.858109 116.97131 257.84412 37 45 53
79.857613 117.97607 256.84894 33 41 49
80.858109 116.97427 257.84659 34 42 51
80.857605 117.97903 256.85141 32 40 48
80.855118 117.97425 257.85141 32 40 48
81.861565 114.97248 258.83957 38 46 55
81.858589 115.97246 258.84433 34 42 50
82.861565 114.97544 258.84207 34 42 51
82.858582 115.97543 258.84683 32 40 48
81.858101 116.97724 257.84909 32 40 48
81.857605 117.982 256.85391 31 38 46
81.855125 117.97722 257.85391 31 38 46
82.85511 117.98018 257.85638 31 38 46
81.855621 116.97245 258.84912 32 40 47
82.855606 116.97541 258.85162 32 39 46
82.852631 117.9754 258.85638 31 39 46
83.873451 110.97845 258.82547 42 51 61
83.870476 111.97844 258.83023 40 49 59
84.873444 110.98142 258.82794 38 47 57
84.870468 111.98141 258.83273 37 47 56
84.867981 111.97662 259.83273 36 46 55
83.867508 112.97842 258.83502 37 47 57
83.865028 112.97364 259.83499 35 45 55
83.864525 113.97841 258.83978 36 44 54
83.862038 113.97363 259.83975 33 43 52
84.865013 112.97661 259.83749 34 43 53
84.862045 113.9766 259.84225 33 42 50
85.873444 110.98439 258.83044 35 44 54
85.870468 111.98438 258.83524 35 44 53
85.867989 111.97958 259.83524 34 43 52
86.873428 110.98735 258.83295 35 44 52
86.867973 111.98255 259.83771 34 42 51
85.865013 112.97957 259.84 34 43 51
85.86203 113.97956 259.84476 33 41 50
86.864998 112.98254 259.8425 35 43 52
86.862022 113.98253 259.84726 34 42 51
83.861549 114.97839 258.84457 32 41 49
83.859062 114.97362 259.84454 32 41 50
83.858574 115.97838 258.84933 31 39 47
84.85907 114.97659 259.84702 32 40 48
84.856087 115.97657 259.85184 33 40 48
83.855598 116.97838 258.85413 32 39 46
83.852631 117.97836 258.85889 31 39 46
84.855598 116.98134 258.85663 33 39 47
84.853111 116.97656 259.8566 33 40 47
84.852615 117.98132 258.86139 32 39 47
84.850136 117.97654 259.86136 33 40 47
85.859055 114.97954 259.84952 34 41 49
85.856079 115.97952 259.85431 34 41 49
86.859055 114.98251 259.85202 35 42 51
85.853111 116.97952 259.8591 34 41 48
85.850121 117.9795 259.86386 34 40 48
86.856575 114.97773 260.85202 35 43 51
86.853592 115.97771 260.85678 36 43 51
85.850624 116.97474 260.85907 34 41 49
85.847641 117.97472 260.86386 34 41 49
86.850616 116.97771 260.86157 35 42 50
86.847641 117.97769 260.86636 35 42 50
81.85463 118.98199 256.8587 31 38 46
82.854622 118.98495 256.86118 31 38 46
82.852135 118.98016 257.86118 32 39 46
82.851646 119.98493 256.866 32 39 46
82.833794 125.98484 256.89462 31 37 43
83.852142 118.98312 257.86365 32 39 47
83.851639 119.98789 256.86847 32 39 46
83.849152 119.98311 257.86844 32 39 47
83.849655 118.97834 258.86365 32 39 47
84.849648 118.98131 258.86615 33 40 47
84.847168 118.97652 259.86615 33 40 48
84.846664 119.98129 258.87094 33 40 47
83.848671 120.98788 256.87326 32 39 46
83.846184 120.98309 257.8732 33 39 47
83.845688 121.98787 256.87802 33 39 46
83.843208 121.98308 257.87799 33 40 47
84.843201 121.98605 257.88049 33 40 47
84.843689 120.98128 258.87573 32 39 46
84.841202 120.9765 259.8757 32 39 47
84.840721 121.98127 258.88049 32 39 46
84.838242 121.97649 259.88046 31 38 45
85.847153 118.97949 259.86865 33 40 48
85.844185 119.97947 259.87341 32 39 47
85.841209 120.97946 259.8782 32 39 46
85.838219 121.97945 259.88297 32 39 46
85.844673 118.9747 260.86862 33 40 48
85.841698 119.97469 260.87338 33 40 47
86.844666 118.97767 260.87112 34 41 49
86.842186 118.97289 261.87109 34 41 49
86.84169 119.97765 260.87589 33 40 48
86.839211 119.97287 261.87585 33 41 48
85.838722 120.97468 260.87817 33 39 47
85.835739 121.97466 260.88297 31 38 46
86.836235 120.97286 261.88068 33 40 48
86.833252 121.97284 261.88544 32 39 47
86.830765 121.96806 262.88544 32 39 47
83.842712 122.98785 256.88281 33 39 46
83.840233 122.98306 257.88275 32 39 45
83.839737 123.98784 256.88757 32 38 45
83.83725 123.98306 257.88754 32 38 45
84.840225 122.98603 257.88525 32 39 46
83.83477 123.97827 258.88757 32 38 44
84.837746 122.98125 258.88525 32 38 45
84.835266 122.97646 259.88525 31 38 45
84.834763 123.98125 258.89005 31 38 45
84.832275 123.97646 259.89001 31 37 44
83.836761 124.98782 256.89236 31 37 43
83.834282 124.98304 257.89233 31 37 44
83.833786 125.98781 256.89713 31 37 43
83.831306 125.98302 257.89709 31 37 43
83.831795 124.97826 258.89233 31 37 44
83.829323 124.97347 259.8923 30 37 44
83.828819 125.97824 258.89709 30 37 43
83.826332 125.97345 259.89709 30 36 43
84.829308 124.97644 259.89481 31 37 44
84.832779 122.97169 260.88522 30 37 44
84.829796 123.97168 260.88998 30 37 44
83.823853 125.96867 260.89706 30 36 43
84.826828 124.97166 260.89481 30 37 44
84.824348 124.96687 261.89478 31 37 44
84.823845 125.97164 260.89957 30 37 43
84.821365 125.96686 261.89954 30 36 43
85.832771 122.97464 260.88773 31 38 45
85.830292 122.96986 261.8877 31 38 45
85.829788 123.97463 260.89249 30 37 44
85.827309 123.96986 261.89249 30 37 44
86.830284 122.97282 261.8902 31 38 45
86.827797 122.96805 262.89023 31 38 45
86.824821 123.96804 262.89499 30 37 45
85.824333 124.96983 261.89728 30 37 44
85.821358 125.96982 261.90204 30 37 43
85.821846 124.96505 262.89728 30 37 43
85.818871 125.96503 262.90207 30 36 43
85.816399 125.96024 263.90201 29 36 43
86.821846 124.96802 262.89975 30 37 44
86.819366 124.96323 263.89972 30 37 44
86.818871 125.968 262.90457 30 37 43
86.816391 125.96322 263.90451 30 37 44
87.873413 110.99031 258.83545 37 45 53
87.870445 111.9903 258.84021 36 44 52
87.867958 111.98552 259.84018 35 43 52
88.873413 110.99328 258.83795 38 46 53
88.867958 111.98847 259.84268 36 44 53
87.86499 112.9855 259.845 36 44 52
87.862015 113.98549 259.84976 35 43 52
88.86499 112.98846 259.84747 36 44 52
89.873405 110.99625 258.84045 39 46 53
89.867943 111.99144 259.84518 38 45 53
90.873405 110.9992 258.84296 39 45 53
90.86795 111.99441 259.84769 39 45 53
87.859528 113.98071 260.84973 35 43 52
88.862503 112.98367 260.84744 36 44 53
88.85952 113.98367 260.85223 35 43 52
89.862488 112.98665 260.84995 37 45 53
89.85952 113.98664 260.85471 36 44 52
90.862488 112.9896 260.85245 38 45 53
90.859512 113.98959 260.85721 37 45 53
87.85656 114.98069 260.85452 35 43 52
87.853577 115.98067 260.85928 36 43 51
88.856544 114.98365 260.85703 36 44 52
88.853569 115.98363 260.86179 36 44 52
88.851089 115.97885 261.86176 36 44 52
87.850601 116.98066 260.86404 36 43 51
87.848122 116.97588 261.86404 36 43 51
87.845146 117.97587 261.86884 35 42 50
88.848122 116.97884 261.86655 36 43 52
88.845139 117.97883 261.87134 35 42 50
88.842651 117.97404 262.87134 35 42 50
89.856544 114.98662 260.85953 36 44 52
89.854065 114.98183 261.8595 37 44 52
89.851082 115.98182 261.86426 36 43 52
90.854057 114.98479 261.862 38 45 53
90.851074 115.98478 261.86676 37 44 52
90.848587 115.98 262.86679 36 44 52
89.848114 116.9818 261.86905 36 43 51
89.845627 116.97703 262.86905 35 43 51
89.842644 117.97701 262.87381 35 43 51
90.845619 116.97999 262.87155 37 44 52
90.842644 117.97997 262.87631 36 43 51
90.840164 117.97518 263.87628 37 44 52
91.875877 111.00696 257.84543 37 43 50
92.878349 111.0147 256.84796 37 44 51
92.875862 111.00991 257.84793 37 44 51
91.87339 111.00217 258.84546 38 45 52
91.870422 112.00215 258.85022 38 45 52
91.867935 111.99738 259.85019 38 45 52
92.873383 111.00513 258.84793 36 43 50
92.870415 112.00512 258.85272 36 43 50
92.867928 112.00033 259.85269 37 44 52
92.864967 113.00031 259.85748 37 44 52
93.878349 111.01766 256.85046 37 44 51
93.87587 111.01288 257.85043 38 44 51
93.872894 112.01286 257.85522 37 44 51
94.878342 111.02063 256.85297 35 43 50
94.875366 112.02061 256.85773 35 43 50
94.872879 112.01583 257.85773 36 43 51
93.870407 112.00808 258.85519 37 44 51
94.870399 112.01104 258.8577 37 44 51
93.864952 113.00328 259.85999 37 44 52
94.867424 113.01102 258.86249 37 44 51
94.864944 113.00625 259.86249 37 44 51
94.861969 114.00624 259.86725 36 44 51
91.86248 112.99257 260.85495 39 45 53
91.859497 113.99256 260.85971 38 45 53
91.857018 113.98779 261.85971 38 45 52
92.86248 112.99554 260.85745 38 45 52
92.859497 113.99553 260.86221 38 45 53
92.857018 113.99074 261.86221 38 45 53
93.862473 112.9985 260.85995 37 44 52
93.859489 113.99849 260.86472 37 44 52
94.859489 114.00145 260.86722 36 44 52
91.854057 114.98777 261.86447 39 45 53
91.851074 115.98775 261.86926 39 46 53
92.854042 114.99072 261.86697 39 46 53
92.851067 115.99072 261.87177 39 46 54
91.848587 115.98296 262.86929 38 45 53
92.848579 115.98592 262.8718 39 46 54
91.845612 116.98296 262.87405 38 45 53
91.843132 116.97816 263.87399 38 45 53
91.840157 117.97815 263.87878 39 45 53
92.845604 116.98592 262.87656 40 47 54
92.843124 116.98112 263.8765 39 46 54
92.840141 117.98111 263.88129 40 46 54
93.854034 114.99368 261.86948 38 45 53
93.851059 115.99367 261.87424 39 46 54
94.856514 115.00143 260.87201 36 44 52
94.854034 114.99666 261.87198 37 45 52
94.851051 115.99664 261.87674 37 45 53
93.848572 115.98889 262.87427 39 46 54
94.848564 115.99185 262.87677 38 45 53
93.845604 116.98888 262.87906 40 47 55
93.843124 116.98409 263.879 39 46 54
93.840141 117.98407 263.88376 40 47 55
94.845596 116.99184 262.88156 38 46 54
94.843117 116.98705 263.8815 38 45 53
94.840134 117.98704 263.88626 39 46 54
87.842171 118.97585 261.8736 34 42 49
87.839195 119.97583 261.87836 34 41 48
87.839684 118.97106 262.87363 34 41 49
87.836708 119.97105 262.87839 34 41 48
88.839684 118.97402 262.87613 34 42 49
88.8367 119.97401 262.88089 34 41 49
88.834221 119.96922 263.88083 34 41 49
87.83374 120.97105 262.88315 34 41 48
87.830757 121.97102 262.88794 33 40 47
88.833725 120.974 262.88565 34 41 48
88.831245 120.96921 263.88559 34 41 48
88.82827 121.96919 263.89038 33 40 47
89.839668 118.977 262.8786 35 42 50
89.837189 118.9722 263.87857 35 42 50
89.834213 119.97218 263.88333 35 42 49
90.837189 118.97516 263.88107 36 43 51
90.834213 119.97514 263.88583 35 42 50
89.831245 120.97218 263.88809 34 41 49
89.82827 121.97217 263.89288 34 41 48
87.827782 122.97101 262.89273 32 39 46
87.825302 122.96622 263.89267 32 39 46
87.824806 123.971 262.89749 32 39 46
87.822327 123.9662 263.89743 32 39 46
88.825294 122.96918 263.89517 33 39 47
88.822311 123.96917 263.89993 32 39 46
87.819351 124.96619 263.90222 31 37 45
87.816368 125.96617 263.90701 30 37 44
88.819351 124.96915 263.90472 32 38 45
91.837181 118.97813 263.88354 38 45 53
92.837173 118.98109 263.88605 39 46 54
93.837173 118.98405 263.88855 40 48 56
94.837158 118.98702 263.89105 40 47 55
90.834702 118.97038 264.88107 37 44 51
90.831726 119.97037 264.88583 36 43 51
89.828758 120.96739 264.88812 35 42 50
89.825775 121.96738 264.89288 35 42 49
90.828751 120.97036 264.89062 36 43 51
90.825768 121.97034 264.89539 37 43 51
88.819824 123.96438 264.89996 34 40 47
87.816864 124.96141 264.90222 32 39 46
87.813881 125.9614 264.90701 31 38 46
88.816864 124.96436 264.90472 33 39 46
88.813881 125.96435 264.90948 33 40 47
88.811394 125.95956 265.90948 35 41 48
89.822807 122.96736 264.89767 35 41 48
89.819824 123.96735 264.90247 35 41 48
90.8228 122.97032 264.90015 36 43 50
90.82032 122.96554 265.90015 37 43 51
90.817337 123.96553 265.90494 37 43 50
89.816856 124.96733 264.90723 36 42 49
89.814377 124.96255 265.9072 36 42 49
89.811394 125.96254 265.91199 36 43 50
90.814362 124.96551 265.9097 37 44 51
90.811394 125.96549 265.91449 37 44 51
91.834694 118.97334 264.88354 39 45 53
91.831711 119.97333 264.88834 38 45 53
92.834686 118.97631 264.88605 39 46 54
92.831711 119.9763 264.89081 39 46 54
91.828743 120.97332 264.89313 38 45 53
91.82576 121.9733 264.89789 38 44 52
91.82328 121.96852 265.89786 39 45 53
92.828735 120.97628 264.89563 39 46 54
92.826256 120.9715 265.8956 39 46 54
92.82328 121.97149 265.90036 39 46 54
93.834686 118.97927 264.88855 40 48 56
93.831703 119.97926 264.89331 39 47 55
94.834671 118.98224 264.89105 41 48 56
94.831696 119.98222 264.89581 40 47 55
93.828728 120.97925 264.89813 40 47 55
93.826248 120.97446 265.8981 40 48 56
93.823273 121.97444 265.90286 40 47 55
94.828728 120.98222 264.9006 40 47 56
94.823265 121.97741 265.90536 39 47 55
91.820312 122.96851 265.90265 39 45 53
91.817337 123.9685 265.90744 38 45 53
92.820305 122.97147 265.90515 40 47 55
92.817329 123.97146 265.90991 40 47 55
91.814362 124.96848 265.9122 39 46 53
91.811378 125.96846 265.91699 38 45 52
92.814354 124.97144 265.9147 40 47 55
91.808884 125.96368 266.91699 38 45 53
92.811859 124.96666 266.91473 40 47 55
92.808876 125.96664 266.91949 39 47 55
93.820297 122.97443 265.90765 39 46 55
93.817314 123.97443 265.91241 38 47 55
94.820297 122.97739 265.91016 40 48 56
94.817314 123.97739 265.91492 39 47 56
94.814339 124.97737 265.91968 39 47 56
93.811867 124.96962 266.91721 39 47 55
93.808884 125.9696 266.922 39 47 56
94.811852 124.97259 266.91971 39 47 56
94.808876 125.97257 266.9245 40 48 57
95.875366 112.02357 256.86023 36 43 50
95.872887 112.01879 257.86023 36 43 50
96.875351 112.02654 256.86273 37 43 50
95.872391 113.02355 256.86499 37 43 50
95.869911 113.01878 257.86499 37 43 51
96.872375 113.02652 256.86749 38 44 51
96.869896 113.02173 257.86749 38 44 51
96.866905 114.02172 257.87228 37 43 50
95.867424 113.01399 258.86496 36 43 51
95.864449 114.01398 258.86975 36 44 51
95.861969 114.0092 259.86975 37 44 52
96.864426 114.01694 258.87225 37 44 51
96.861946 114.01215 259.87228 37 44 52
97.872375 113.02949 256.87 37 43 50
97.869392 114.02948 256.87479 36 43 50
97.866913 114.0247 257.87476 36 43 50
98.869385 114.03244 256.87729 36 43 50
97.864426 114.01991 258.87473 37 43 50
95.859474 114.00442 260.86972 36 44 52
96.858978 115.01214 259.87704 37 45 52
98.866409 115.03242 256.88205 36 43 50
98.863922 115.02764 257.88202 36 43 50
97.86145 115.0199 258.87955 37 44 52
97.858963 115.01511 259.87955 38 45 52
97.855995 116.01509 259.88431 37 44 52
98.861443 115.02285 258.88202 36 43 51
98.858467 116.02284 258.88681 37 44 52
98.85598 116.01806 259.88681 37 44 52
98.853004 117.01804 259.8916 37 45 52
95.856506 115.00439 260.87448 37 44 52
95.854027 114.99962 261.87448 37 45 52
95.851044 115.9996 261.87924 37 45 53
96.856499 115.00736 260.87698 37 45 52
96.853516 116.00734 260.88177 38 45 53
96.851036 116.00256 261.88174 38 45 53
95.848557 115.99481 262.87924 37 45 53
96.848061 117.00256 261.88651 37 45 53
95.845581 116.9948 262.88403 37 45 53
95.842606 117.99479 262.88882 38 45 54
95.840126 117.99 263.88876 38 46 54
96.845573 116.99776 262.88654 37 45 53
96.842598 117.99775 262.8913 37 45 53
97.853508 116.01031 260.88428 38 45 52
97.850533 117.01031 260.88904 38 45 53
97.848053 117.00552 261.88901 38 45 53
97.84507 118.0055 261.8938 38 45 53
98.850533 117.01327 260.89154 38 45 52
98.847549 118.01325 260.8963 38 45 53
98.84507 118.00846 261.8963 38 45 53
97.842583 118.00072 262.8938 38 45 53
99.866409 115.03539 256.88455 37 44 51
99.863426 116.03537 256.88931 37 43 50
99.860939 116.03059 257.88934 37 44 51
100.86342 116.03834 256.89182 37 44 51
100.86094 116.03355 257.89182 38 45 52
99.858459 116.0258 258.88931 38 44 52
100.86045 117.03832 256.89658 38 45 52
100.85797 117.03355 257.89661 38 45 52
99.855492 117.02579 258.89407 38 45 52
99.853012 117.02102 259.8941 38 45 52
99.850021 118.021 259.89886 37 45 52
100.85548 117.02876 258.89658 38 45 52
100.85299 117.02398 259.89661 38 45 52
100.8525 118.02874 258.90134 39 45 52
100.85002 118.02396 259.90137 39 45 53
101.86044 117.04129 256.89908 38 45 52
101.85747 118.04127 256.9039 39 45 52
101.85499 118.03648 257.90387 39 46 53
102.85745 118.04424 256.90637 38 44 52
102.85497 118.03945 257.90637 38 45 52
101.8525 118.03171 258.90384 39 46 53
101.85001 118.02692 259.90387 39 46 53
99.847542 118.01621 260.8988 38 45 52
95.837158 118.98998 263.89355 38 46 54
96.839622 118.99773 262.89609 38 45 53
96.837143 118.99294 263.89606 38 45 53
96.83416 119.99293 263.90082 38 46 54
98.842102 119.00845 261.90106 38 45 53
97.839615 119.0007 262.89859 38 45 53
97.837135 118.99591 263.89856 38 45 53
97.83416 119.9959 263.90332 38 45 53
98.839615 119.00367 262.90106 38 45 53
98.836632 120.00365 262.90588 38 45 53
97.831184 120.99588 263.90808 38 45 53
97.828209 121.99586 263.91284 38 45 53
98.833656 121.00364 262.91064 37 45 52
98.831177 120.99885 263.91058 37 45 52
98.828201 121.99883 263.91534 37 45 52
98.825226 122.99881 263.92014 38 45 53
98.822243 123.9988 263.92493 38 45 53
100.84705 119.02395 259.90613 38 45 53
102.85448 119.04423 256.91116 38 44 52
102.852 119.03944 257.91113 39 45 52
102.84902 120.03942 257.91592 39 46 53
101.84953 119.03168 258.90863 39 45 53
101.84704 119.0269 259.90863 39 46 53
101.84406 120.02689 259.91339 40 47 55
102.84952 119.03466 258.91113 39 45 53
102.84653 120.03464 258.91589 39 46 53
102.84405 120.02985 259.91589 40 47 55
102.84357 121.03463 258.92065 39 46 53
102.84108 121.02985 259.92068 41 48 56
102.83811 122.02983 259.92548 41 47 55
99.844566 119.0162 260.90356 38 45 52
99.842087 119.01141 261.90359 38 45 53
99.839111 120.0114 261.90839 38 45 53
