ply
format ascii 1.0
comment PCL generated
element vertex 2032
property float x
property float y
property float z
property uchar red
property uchar green
property uchar blue
element camera 0
property float view_px
property float view_py
property float view_pz
property float x_axisx
property float x_axisy
property float x_axisz
property float y_axisx
property float y_axisy
property float y_axisz
property float z_axisx
property float z_axisy
property float z_axisz
property float focal
property float scalex
property float scaley
property float centerx
property float centery
property int viewportx
property int viewporty
property float k1
property float k2
end_header
336 601 333 143 113 93
336 602 332 144 111 92
336 602 333 146 114 96
336 603 332 145 111 93
336 603 333 147 114 96
337 604 329 144 112 94
337 605 329 150 119 102
336 604 331 148 115 99
336 605 331 150 114 101
337 604 330 142 109 91
337 604 331 148 115 98
337 605 330 146 112 97
337 606 329 154 121 104
337 607 329 156 121 104
336 606 330 149 112 96
336 606 331 152 115 100
336 607 330 154 118 102
336 607 331 151 115 98
337 606 330 152 117 102
337 607 330 155 120 104
338 604 328 144 113 95
338 604 329 144 113 95
338 605 328 146 114 96
338 605 329 149 117 100
338 606 328 152 118 101
338 606 329 152 119 102
338 607 328 156 122 106
336 604 332 148 113 97
336 604 333 148 112 98
336 605 332 152 116 103
336 605 333 150 113 100
336 606 332 154 117 102
322 576 352 102 91 83
322 576 353 102 91 84
323 576 352 103 91 83
323 576 353 103 92 84
323 577 352 104 92 83
323 577 353 102 91 83
322 576 354 103 92 85
322 576 355 104 93 86
323 576 354 103 92 84
323 576 355 103 92 85
323 577 354 102 91 82
323 577 355 103 92 84
322 576 356 103 93 85
322 576 357 103 92 85
323 576 356 103 93 85
323 576 357 104 93 85
323 577 356 104 93 85
323 577 357 104 93 85
323 576 358 102 92 85
323 576 359 100 90 83
323 577 358 101 91 83
324 577 352 104 92 83
324 577 353 102 90 81
324 577 354 101 90 81
324 577 355 103 91 83
324 578 352 103 91 81
324 578 353 102 90 81
325 578 352 102 90 81
325 578 353 100 89 81
325 579 352 102 90 82
325 579 353 101 90 81
324 578 354 101 89 81
324 578 355 101 90 82
325 578 354 100 89 80
325 579 354 100 89 81
325 579 355 100 89 81
326 579 352 101 89 80
324 577 356 104 93 85
324 577 357 104 93 85
324 577 358 100 89 81
324 577 359 98 88 80
324 578 356 103 92 85
324 578 357 103 92 85
325 578 356 102 91 84
325 578 357 103 92 84
325 579 356 101 91 83
325 579 357 101 90 83
324 578 358 102 91 83
324 578 359 98 88 81
325 578 358 101 90 83
325 578 359 99 89 82
325 579 358 100 90 83
325 579 359 100 90 82
326 579 359 99 89 82
326 580 352 100 88 79
326 580 353 99 88 79
327 580 352 97 86 78
327 580 353 97 86 78
327 581 352 95 85 77
327 581 353 96 85 78
326 580 354 98 87 79
326 580 355 98 87 79
327 580 354 96 86 78
327 581 354 97 86 78
327 581 355 98 88 79
327 582 354 98 87 78
327 582 355 101 89 79
327 583 355 107 92 80
326 580 356 99 88 80
326 580 357 100 89 81
327 581 356 101 89 80
327 581 357 103 90 80
326 580 358 101 90 82
326 580 359 101 90 82
327 581 358 105 92 82
327 581 359 108 94 82
327 582 356 105 92 80
327 582 357 107 92 80
327 583 356 110 94 80
327 583 357 112 94 78
327 582 358 109 94 80
327 582 359 114 97 83
327 583 358 117 97 81
327 583 359 122 101 84
323 576 360 99 90 84
323 576 361 98 89 83
323 576 362 96 88 82
323 576 363 95 87 83
323 576 364 93 86 82
324 577 360 97 87 81
324 577 361 96 87 81
324 576 362 96 87 81
324 576 363 94 86 81
324 577 362 95 86 81
324 577 363 95 86 80
325 577 362 96 87 81
325 577 363 97 88 81
325 578 360 96 87 80
325 578 361 96 86 80
325 579 360 98 88 81
325 579 361 99 88 81
325 578 362 97 88 81
325 578 363 100 90 82
325 579 362 100 90 81
325 579 363 106 93 83
326 579 360 98 88 81
326 579 361 100 89 81
326 579 362 104 92 82
326 579 363 107 94 84
324 576 364 93 85 81
324 576 365 93 86 81
324 577 364 94 86 80
324 577 365 98 88 82
325 577 364 97 88 81
325 577 365 101 91 84
324 576 366 96 88 83
324 576 367 102 93 86
324 577 366 100 90 83
324 577 367 107 95 86
325 577 366 105 94 85
325 577 367 109 96 86
325 578 364 103 92 83
325 578 365 107 95 85
325 579 364 109 96 85
325 579 365 113 99 87
325 578 366 112 98 87
325 578 367 118 101 88
325 579 366 121 104 91
325 579 367 126 107 92
326 579 364 112 98 87
326 579 365 117 101 88
326 580 360 103 91 82
326 580 361 106 93 83
326 581 361 115 99 85
327 581 360 111 96 83
327 581 361 116 99 84
326 580 362 112 97 86
326 580 363 117 101 88
326 581 362 123 103 88
326 581 363 128 107 91
327 582 360 118 99 84
327 582 361 123 103 86
327 583 360 126 103 87
327 583 361 131 106 89
326 582 362 131 107 90
326 582 363 134 110 93
326 583 362 136 108 91
326 583 363 139 110 94
327 582 362 127 105 88
327 583 362 135 107 90
325 580 366 128 109 94
325 580 367 135 112 95
325 583 367 153 117 100
326 580 364 121 103 89
326 580 365 125 106 91
326 581 364 131 109 91
326 581 365 134 110 93
326 580 366 131 109 93
326 580 367 139 112 96
326 581 366 138 112 95
326 581 367 143 114 97
326 582 364 137 110 94
326 582 365 139 111 95
326 583 364 141 110 94
326 583 365 142 110 95
326 582 366 143 113 96
326 582 367 147 114 97
326 583 366 146 112 97
326 583 367 150 115 98
327 584 357 119 98 80
327 584 358 125 102 85
327 584 359 129 104 87
327 585 358 132 105 88
327 585 359 134 105 89
327 586 357 137 109 93
327 587 357 142 111 96
327 586 358 137 108 91
327 586 359 139 109 92
327 587 358 144 112 97
327 587 359 144 112 96
327 589 355 143 113 97
327 591 352 149 117 103
327 591 353 150 119 104
327 590 354 144 113 98
327 590 355 148 115 100
327 591 354 150 117 102
327 591 355 152 119 104
325 591 358 157 118 108
325 591 359 155 117 104
327 588 356 142 110 96
327 588 357 147 115 102
327 589 356 147 114 99
327 589 357 152 118 105
326 589 359 150 115 99
327 588 358 150 116 102
327 588 359 146 112 95
327 589 358 153 117 103
327 589 359 150 114 99
326 591 356 156 120 107
326 591 357 156 121 107
327 590 356 152 119 104
327 590 357 156 122 108
327 591 356 155 121 107
327 591 357 157 123 108
326 590 358 155 119 105
326 590 359 153 117 102
326 591 358 156 119 107
326 591 359 157 120 107
327 590 358 154 119 105
322 591 363 163 119 104
323 590 363 166 125 109
323 591 362 163 120 106
323 591 363 164 122 107
321 591 365 173 127 113
320 590 367 173 124 112
320 591 366 175 126 114
320 591 367 176 127 115
321 590 366 172 124 110
321 590 367 172 124 111
321 591 366 172 125 111
323 589 365 165 121 107
322 589 366 174 129 114
322 589 367 173 126 112
323 588 366 171 126 110
323 588 367 175 130 114
323 589 366 171 126 112
322 590 364 164 120 108
322 590 365 169 123 111
322 591 364 166 122 109
322 591 365 172 128 115
323 590 364 163 119 104
323 590 365 162 117 104
322 590 366 173 127 113
327 584 360 134 106 90
327 584 361 138 109 93
327 585 360 137 107 91
327 585 361 141 109 93
326 584 362 141 110 93
326 584 363 144 112 98
326 585 362 146 114 98
326 585 363 148 115 100
327 584 362 139 109 91
327 585 362 142 111 94
326 587 361 149 114 98
327 586 360 140 109 93
327 586 361 144 111 95
327 587 360 145 112 96
327 587 361 147 114 98
326 586 362 148 113 98
326 586 363 150 114 100
326 587 362 150 112 98
326 587 363 153 114 99
327 586 362 146 112 97
325 584 367 157 120 103
325 585 366 153 116 100
325 585 367 160 122 105
325 586 365 157 119 105
325 587 364 161 121 106
325 587 365 162 123 108
324 587 366 171 130 113
324 587 367 172 130 113
325 586 366 159 121 106
325 586 367 165 125 107
325 587 366 165 125 108
325 587 367 167 127 107
326 584 364 145 111 98
326 584 365 143 108 94
326 585 364 147 113 100
326 585 365 146 108 96
326 584 366 148 112 97
326 584 367 154 118 102
326 585 366 149 111 98
326 586 364 150 112 98
326 586 365 151 113 99
326 587 364 156 117 102
326 586 366 154 116 103
325 589 361 158 117 104
324 589 363 167 126 110
325 588 362 161 120 105
325 588 363 163 123 107
325 589 362 160 119 105
325 589 363 166 125 110
324 591 361 162 122 109
325 590 360 156 118 105
325 590 361 159 120 107
325 591 360 154 115 100
325 591 361 161 122 108
324 590 362 162 120 105
324 590 363 166 124 110
324 591 362 162 120 107
325 590 362 160 118 104
326 588 360 148 114 98
326 588 361 152 115 100
326 589 360 151 115 100
326 589 361 155 117 103
327 588 360 147 113 97
326 588 362 155 115 101
326 590 360 153 115 101
324 588 364 166 125 108
324 588 365 165 124 107
324 589 364 166 125 109
324 589 365 165 123 107
325 588 364 166 126 110
325 588 365 165 125 110
324 588 366 168 126 110
324 588 367 175 132 116
324 590 364 166 125 109
328 582 352 96 84 76
328 582 353 96 85 76
328 583 352 99 87 76
328 583 353 100 87 76
328 582 354 99 87 77
328 583 354 103 89 77
328 583 355 106 91 79
328 583 356 114 96 80
328 583 357 115 95 79
328 584 352 103 89 76
328 584 353 105 90 77
328 585 352 109 93 79
328 585 353 111 94 79
329 585 352 110 93 79
328 584 354 108 93 79
328 584 355 112 94 80
328 585 354 114 96 81
328 585 355 118 97 82
328 586 352 114 96 81
328 586 353 117 98 83
328 587 352 122 102 86
328 587 353 124 102 87
329 586 352 113 95 80
329 587 352 120 100 84
328 586 354 120 99 84
328 586 355 122 98 83
328 587 354 127 103 88
328 587 355 128 102 85
328 584 356 116 97 81
328 584 357 120 98 81
328 585 356 123 100 84
328 585 357 128 103 86
328 586 356 129 103 88
328 586 357 134 106 91
328 587 356 134 105 90
328 587 357 139 110 95
328 588 352 129 106 90
328 588 353 132 107 92
328 589 352 135 109 93
328 589 353 138 111 96
329 588 352 126 104 88
328 588 354 134 107 92
328 588 355 135 106 90
328 589 354 138 108 94
328 589 355 140 110 94
328 590 352 140 112 96
328 590 353 143 114 100
328 591 352 145 115 99
328 591 353 147 117 103
328 590 354 142 112 97
328 588 356 138 107 92
323 576 375 149 123 106
323 582 375 168 124 110
323 583 374 169 126 111
323 583 375 166 124 110
324 576 368 107 96 87
324 576 369 114 100 89
324 577 368 111 98 88
324 577 369 122 105 91
325 577 368 115 100 88
325 577 369 122 105 91
324 576 370 121 104 91
324 576 371 128 110 95
324 577 370 131 112 96
324 577 371 137 116 99
325 577 370 132 113 97
325 578 368 123 105 90
325 578 369 132 111 95
325 579 368 132 111 94
325 579 369 139 115 98
324 578 371 147 121 104
325 578 370 140 117 101
325 578 371 149 122 105
325 579 370 149 121 105
325 579 371 154 124 108
324 576 372 134 114 98
324 576 373 141 119 102
324 577 372 144 120 103
324 577 373 150 123 106
324 576 374 147 121 104
324 576 375 151 124 107
324 577 374 154 124 107
324 577 375 157 125 108
324 578 372 152 124 107
324 578 373 157 125 109
324 579 372 158 125 109
324 579 373 163 127 112
325 579 372 159 124 108
324 578 374 160 125 109
324 578 375 162 125 109
324 579 374 166 128 113
324 579 375 166 127 112
325 580 368 141 114 97
325 580 369 147 116 100
325 581 368 147 115 99
325 581 369 152 118 102
325 580 370 154 120 105
325 580 371 158 122 107
325 581 370 157 120 105
325 581 371 160 120 106
325 582 368 150 115 99
325 582 369 155 119 104
325 583 368 154 117 101
325 583 369 159 122 105
324 583 371 167 125 110
325 582 370 160 121 107
325 582 371 161 120 106
325 583 370 164 125 109
325 583 371 165 124 109
324 580 372 164 124 111
324 580 373 168 128 114
324 581 372 166 123 110
324 581 373 170 128 115
325 580 372 162 123 109
325 581 372 163 121 108
324 580 374 170 129 115
324 580 375 169 127 113
324 581 374 171 128 114
324 581 375 169 125 111
324 582 372 165 121 109
324 582 373 170 126 112
324 583 372 167 124 110
324 583 373 169 124 111
324 582 374 170 127 113
324 582 375 169 125 110
324 583 374 169 126 112
324 583 375 168 125 110
323 576 376 153 124 107
323 576 377 155 124 107
323 577 376 159 125 109
323 577 377 161 126 110
323 576 378 155 123 107
323 576 379 155 122 107
323 577 378 162 126 111
323 577 379 161 123 110
323 578 377 165 127 112
323 579 377 167 127 112
323 578 378 166 127 113
323 578 379 164 125 112
323 579 378 167 126 113
323 579 379 164 124 110
323 576 380 155 121 107
323 576 381 156 122 107
323 577 380 157 119 105
323 577 381 156 120 105
323 576 382 156 121 105
323 576 383 155 120 103
323 577 382 156 119 103
323 577 383 154 118 101
323 578 380 157 118 104
323 578 381 155 116 100
323 579 380 158 118 104
323 579 381 155 114 100
323 578 382 155 117 101
323 578 383 156 118 101
323 579 382 155 114 99
323 579 383 158 118 102
321 583 379 166 122 109
323 580 377 168 125 113
323 581 376 168 124 112
323 581 377 167 123 111
323 580 378 166 124 111
323 580 379 161 120 106
323 581 378 160 118 105
323 581 379 155 111 96
322 583 376 159 118 103
322 583 377 157 116 103
323 582 376 167 123 110
323 582 377 163 120 107
323 583 376 163 121 106
323 583 377 159 117 103
322 582 379 156 112 97
322 583 378 156 112 99
322 583 379 160 115 101
323 582 378 157 114 101
323 582 379 155 112 96
321 583 380 167 122 109
321 583 381 164 120 107
321 583 382 162 119 106
321 583 383 160 118 105
322 581 380 160 117 102
322 581 381 163 120 104
323 580 380 157 116 102
323 580 381 157 116 102
323 581 380 157 114 99
323 581 381 161 119 104
322 581 382 164 122 108
322 581 383 165 124 110
323 580 382 158 116 101
323 580 383 161 119 105
323 581 382 162 120 105
322 582 380 163 120 105
322 582 381 166 122 107
322 583 380 167 124 110
322 582 382 167 124 111
322 582 383 163 121 108
324 577 376 159 126 109
324 578 376 163 126 110
324 579 376 167 126 112
324 579 377 167 127 112
324 576 382 155 123 107
324 576 383 154 121 104
324 580 376 168 125 112
324 580 377 168 125 113
324 581 376 168 124 111
323 587 368 178 134 119
323 587 369 179 134 119
322 587 370 175 128 115
322 587 371 173 127 114
323 586 370 177 132 116
323 586 371 177 133 116
323 587 370 179 134 119
323 587 371 178 134 119
321 585 375 157 112 99
320 587 373 170 125 113
321 587 372 166 119 107
321 587 373 167 121 108
320 586 375 169 125 109
320 587 374 170 126 112
320 587 375 171 127 112
321 586 374 164 117 104
321 586 375 161 117 102
321 587 374 167 122 109
322 585 373 167 123 110
323 584 373 171 128 114
323 585 372 174 131 116
323 585 373 171 127 114
322 584 375 161 119 106
322 585 374 163 119 107
322 585 375 157 113 100
323 584 374 167 124 111
323 584 375 164 122 108
323 585 374 167 124 111
322 586 372 171 127 113
322 586 373 165 120 108
322 587 372 170 125 112
322 587 373 166 120 108
323 586 372 174 130 114
323 586 373 170 127 114
322 586 374 159 114 101
320 589 369 172 124 112
321 588 369 170 122 110
321 589 368 171 123 111
321 589 369 170 121 110
320 588 371 173 127 116
320 589 370 174 126 115
320 589 371 172 125 114
321 588 370 171 124 113
321 588 371 171 124 114
321 589 370 172 124 113
320 590 368 174 126 114
320 590 369 174 126 115
321 590 368 172 123 112
322 588 368 176 130 117
322 588 369 175 128 115
322 589 368 173 125 113
322 589 369 172 124 112
323 588 368 177 132 117
322 588 370 170 121 110
322 588 371 171 123 112
320 588 372 172 126 114
320 588 373 170 124 112
321 588 372 170 123 112
320 588 374 172 126 114
324 585 369 174 132 117
325 584 368 160 122 104
325 584 369 166 128 110
325 585 368 165 125 108
325 585 369 170 129 114
324 584 370 172 132 115
324 584 371 173 132 117
324 585 370 176 134 117
324 585 371 177 134 119
325 584 370 170 131 113
325 585 370 172 132 115
324 586 368 172 128 112
324 586 369 175 132 116
324 587 368 175 131 116
324 587 369 179 135 120
325 586 368 168 126 109
324 586 370 179 135 119
324 586 371 177 133 116
324 584 372 173 131 117
324 584 373 171 128 115
324 585 372 175 132 118
320 585 377 165 121 107
321 584 377 159 116 101
321 585 376 162 120 105
321 585 377 163 120 104
320 584 379 163 118 105
320 585 378 164 117 103
320 585 379 161 115 101
321 584 378 161 116 103
321 584 379 166 121 108
321 585 378 164 119 105
320 586 376 169 125 109
320 586 377 168 122 108
320 587 376 173 130 115
321 586 376 165 122 107
322 584 376 158 117 103
322 584 377 157 114 99
322 585 376 157 114 100
320 584 380 159 115 101
320 584 381 157 113 99
320 585 380 159 115 101
321 584 380 164 118 105
321 584 381 162 118 105
320 584 382 158 115 102
320 584 383 157 116 102
321 595 359 173 128 116
323 593 359 162 119 108
323 595 356 174 130 117
323 595 357 171 127 113
322 594 359 168 124 113
322 595 358 168 124 110
322 595 359 171 127 115
323 594 358 166 123 109
323 594 359 165 122 109
323 595 358 166 123 109
321 599 355 170 125 114
323 596 355 177 132 119
323 597 355 176 130 117
322 599 353 173 128 115
323 598 353 172 128 114
323 599 352 172 130 114
323 599 353 172 128 114
322 598 354 173 128 115
322 598 355 172 127 115
322 599 354 174 130 117
322 599 355 171 127 116
323 598 354 174 128 114
323 598 355 174 128 115
321 597 357 169 122 110
320 596 359 172 126 113
320 597 358 171 126 112
320 597 359 172 127 113
321 596 358 172 127 114
321 596 359 174 130 116
321 597 358 173 128 114
320 598 357 172 127 115
320 599 356 173 127 114
320 599 357 172 126 113
321 598 356 169 123 112
321 598 357 171 125 114
321 599 356 171 125 113
320 598 358 171 126 113
322 596 357 168 123 109
322 597 356 169 123 110
322 597 357 167 121 109
323 596 356 174 129 117
323 596 357 170 126 112
323 597 356 175 129 118
322 596 358 171 127 114
322 598 356 170 124 113
324 595 355 170 127 114
325 594 355 163 125 112
325 595 354 165 124 112
325 595 355 166 126 114
327 592 352 151 118 103
327 592 353 155 122 107
327 593 352 153 120 105
327 593 353 159 125 109
326 592 355 153 118 103
326 593 354 155 120 104
326 593 355 154 118 103
327 592 354 153 119 103
327 592 355 152 118 102
326 594 353 162 125 112
326 595 352 162 124 110
326 595 353 164 124 113
327 594 352 158 123 109
327 594 353 161 125 111
327 595 352 162 126 111
326 594 354 158 121 107
326 594 355 159 122 109
326 595 354 162 123 110
325 592 357 155 117 104
325 593 356 159 121 108
325 593 357 161 122 109
324 592 359 157 117 105
324 593 358 163 121 110
324 593 359 162 120 109
325 592 358 157 118 106
325 592 359 160 121 110
325 593 358 161 121 109
324 594 357 167 124 111
324 595 356 172 129 116
324 595 357 170 127 113
325 594 356 166 126 113
325 594 357 166 126 113
324 594 358 165 123 110
326 592 356 155 118 103
326 592 357 155 118 105
326 593 356 156 118 104
324 597 353 170 128 114
325 596 353 166 125 113
325 597 352 168 127 115
325 597 353 168 126 112
324 596 354 172 130 118
324 596 355 174 130 118
324 597 354 173 131 117
324 597 355 175 131 118
325 596 354 168 127 113
324 598 352 171 129 114
324 598 353 172 129 114
324 599 352 173 131 117
325 598 352 171 129 116
324 598 354 174 131 117
326 596 352 165 126 113
326 596 353 165 125 114
326 597 352 168 128 116
327 596 352 165 128 113
320 593 363 174 127 112
321 592 363 169 123 111
321 593 362 170 124 111
321 593 363 172 126 112
320 595 360 172 126 112
320 595 361 173 127 113
321 594 360 170 125 112
321 594 361 170 125 111
321 595 360 170 125 112
320 594 362 176 129 114
320 594 363 178 131 116
320 595 362 177 130 116
321 594 362 171 125 111
322 593 360 165 120 110
322 593 361 166 121 110
323 592 360 161 118 106
323 592 361 164 120 110
323 593 360 162 119 108
323 593 361 165 121 111
322 592 362 166 121 108
322 592 363 166 119 106
322 593 362 168 123 109
323 592 362 163 119 105
322 594 360 167 122 111
322 594 361 168 122 110
320 592 365 174 126 113
320 593 364 172 124 110
320 593 365 175 127 114
321 592 364 170 123 110
321 592 365 173 126 114
320 592 366 175 126 113
322 592 364 166 120 109
320 596 360 172 127 113
324 592 360 158 116 106
324 592 361 162 120 108
321 601 353 170 125 112
320 600 355 174 130 117
320 601 354 170 127 114
320 601 355 173 129 116
321 600 354 169 125 112
321 600 355 169 125 112
321 601 354 169 125 112
320 602 353 169 129 114
320 603 352 170 128 114
320 603 353 170 129 115
321 602 352 170 128 114
321 602 353 170 127 114
321 603 352 169 126 113
320 602 354 170 128 114
322 600 353 172 128 114
322 601 352 172 128 114
322 601 353 171 126 112
323 600 352 171 127 113
323 601 352 173 129 114
322 600 354 173 128 116
322 602 352 172 129 115
320 600 356 174 129 116
320 604 352 172 130 118
324 600 352 173 129 115
328 592 352 148 116 101
320 615 327 172 130 115
320 614 329 173 130 117
320 615 328 172 129 114
320 615 329 173 130 115
321 614 329 174 130 116
321 615 328 173 130 115
321 615 329 173 129 115
320 614 330 173 130 116
320 614 331 170 127 113
321 614 330 173 129 115
321 614 331 171 128 114
321 615 330 173 129 115
322 615 328 174 130 116
322 615 329 174 130 116
323 615 328 174 129 115
323 615 329 175 129 116
322 614 330 172 129 115
322 614 331 172 130 116
322 615 330 173 129 115
323 614 330 173 129 114
323 614 331 171 129 114
323 615 330 174 129 115
320 613 332 169 127 113
320 613 333 169 127 113
321 613 332 173 130 117
321 613 333 172 130 116
320 612 334 172 129 115
320 612 335 173 130 116
321 612 334 171 128 114
321 612 335 172 129 115
321 613 334 171 129 114
321 614 332 173 130 117
322 613 332 174 132 119
322 613 333 175 132 119
323 613 333 175 131 118
322 612 335 175 131 118
322 613 334 175 132 118
323 612 335 178 134 120
323 613 334 177 133 119
322 614 332 173 131 117
323 614 332 171 129 115
324 615 329 176 129 115
325 615 329 176 129 115
324 614 330 173 129 114
324 614 331 172 128 113
324 615 330 175 130 116
325 614 331 173 128 114
325 615 330 176 130 116
326 615 329 176 129 114
327 615 329 174 128 113
326 614 331 175 128 115
326 615 330 177 131 116
327 614 331 176 130 116
327 615 330 176 131 116
324 613 333 173 129 115
325 613 333 171 126 112
324 612 335 181 136 121
324 613 334 177 133 119
324 613 335 180 136 121
325 612 335 178 133 117
325 613 334 173 129 114
325 613 335 178 133 118
324 614 332 170 127 113
324 614 333 171 128 114
325 614 332 170 126 112
325 614 333 170 125 112
326 613 333 170 125 111
327 613 333 173 126 113
326 612 334 170 124 110
326 612 335 173 127 113
326 613 334 170 125 110
327 612 334 172 126 113
327 612 335 172 126 113
327 613 334 171 125 112
326 614 332 173 127 114
326 614 333 170 126 112
327 614 332 175 128 116
320 618 323 176 133 116
321 618 323 177 133 117
322 618 323 175 132 116
323 618 323 174 130 115
320 617 324 176 132 116
320 617 325 175 132 116
321 617 324 177 133 118
321 617 325 175 132 116
320 616 326 172 130 114
320 616 327 172 130 115
321 616 326 172 129 113
321 616 327 172 129 114
321 617 326 174 130 115
321 618 324 177 133 117
322 617 324 174 130 115
322 617 325 175 131 115
323 617 324 171 127 112
323 617 325 171 127 112
322 616 326 174 130 114
322 616 327 174 130 115
322 617 326 175 131 116
323 616 326 172 128 112
323 616 327 174 130 114
323 617 326 171 128 112
322 618 324 174 130 114
323 618 324 172 128 112
324 618 323 174 130 115
325 618 323 173 129 114
325 619 322 174 129 114
325 619 323 174 128 113
326 618 323 173 129 114
326 619 322 174 128 113
326 619 323 174 129 114
327 619 322 173 128 111
327 619 323 173 128 113
324 617 325 169 125 112
325 617 325 171 127 113
324 616 326 171 127 111
324 616 327 174 129 113
324 617 326 168 124 109
325 616 326 169 124 109
325 616 327 170 124 109
325 617 326 169 125 112
324 618 324 171 127 113
325 618 324 172 127 113
325 618 325 171 128 114
326 617 325 172 129 115
327 617 325 171 125 110
326 616 327 168 122 108
326 617 326 171 127 114
327 616 327 169 123 110
327 617 326 171 126 112
326 618 324 172 127 112
326 618 325 172 127 113
327 618 324 172 126 112
327 618 325 171 125 111
327 620 322 172 126 110
322 616 328 174 130 116
323 616 328 173 128 113
324 616 328 174 128 112
325 616 328 173 126 111
326 616 328 170 123 108
326 616 329 173 126 111
327 616 328 170 123 108
327 616 329 171 124 109
330 615 327 173 127 111
331 615 327 174 126 112
335 611 327 167 125 112
335 615 323 173 130 115
333 613 327 171 129 111
333 615 325 170 124 110
332 614 327 173 128 115
332 615 326 174 128 116
332 615 327 173 126 114
333 614 326 171 125 112
333 614 327 172 127 113
333 615 326 171 125 112
335 613 325 169 126 110
334 612 327 169 129 113
334 613 326 170 127 112
334 613 327 171 129 113
335 612 326 171 130 115
335 612 327 170 130 114
335 613 326 171 129 113
334 615 324 171 127 113
334 615 325 169 124 110
335 614 324 170 127 112
335 614 325 169 125 109
335 615 324 172 129 115
334 614 326 170 124 110
334 614 327 170 126 110
328 611 335 171 127 112
329 610 335 173 127 114
329 611 334 177 132 117
329 611 335 172 127 113
330 609 335 173 128 115
331 608 335 167 127 114
331 609 334 170 128 115
331 609 335 171 128 115
330 611 333 174 127 112
331 610 333 172 129 114
331 611 332 170 126 111
331 611 333 172 127 112
330 610 334 174 129 115
330 610 335 174 128 115
330 611 334 176 131 117
331 610 334 172 130 116
329 613 331 177 133 118
328 615 328 173 127 114
328 615 329 173 126 111
329 615 328 175 130 115
329 615 329 172 127 112
328 614 330 177 132 118
328 614 331 176 131 117
328 615 330 176 131 116
329 614 330 177 132 117
329 614 331 177 133 118
329 615 330 176 131 116
330 612 331 174 133 115
330 613 330 176 134 117
330 613 331 176 133 116
331 612 330 171 128 114
331 612 331 171 128 111
331 613 330 172 130 115
330 614 329 171 128 110
330 615 328 175 130 114
330 615 329 172 128 110
331 614 328 177 132 116
331 614 329 172 129 112
331 615 328 177 132 117
330 614 330 176 133 117
331 614 330 173 130 114
328 612 333 177 130 115
328 613 332 176 130 116
328 613 333 175 128 114
329 612 332 174 131 113
329 612 333 175 129 113
329 613 332 176 133 116
328 612 334 176 131 117
328 612 335 172 128 113
329 612 334 176 132 117
328 614 332 176 130 116
330 612 332 173 129 112
330 612 333 173 126 111
331 612 332 172 127 112
332 611 330 160 121 104
332 611 331 162 123 106
333 610 331 157 119 104
333 611 330 161 123 107
333 611 331 159 121 104
334 608 331 153 116 102
334 609 330 159 119 108
334 609 331 155 117 104
335 608 330 160 123 108
335 608 331 155 119 104
335 609 330 160 121 107
334 611 328 167 125 111
334 611 329 167 127 112
335 610 328 167 127 113
335 610 329 167 127 113
335 611 328 167 126 111
335 611 329 168 128 114
334 610 330 161 122 108
334 610 331 156 117 104
334 611 330 163 125 110
335 610 330 163 124 109
332 609 333 166 127 112
333 608 333 159 124 109
333 609 332 155 117 102
333 609 333 160 123 108
332 608 334 162 125 110
332 608 335 164 126 113
332 609 334 166 129 114
333 608 334 160 124 109
333 609 334 162 126 111
332 610 332 161 122 106
332 610 333 166 125 109
332 611 332 166 125 110
333 610 332 159 122 107
334 608 332 155 119 104
334 608 333 159 125 109
334 609 332 152 115 100
335 608 332 154 117 101
332 612 329 169 127 110
332 613 328 174 130 116
332 613 329 172 128 113
333 612 328 169 127 110
333 612 329 168 127 111
333 613 328 172 129 113
332 612 330 166 125 110
332 612 331 166 125 109
332 613 330 171 128 113
333 612 330 165 126 110
332 614 328 177 131 118
332 614 329 174 130 114
334 612 328 168 126 110
334 612 329 167 127 111
328 619 323 172 126 111
329 619 323 170 125 110
330 619 323 169 123 109
331 618 323 170 122 107
331 619 322 174 126 111
331 619 323 170 122 108
328 617 325 169 122 107
329 617 325 167 119 104
328 616 327 171 125 111
328 617 326 169 123 108
329 616 326 170 125 110
329 616 327 172 127 112
329 617 326 168 121 106
328 618 324 171 125 110
328 618 325 170 123 109
329 618 324 172 126 112
329 618 325 169 123 107
330 617 325 169 122 106
331 617 325 173 126 112
330 616 326 172 126 111
330 616 327 173 128 113
330 617 326 168 122 106
331 616 326 172 125 111
331 616 327 173 126 111
330 618 324 173 126 112
330 618 325 171 125 110
331 618 324 172 125 111
328 620 322 171 124 110
329 620 322 169 123 108
331 620 321 174 126 111
330 620 322 171 123 109
331 620 322 174 126 111
333 617 323 172 126 111
333 619 321 173 127 110
332 618 323 171 124 107
332 619 322 175 127 112
332 619 323 172 124 109
333 618 322 172 125 110
333 618 323 172 125 110
333 619 322 174 127 110
335 617 321 166 120 105
334 616 323 172 127 113
334 617 323 170 125 110
335 616 322 168 123 109
335 616 323 172 128 114
335 617 322 166 121 106
334 619 320 167 123 105
334 619 321 169 123 106
335 618 320 169 124 110
335 618 321 169 124 110
335 619 320 166 122 105
335 619 321 167 121 106
334 618 322 169 122 108
334 618 323 168 121 107
335 618 322 167 122 108
332 616 325 173 128 114
332 617 324 172 126 111
332 617 325 174 127 113
333 616 324 171 126 110
333 616 325 171 126 111
333 617 324 171 126 111
332 616 326 173 127 114
332 618 324 171 124 108
334 616 324 170 125 111
332 620 321 175 127 112
333 620 321 172 126 109
332 620 322 175 127 113
334 620 320 169 124 107
328 616 328 172 125 112
329 616 328 174 129 115
320 611 337 176 132 118
321 611 337 174 130 116
320 610 339 176 132 119
320 611 338 176 133 119
320 611 339 176 133 119
321 610 339 174 131 118
321 611 338 174 130 117
321 611 339 174 131 118
322 611 337 173 130 116
323 611 337 176 132 118
322 611 338 173 129 116
322 611 339 173 130 116
323 611 338 173 129 116
323 611 339 174 130 117
320 609 342 178 134 120
320 609 343 176 132 118
321 609 342 178 135 122
321 609 343 178 134 120
320 610 340 176 132 120
320 610 341 178 134 121
321 610 340 175 132 119
321 610 341 177 134 120
321 610 342 178 135 122
323 609 341 176 132 120
322 609 342 178 135 122
322 609 343 179 136 122
323 609 342 177 134 121
323 609 343 178 136 121
322 610 340 173 129 116
322 610 341 176 132 119
323 610 340 174 130 117
323 610 341 175 131 119
320 612 336 175 132 118
321 612 336 173 130 116
321 612 337 173 130 116
322 612 336 176 132 118
322 612 337 175 132 118
323 612 336 179 135 120
323 612 337 178 134 120
324 611 337 179 135 120
325 611 337 181 135 120
324 610 339 171 127 112
324 611 338 176 131 117
324 611 339 173 128 115
325 610 338 180 135 122
325 610 339 175 130 117
325 611 338 179 134 120
326 609 339 178 133 120
327 609 338 176 129 114
327 609 339 177 132 119
326 611 336 179 133 119
326 611 337 181 135 120
327 610 337 179 133 118
327 611 336 176 130 115
327 611 337 180 134 120
326 610 338 181 135 122
326 610 339 178 133 120
326 611 338 181 136 122
327 610 338 179 133 118
327 610 339 179 132 120
324 609 341 174 130 117
325 609 340 174 131 117
325 609 341 172 129 115
324 608 343 177 134 118
324 609 342 176 133 120
324 609 343 176 133 118
325 608 342 171 129 116
325 608 343 172 130 115
325 609 342 173 130 116
324 610 340 171 127 113
324 610 341 174 130 117
325 610 340 171 127 112
326 608 341 172 130 116
326 609 340 175 130 117
326 609 341 173 130 116
327 608 340 173 130 115
327 608 341 171 129 114
327 609 340 176 131 118
326 608 342 170 129 116
326 608 343 170 128 115
327 608 342 171 130 116
324 612 336 181 136 122
324 612 337 181 136 121
325 612 336 181 135 119
325 612 337 181 136 120
326 612 336 177 131 116
327 612 336 175 129 114
320 608 344 177 133 118
320 608 345 178 134 120
320 609 344 176 132 117
321 608 344 175 131 116
321 608 345 176 133 118
321 609 344 176 131 116
320 608 346 178 135 121
321 608 346 177 134 120
322 608 344 176 134 119
322 608 345 176 134 119
322 609 344 177 134 119
323 608 344 179 138 123
323 608 345 177 136 121
323 609 344 179 137 122
322 608 346 174 132 117
324 608 344 177 135 120
324 608 345 179 138 123
325 608 344 175 133 117
329 609 336 174 127 115
329 609 337 176 130 116
328 608 339 172 129 116
328 609 338 175 129 115
328 609 339 174 130 115
329 608 338 174 131 118
329 608 339 171 129 116
329 609 338 176 132 119
328 610 336 177 132 118
328 610 337 178 132 117
328 611 336 174 129 115
329 610 336 174 127 114
329 610 337 176 130 116
328 610 338 177 132 117
330 608 337 172 130 114
330 609 336 173 128 114
330 609 337 174 130 116
331 608 336 168 128 113
331 608 337 168 129 112
331 609 336 172 129 115
330 608 338 171 129 114
328 608 340 171 130 116
328 608 341 168 128 112
339 610 323 159 127 109
339 611 322 159 121 107
339 611 323 158 123 106
337 609 327 164 126 110
337 611 325 168 130 114
336 610 327 167 126 112
336 611 326 170 130 115
336 611 327 169 128 114
337 610 326 166 127 112
337 610 327 166 127 112
337 611 326 168 127 112
338 609 325 158 123 106
339 608 325 155 123 106
339 609 324 155 123 105
339 609 325 158 124 108
338 608 326 159 125 110
338 608 327 160 125 109
338 609 326 160 126 109
338 609 327 162 125 110
339 608 326 155 123 107
339 608 327 154 121 105
338 610 325 161 125 109
338 611 324 162 125 109
338 611 325 165 128 112
339 610 324 159 125 109
339 610 325 159 125 108
339 611 324 161 126 109
338 610 326 163 126 110
337 613 323 166 126 110
337 615 321 170 127 111
336 614 323 170 128 113
336 615 322 171 129 113
336 615 323 172 129 114
337 614 322 171 129 114
337 614 323 169 128 113
337 615 322 170 128 112
339 612 321 162 126 112
339 613 320 161 121 107
339 613 321 164 126 111
338 612 323 161 123 106
338 613 322 164 124 110
338 613 323 164 124 109
339 612 322 161 124 110
339 612 323 160 123 107
339 613 322 162 125 110
338 614 321 166 124 109
338 615 320 170 127 112
338 615 321 171 128 111
339 614 320 165 123 110
339 614 321 164 123 108
339 615 320 168 126 112
338 614 322 168 126 112
336 612 325 169 128 113
336 613 324 166 124 108
336 613 325 168 126 110
337 612 324 163 121 105
337 612 325 168 128 113
337 613 324 165 124 108
336 612 326 171 129 115
336 612 327 172 132 117
336 614 324 169 127 112
338 612 324 161 123 106
341 608 321 142 112 96
341 609 321 149 117 101
340 608 323 150 119 101
340 609 323 154 122 105
341 608 322 144 113 96
341 608 323 147 115 99
341 609 322 150 117 101
340 611 321 158 122 107
341 610 320 152 120 103
341 610 321 152 119 103
341 611 320 156 121 106
341 611 321 156 121 106
340 610 322 154 120 105
340 610 323 156 123 107
340 611 322 157 121 107
340 611 323 156 121 105
341 610 322 154 120 105
342 608 320 142 114 95
342 608 321 141 112 96
342 609 320 149 118 100
342 610 320 152 120 102
340 608 324 152 121 102
340 608 325 153 122 105
340 609 324 153 122 103
340 612 320 160 123 110
340 612 321 161 124 111
340 613 320 159 120 107
341 612 320 158 122 108
341 613 320 157 119 104
340 614 320 162 122 109
336 608 329 163 125 110
336 609 328 166 127 113
336 609 329 165 127 112
337 608 328 163 126 111
337 608 329 161 124 109
337 609 328 165 126 112
336 608 330 158 121 105
336 609 330 161 122 106
337 608 330 156 119 102
336 610 328 166 125 111
338 608 328 162 126 110
336 616 321 170 125 111
336 617 320 168 121 106
336 617 321 168 122 107
337 616 320 170 126 109
337 616 321 171 127 111
337 617 320 168 121 104
336 616 322 170 126 111
336 616 323 172 128 113
336 618 320 170 125 110
338 616 320 169 126 109
282 575 399 109 92 79
283 574 399 107 91 79
283 575 398 112 91 76
283 575 399 109 91 76
287 571 399 98 90 85
286 575 395 123 103 90
287 574 395 114 98 88
287 575 394 122 102 91
287 575 395 118 100 89
284 573 399 103 91 82
285 573 398 104 92 84
285 573 399 102 91 84
284 575 397 117 96 81
285 574 397 112 95 85
285 575 396 123 102 88
285 575 397 118 98 85
284 574 398 110 92 80
284 574 399 105 91 81
284 575 398 113 93 78
285 574 398 108 93 83
286 573 397 107 94 86
287 573 397 105 93 86
286 572 399 100 90 85
286 573 398 103 92 85
286 573 399 100 91 85
287 572 398 101 91 85
287 572 399 99 90 85
287 573 398 102 92 86
286 574 396 114 97 87
286 574 397 111 96 86
286 575 396 118 100 88
287 574 396 111 96 87
287 574 397 108 94 86
278 567 415 107 92 85
279 567 415 103 90 84
278 571 407 99 89 82
279 571 407 97 88 82
279 573 403 108 95 86
278 574 403 113 98 88
278 575 403 117 101 89
279 574 403 110 96 86
279 575 402 115 99 87
279 575 403 114 99 88
277 572 407 105 93 84
277 573 406 112 97 86
277 573 407 110 95 85
277 574 405 117 101 89
277 575 404 121 104 91
277 575 405 120 103 91
276 575 407 123 105 91
277 574 406 116 100 88
277 574 407 117 101 88
277 575 406 122 104 91
277 575 407 122 104 91
278 573 405 108 95 86
279 572 405 102 91 84
279 573 404 107 94 85
279 573 405 106 93 85
278 572 406 104 92 84
278 572 407 101 90 82
278 573 406 109 95 85
278 573 407 108 94 84
279 572 406 100 89 83
279 572 407 98 89 82
278 574 404 113 98 88
278 574 405 114 99 88
278 575 404 118 101 89
279 574 404 111 97 87
275 571 413 111 97 87
275 570 414 106 94 85
275 570 415 106 93 84
275 571 414 111 97 87
275 571 415 117 99 88
275 572 413 117 101 89
275 573 413 131 108 94
275 572 414 123 103 91
275 572 415 128 106 93
275 573 414 137 110 97
275 573 415 140 110 97
277 571 409 101 89 81
276 571 411 103 92 83
277 571 410 100 89 81
277 571 411 101 90 82
278 571 408 99 88 82
278 571 409 98 88 81
279 570 409 95 86 81
279 571 408 97 87 81
279 571 409 96 86 81
278 570 410 97 87 81
278 570 411 98 88 81
278 571 410 97 87 81
279 570 410 95 86 81
279 570 411 96 86 81
277 569 413 101 89 83
276 568 415 106 92 85
276 569 414 102 90 83
276 569 415 104 91 84
277 568 415 106 92 85
277 569 414 103 90 83
276 570 413 102 92 84
276 571 412 105 93 85
276 571 413 107 95 86
277 570 412 100 89 82
277 570 413 100 89 83
277 571 412 101 90 83
276 570 414 102 91 84
276 570 415 101 90 82
278 569 413 99 88 82
279 569 412 97 86 81
279 569 413 99 88 82
278 568 414 103 90 84
278 568 415 104 91 84
278 569 414 101 89 83
279 568 414 101 88 83
279 568 415 102 89 83
278 570 412 98 88 82
279 570 412 97 87 81
276 572 409 104 92 82
276 573 408 112 97 86
276 573 409 111 96 85
277 572 408 104 92 83
277 572 409 103 91 82
277 573 408 110 96 85
276 572 410 105 92 83
276 572 411 108 95 85
276 573 410 112 98 87
276 573 411 116 101 89
277 572 410 104 92 83
276 574 408 118 101 88
276 574 409 118 101 89
276 575 408 124 104 91
276 575 409 128 106 92
277 574 408 115 99 87
276 574 410 121 104 91
276 574 411 125 106 92
276 575 410 133 109 95
276 575 411 139 112 97
278 572 408 101 90 82
276 572 412 111 98 87
276 573 412 123 104 91
276 574 412 138 111 97
276 574 413 145 115 101
276 575 412 147 116 101
276 575 413 152 118 104
276 574 414 147 116 102
276 574 415 148 115 102
276 575 414 153 117 105
276 575 415 153 117 104
280 567 415 101 88 83
281 567 415 98 87 82
282 567 415 96 85 80
283 567 415 94 84 79
283 571 403 97 88 84
280 571 405 97 88 83
281 571 405 97 88 83
280 571 406 97 88 82
280 571 407 96 87 82
281 570 407 94 86 82
281 571 406 96 87 82
281 571 407 95 87 82
282 571 404 97 88 83
282 571 405 96 88 83
283 570 405 95 87 83
283 571 404 96 88 84
283 571 405 95 88 83
282 570 406 95 87 82
282 570 407 94 86 82
282 571 406 95 87 82
283 570 406 94 87 83
283 570 407 93 86 82
280 573 403 104 93 85
281 572 403 100 90 84
281 573 402 102 91 84
281 573 403 102 91 84
280 575 401 111 96 85
281 574 401 108 94 85
281 575 400 110 95 83
281 575 401 109 94 84
280 574 402 108 95 85
280 574 403 107 94 85
280 575 402 111 96 86
281 574 402 106 93 85
282 573 401 102 90 83
283 572 401 100 90 84
283 573 400 103 90 82
283 573 401 101 90 83
282 572 402 99 89 84
282 572 403 98 89 84
282 573 402 101 90 83
283 572 402 98 89 84
283 572 403 97 89 84
282 574 400 107 92 82
282 574 401 104 92 83
282 575 400 109 93 82
283 574 400 104 91 81
280 572 404 102 91 84
280 572 405 99 89 83
280 573 404 103 92 84
281 572 404 99 89 83
280 572 406 98 89 83
282 572 404 97 89 83
285 571 401 97 89 85
284 571 402 97 89 84
284 571 403 96 88 84
285 571 402 96 89 85
285 571 403 96 88 85
286 571 400 98 89 85
286 571 401 97 89 85
287 570 401 96 89 85
287 571 400 97 89 85
287 571 401 96 89 85
286 570 402 96 89 85
286 570 403 95 88 85
286 571 402 96 89 85
286 571 403 96 88 85
287 570 402 96 89 85
287 570 403 95 89 85
284 570 404 95 88 84
284 570 405 95 87 83
284 571 404 95 88 84
285 570 404 95 88 84
285 570 405 94 87 84
285 571 404 95 88 84
284 570 406 94 87 83
284 570 407 93 86 82
285 570 406 94 87 83
285 570 407 93 87 83
286 569 405 94 88 84
287 569 404 95 88 85
287 569 405 95 88 85
286 569 406 94 87 84
286 569 407 93 87 84
287 569 406 94 88 85
287 569 407 94 88 85
286 570 404 95 88 85
286 570 405 94 88 84
287 570 404 95 88 85
286 570 406 94 87 84
286 570 407 93 87 83
284 572 401 98 89 84
284 573 400 102 90 83
284 573 401 100 90 83
285 572 400 99 90 84
285 572 401 98 89 84
285 573 400 101 90 84
284 572 402 97 89 84
286 572 400 98 90 85
280 569 411 95 85 80
281 569 411 93 85 80
280 570 408 94 86 81
280 570 409 94 85 81
280 571 408 95 86 81
281 570 408 94 86 81
281 570 409 93 85 81
280 570 410 94 85 80
280 570 411 94 85 80
281 570 410 93 85 80
282 569 410 92 85 80
282 569 411 92 84 80
283 569 410 92 84 80
283 569 411 91 84 80
282 570 408 93 86 81
282 570 409 93 85 81
283 570 408 93 85 82
283 570 409 92 85 81
282 570 410 93 85 80
283 570 410 92 84 80
280 568 413 97 86 81
280 569 412 95 86 81
280 569 413 96 86 81
281 569 412 94 85 80
281 569 413 94 85 80
280 568 414 98 87 81
280 568 415 100 88 82
281 568 414 96 86 81
281 568 415 97 87 81
282 569 412 92 84 80
282 569 413 93 84 79
283 569 412 91 83 79
283 569 413 91 83 79
282 568 414 94 84 80
282 568 415 94 85 80
282 569 414 92 84 79
283 568 414 92 83 79
283 568 415 92 83 79
283 569 414 91 83 79
284 569 411 91 84 80
284 570 408 92 86 82
284 570 409 92 85 81
285 570 408 92 86 82
285 570 409 92 85 81
284 570 410 91 84 81
285 570 410 91 84 80
285 570 411 89 83 79
286 570 408 93 86 83
286 570 409 92 85 82
287 570 408 93 87 84
287 570 409 92 86 82
286 570 410 89 83 79
286 570 411 86 80 77
287 570 410 87 81 79
287 570 411 82 77 74
287 571 411 80 75 71
284 569 412 90 83 79
284 569 413 90 82 78
285 569 413 89 82 78
284 568 415 90 82 78
284 569 414 90 82 78
284 569 415 90 82 78
285 569 414 89 82 78
285 569 415 89 82 78
285 570 412 89 82 78
285 570 413 89 82 78
285 570 414 88 81 76
285 570 415 88 81 76
286 570 412 85 78 73
286 570 413 89 82 77
286 571 412 82 74 68
286 571 413 85 76 69
287 571 412 79 72 67
287 571 413 79 70 63
286 570 414 88 80 74
286 570 415 88 80 75
286 571 414 86 77 70
286 571 415 88 78 72
287 572 412 78 70 64
287 572 413 78 69 62
287 573 413 77 67 59
286 572 414 85 74 66
286 572 415 88 77 69
286 573 415 90 78 68
287 572 414 82 72 64
287 573 414 82 70 62
286 574 415 98 80 71
286 575 415 99 79 69
287 574 414 84 67 59
287 574 415 90 75 65
287 575 414 87 66 58
275 566 419 132 108 98
275 567 418 121 101 91
275 567 419 128 105 94
275 565 421 139 114 106
275 564 423 149 126 122
275 565 422 146 120 113
275 565 423 151 126 120
275 566 420 136 111 101
275 566 421 142 115 106
275 567 420 137 111 99
275 567 421 145 116 105
275 566 422 148 119 111
275 566 423 154 126 120
275 567 422 149 117 108
275 567 423 153 121 114
276 563 423 137 116 112
277 563 422 127 108 103
277 563 423 129 110 106
279 563 421 116 100 95
278 562 423 122 105 100
278 563 422 121 104 98
278 563 423 122 105 100
279 562 423 116 100 96
279 563 422 116 100 95
279 563 423 117 101 96
276 565 419 127 105 97
277 565 419 123 103 96
276 567 417 115 97 89
277 566 417 114 97 90
277 567 416 110 94 87
277 567 417 114 97 89
276 566 418 120 101 92
276 566 419 126 104 96
276 567 418 121 101 92
276 567 419 125 104 94
277 566 418 118 99 92
277 566 419 120 101 94
278 565 419 117 99 93
279 564 419 110 95 89
279 565 418 109 94 88
279 565 419 111 96 90
278 566 417 111 95 88
278 567 416 108 93 86
278 567 417 111 95 88
279 566 417 107 93 87
279 567 416 105 91 85
278 566 418 114 97 90
279 566 418 108 93 87
276 564 421 133 110 104
276 565 420 133 109 101
276 565 421 135 111 104
277 564 421 128 107 100
277 565 420 126 105 98
276 564 422 136 114 108
276 564 423 141 119 114
276 565 422 137 114 107
276 565 423 145 121 115
277 564 422 129 109 103
278 564 420 120 101 95
278 564 421 121 103 98
278 565 420 121 102 96
279 564 420 114 98 92
279 564 421 115 98 93
278 564 422 123 105 100
275 563 425 152 130 127
275 563 426 156 133 131
275 563 427 155 132 130
275 563 428 157 133 131
275 563 429 156 132 129
275 564 424 152 129 125
275 564 425 158 135 132
275 565 424 159 135 131
275 565 425 166 143 140
275 564 426 162 138 136
275 564 427 163 139 137
275 565 426 169 145 144
275 565 427 170 145 144
275 566 424 164 140 135
275 566 425 170 147 145
275 567 424 161 133 130
275 567 425 170 147 146
275 566 426 175 151 151
275 566 427 179 153 153
275 567 426 178 155 156
275 564 428 161 137 135
275 564 429 160 134 132
275 565 428 170 144 143
275 565 429 169 143 141
275 566 428 178 151 150
276 562 425 137 117 114
276 563 424 139 118 114
276 563 425 144 123 120
277 562 424 129 111 107
277 562 425 132 113 109
277 563 424 131 112 108
276 562 426 141 121 118
276 562 427 143 122 119
276 563 426 151 129 126
276 563 427 151 128 126
277 562 426 134 114 111
277 562 427 137 116 113
278 561 425 122 105 101
279 561 424 118 102 98
279 561 425 118 102 98
278 561 426 126 108 104
278 561 427 129 110 106
279 561 426 120 104 99
279 561 427 123 106 102
278 562 424 124 106 102
278 562 425 126 109 104
279 562 424 117 102 97
278 562 426 128 110 106
276 562 428 145 123 120
276 562 429 146 123 120
276 563 428 152 129 126
276 563 429 153 128 125
277 562 428 140 118 114
277 562 429 143 120 116
276 563 430 153 127 124
277 562 430 146 121 117
277 563 430 149 123 120
278 561 428 133 112 108
279 561 428 126 107 103
278 562 428 136 115 111
278 562 429 138 116 111
279 562 429 130 109 104
279 563 429 129 107 102
278 562 430 142 118 114
278 563 430 145 119 115
279 563 430 133 109 104
276 567 426 184 160 162
276 567 427 189 163 163
276 564 429 162 136 134
276 565 429 169 142 140
276 564 430 157 130 127
276 565 430 163 135 133
277 564 430 153 126 123
277 564 431 156 127 124
277 565 430 164 135 133
276 566 428 185 157 157
276 566 429 178 150 149
276 567 428 192 164 163
277 566 429 178 149 147
277 567 428 193 163 162
277 567 429 184 154 153
277 566 430 175 144 143
278 564 430 148 120 116
278 564 431 151 123 120
278 565 430 160 130 127
278 565 431 154 126 122
279 564 430 136 110 105
279 565 430 146 116 112
278 567 428 189 156 157
278 567 429 185 152 152
279 566 429 161 126 124
279 567 429 173 137 137
278 566 430 173 142 140
279 566 430 161 129 126
274 569 417 115 98 86
275 568 417 114 96 86
275 569 416 104 91 82
275 569 417 112 95 85
274 568 418 125 103 91
274 568 419 130 106 93
274 569 418 122 101 90
274 569 419 130 105 93
275 568 418 121 101 90
275 568 419 128 105 93
274 570 417 121 101 90
274 571 417 129 103 94
275 570 416 111 95 85
275 570 417 113 97 87
275 571 416 123 103 92
275 571 417 129 104 95
274 570 418 126 102 92
274 570 419 131 103 93
274 571 418 132 102 93
274 571 419 134 102 92
275 571 419 136 103 94
274 568 420 139 111 98
274 568 421 148 117 104
274 569 420 141 111 98
274 569 421 147 115 102
275 568 421 149 118 105
275 569 421 150 117 103
275 568 422 151 118 106
275 568 423 151 116 108
275 569 422 153 119 105
275 569 423 155 120 108
274 570 420 136 105 94
275 570 420 143 108 97
275 570 421 149 114 102
275 571 420 141 106 96
275 571 421 149 112 100
275 570 422 154 118 105
275 571 422 152 116 102
275 572 416 133 106 95
275 572 417 135 102 93
275 573 416 140 108 97
275 573 417 139 106 97
275 572 418 136 103 94
275 572 419 138 105 96
275 573 418 139 106 98
275 573 419 140 107 98
275 572 420 143 107 98
275 572 421 147 110 99
275 573 420 142 107 98
276 568 416 108 93 85
276 568 417 112 95 86
276 569 416 104 91 83
277 568 416 110 94 86
276 570 422 155 119 105
276 570 423 158 122 109
276 571 422 154 117 103
276 571 423 158 120 106
277 571 423 163 123 110
276 573 418 142 108 100
276 573 419 143 108 100
276 574 416 147 112 100
276 574 417 146 111 101
276 575 416 151 115 103
276 575 417 150 114 103
277 575 416 156 118 107
277 575 417 156 117 107
276 574 418 146 110 101
276 574 419 148 110 102
276 575 418 151 113 104
277 574 419 153 113 104
277 575 418 156 116 106
277 575 419 155 115 106
278 575 418 161 120 109
278 575 419 162 120 110
279 575 419 169 124 113
276 572 420 145 108 98
276 572 421 150 112 101
276 573 420 147 109 100
276 573 421 151 112 102
277 573 421 157 116 106
276 572 422 154 116 103
277 572 422 158 118 106
277 572 423 162 121 108
277 573 422 159 118 107
276 574 420 148 109 101
277 574 420 156 115 106
277 574 421 159 117 107
278 572 423 168 124 113
278 573 422 166 122 111
278 573 423 169 124 114
279 572 423 173 127 118
279 573 422 170 124 115
279 573 423 171 125 116
278 574 420 163 120 110
278 574 421 166 122 112
278 575 420 165 121 111
279 574 421 169 124 115
279 575 420 170 125 115
279 575 421 170 125 115
278 574 422 168 123 114
279 574 422 170 124 115
275 568 424 153 121 115
275 568 425 161 133 130
275 569 424 155 120 111
276 568 425 168 141 138
276 569 424 157 122 112
276 569 425 159 125 118
277 569 425 165 126 121
276 568 426 182 158 157
276 568 427 189 162 162
277 568 426 179 147 146
277 568 427 189 157 158
277 569 426 173 134 132
276 570 424 161 124 113
277 570 424 164 124 115
277 570 425 165 124 117
277 571 424 165 124 113
278 569 425 171 127 123
278 568 427 186 149 150
278 569 426 177 135 134
278 569 427 187 146 146
279 568 427 188 147 149
279 569 426 186 142 141
279 569 427 186 144 145
278 570 425 173 129 123
278 571 424 170 125 116
278 571 425 174 128 121
279 570 425 182 136 132
279 571 424 175 128 121
279 570 426 185 141 139
277 568 428 192 160 161
278 568 428 190 155 157
279 568 428 184 146 148
278 572 424 171 125 116
279 572 424 175 128 120
280 563 421 109 95 90
281 563 421 103 91 86
280 562 423 111 97 92
280 563 422 110 96 91
281 562 423 107 94 89
