ply
format ascii 1.0
comment PCL generated
element vertex 2082
property float x
property float y
property float z
property uchar red
property uchar green
property uchar blue
element camera 0
property float view_px
property float view_py
property float view_pz
property float x_axisx
property float x_axisy
property float x_axisz
property float y_axisx
property float y_axisy
property float y_axisz
property float z_axisx
property float z_axisy
property float z_axisz
property float focal
property float scalex
property float scaley
property float centerx
property float centery
property int viewportx
property int viewporty
property float k1
property float k2
end_header
118 576 395 119 107 98
119 576 394 119 106 98
119 576 395 118 106 98
119 577 394 119 107 98
116 576 396 122 108 98
116 576 397 122 108 98
117 576 396 121 107 98
118 576 396 119 107 98
119 576 396 118 106 98
113 584 384 122 112 106
113 584 385 122 112 106
113 585 384 125 113 106
113 585 385 129 116 107
113 584 386 123 112 106
113 584 387 128 114 105
113 585 386 132 117 106
113 585 387 133 117 105
112 586 384 133 118 108
112 586 385 136 120 108
112 587 384 138 121 110
112 587 385 140 122 109
113 586 384 129 116 107
113 586 385 133 118 107
112 586 386 137 121 108
112 586 387 139 121 107
112 587 386 142 122 108
112 587 387 144 123 108
114 584 384 122 111 105
114 584 385 121 111 105
115 584 384 121 111 105
112 584 388 134 117 104
112 584 389 134 116 103
112 585 388 135 117 103
112 585 389 137 117 103
113 584 388 130 115 104
113 585 388 135 117 103
113 585 389 140 120 105
112 584 390 136 116 102
112 584 391 140 119 104
112 585 390 142 120 105
112 585 391 147 123 108
113 585 390 143 121 106
113 585 391 149 124 109
112 586 388 140 120 105
112 587 388 146 124 108
113 586 388 142 121 105
113 586 389 145 122 107
113 587 388 148 124 108
113 587 389 151 125 109
113 586 390 148 124 108
113 586 391 153 126 110
113 587 390 155 127 111
113 587 391 159 129 113
112 588 384 140 123 109
112 588 385 143 124 109
112 584 392 147 123 108
112 584 393 151 125 111
113 585 392 153 125 111
113 585 393 158 128 114
112 584 394 156 129 114
112 584 395 163 135 119
113 585 394 163 132 117
113 585 395 169 137 122
113 586 392 159 129 114
113 586 393 164 133 118
113 586 394 168 135 121
113 586 395 173 138 124
112 584 396 167 137 122
112 584 397 168 137 122
112 585 397 172 139 125
113 585 396 172 140 125
113 585 397 174 140 126
112 584 398 167 136 122
112 584 399 167 135 121
112 585 398 172 138 125
113 585 398 174 139 126
113 585 399 175 140 126
113 586 396 176 140 126
120 579 388 118 107 100
120 579 389 118 107 99
121 579 388 118 107 100
121 579 389 118 106 99
120 578 390 118 107 99
120 578 391 118 106 99
120 579 390 118 107 99
121 578 390 117 106 99
121 578 391 117 106 99
121 579 390 117 106 99
122 579 388 116 106 99
122 579 389 116 106 99
123 579 388 115 105 98
123 579 389 115 105 98
122 578 390 116 105 99
122 578 391 116 105 99
122 579 390 116 105 99
123 578 390 115 105 98
123 578 391 115 104 98
123 579 390 115 105 98
120 581 385 118 107 100
121 581 385 118 107 100
120 580 387 118 107 100
120 581 386 118 107 100
121 580 386 118 107 100
121 580 387 118 107 100
121 581 386 118 107 100
120 582 384 118 107 101
121 582 384 117 107 100
122 581 385 117 106 100
123 581 384 115 105 98
123 581 385 116 105 99
122 580 386 117 106 99
122 580 387 117 106 99
122 581 386 117 106 99
123 580 386 116 105 99
123 580 387 116 105 99
123 581 386 116 105 99
122 582 384 117 106 99
123 582 384 116 105 99
120 580 388 118 107 100
122 580 388 117 106 99
124 579 388 114 104 98
124 579 389 114 104 98
125 579 388 114 103 97
125 579 389 114 103 97
124 578 390 114 104 98
124 578 391 114 104 98
124 579 390 114 104 98
125 578 390 113 103 97
125 578 391 113 103 97
125 579 390 113 103 97
126 579 388 112 102 95
126 579 389 112 102 95
127 579 388 111 100 94
127 579 389 110 100 94
126 578 390 111 102 96
126 578 391 111 102 96
126 579 390 112 102 96
127 578 390 110 100 95
127 578 391 110 101 95
124 581 384 115 104 98
124 581 385 115 104 98
125 581 384 114 103 97
125 581 385 114 103 97
124 580 386 115 104 98
124 580 387 115 104 98
124 581 386 115 104 98
125 580 386 114 103 97
125 580 387 114 103 97
125 581 386 114 103 97
124 582 384 115 104 98
125 582 384 114 103 96
126 581 384 113 102 95
126 581 385 113 102 95
127 581 384 112 100 93
127 581 385 111 100 93
126 580 386 112 101 95
126 580 387 112 102 95
126 581 386 112 101 95
127 580 386 111 100 94
127 580 387 111 100 94
127 581 386 111 100 93
126 582 384 113 102 94
127 582 384 112 100 93
126 580 388 113 102 96
120 577 392 118 106 99
120 577 393 118 106 98
121 577 392 117 106 99
121 577 393 117 106 98
120 576 394 118 106 98
120 576 395 117 106 98
120 577 394 118 106 98
121 576 394 117 106 98
121 576 395 116 105 98
121 577 394 117 106 98
122 577 392 116 105 99
122 577 393 116 105 98
123 577 392 115 104 98
123 577 393 114 104 98
122 576 394 115 105 98
122 576 395 115 105 98
122 577 394 115 105 98
123 576 394 114 104 98
123 576 395 114 104 98
123 577 394 114 104 98
120 576 396 117 106 98
120 576 397 117 106 98
121 576 396 116 105 99
121 576 397 116 105 99
122 576 396 115 105 99
122 576 397 115 105 99
123 576 396 114 104 99
123 576 397 114 104 99
124 577 392 114 104 98
124 577 393 114 104 98
125 577 392 112 103 97
125 577 393 112 103 97
124 576 394 113 104 98
124 576 395 113 104 98
124 577 394 113 104 98
125 576 394 112 103 98
125 576 395 112 103 98
125 577 394 112 103 97
126 577 392 111 102 96
126 577 393 111 102 97
127 577 392 110 101 96
127 577 393 110 101 96
126 576 394 111 102 97
126 576 395 111 102 97
126 577 394 111 102 97
127 576 394 110 101 97
127 576 395 110 102 97
127 577 394 110 101 96
124 576 396 113 104 98
124 576 397 113 104 99
125 576 396 112 103 98
125 576 397 112 103 99
126 576 396 111 103 98
126 576 397 111 103 98
127 576 396 110 102 98
127 576 397 110 102 98
113 577 400 130 113 98
113 577 401 130 112 98
113 576 402 123 108 96
113 576 403 120 105 95
113 577 402 127 110 97
113 577 403 123 107 94
112 578 400 135 115 99
112 578 401 135 116 99
112 579 400 137 117 100
112 579 401 139 119 101
113 578 400 133 114 98
113 578 401 133 114 98
112 578 402 133 114 98
112 578 403 129 111 96
112 579 402 138 118 101
112 579 403 136 116 100
113 578 402 131 113 98
114 576 400 125 109 98
114 576 401 124 109 97
115 576 400 121 108 98
115 576 401 121 108 98
114 576 402 122 108 97
114 576 403 118 105 96
113 577 404 118 104 93
113 577 405 116 103 93
112 577 406 116 103 94
112 577 407 116 103 94
113 577 406 115 103 95
113 577 407 114 102 94
112 578 404 125 108 94
112 578 405 123 108 95
112 579 404 133 115 100
112 579 405 130 113 99
112 578 406 122 108 97
112 578 407 121 107 96
112 579 406 131 114 100
112 579 407 130 114 100
114 576 404 115 104 95
114 576 405 114 103 96
114 576 406 114 104 97
114 576 407 114 103 96
115 576 407 112 103 98
112 580 400 143 123 106
112 580 401 143 122 105
112 581 400 147 125 110
112 580 402 142 121 104
112 580 403 140 119 103
112 582 400 152 128 113
112 582 401 153 129 113
112 583 400 160 132 117
112 583 401 161 135 119
112 583 402 164 137 121
112 583 403 165 138 122
112 583 404 166 138 122
112 577 408 118 105 95
113 577 408 116 104 95
113 577 409 120 108 100
113 577 410 120 107 98
113 577 411 118 106 97
112 578 408 122 107 96
112 578 409 125 110 100
112 579 408 129 113 100
112 579 409 131 114 101
112 578 410 126 112 101
112 578 411 126 111 100
112 579 410 132 115 102
112 579 411 130 114 101
113 578 410 121 108 98
113 578 411 122 108 97
114 576 408 114 104 97
114 576 409 116 105 98
114 577 409 118 107 100
115 576 408 112 103 98
115 576 409 112 103 97
114 576 410 115 105 98
114 576 411 113 103 96
114 577 410 116 105 97
114 577 411 114 104 96
115 576 410 113 103 97
115 576 411 112 102 96
113 577 412 121 107 98
112 578 412 126 111 99
112 579 412 129 112 100
112 579 413 128 113 101
113 578 412 122 109 98
113 578 413 124 110 100
112 579 414 131 115 103
113 578 414 123 109 99
113 578 415 124 111 101
113 579 414 125 111 101
113 579 415 127 113 102
114 577 412 117 106 99
114 577 413 117 106 99
115 576 412 112 102 97
115 577 412 113 104 97
115 577 413 113 104 97
114 577 414 118 106 99
115 577 414 114 104 97
115 577 415 115 105 98
114 578 413 121 109 101
114 578 414 121 109 100
114 578 415 120 108 99
112 580 410 135 117 102
112 580 411 136 117 102
112 580 412 137 117 102
112 580 413 138 120 105
112 581 413 148 126 109
112 580 414 138 119 105
112 580 415 136 118 104
112 581 414 147 125 109
116 576 409 110 101 96
116 576 410 110 102 97
116 576 411 110 101 97
117 576 411 110 102 99
116 576 412 110 102 97
116 576 413 111 102 97
116 577 413 112 102 96
117 576 412 110 103 99
117 576 413 111 103 99
116 576 414 111 102 97
116 577 414 112 103 97
116 577 415 113 104 99
117 576 414 112 104 99
117 576 415 111 104 100
117 577 415 112 104 99
118 576 412 110 103 100
118 576 413 111 104 101
118 576 414 111 105 102
118 576 415 111 105 102
119 576 414 112 106 103
119 576 415 112 106 103
112 584 400 168 137 123
112 584 401 169 139 124
112 584 402 171 141 125
120 576 415 112 106 104
121 576 415 114 108 105
122 576 414 115 108 105
122 576 415 114 107 104
123 576 414 115 108 105
123 576 415 114 107 104
125 576 411 112 105 101
127 576 409 112 105 101
126 576 410 112 105 101
126 576 411 112 104 101
127 576 410 112 105 101
127 576 411 112 104 100
127 577 411 110 102 99
124 576 412 114 106 103
124 576 413 114 107 103
125 576 412 112 105 101
125 576 413 113 106 102
125 577 413 111 104 101
124 576 414 115 107 104
124 576 415 114 107 104
124 577 415 113 106 103
125 576 414 114 107 103
125 577 414 112 105 102
125 577 415 111 104 102
126 576 412 111 104 100
126 577 412 109 102 99
126 577 413 110 103 100
127 577 412 108 101 97
127 577 413 106 99 96
126 577 414 109 102 99
126 577 415 107 101 98
127 577 414 105 98 95
126 578 415 106 99 97
127 578 414 103 97 93
127 578 415 104 97 94
113 579 416 130 116 106
113 579 417 130 115 104
115 577 416 116 106 99
114 578 416 120 109 101
114 578 417 120 109 102
114 579 416 126 113 104
114 579 417 124 111 102
115 578 416 117 106 100
115 578 417 117 107 101
114 579 418 121 108 99
114 579 419 114 101 92
115 578 418 116 106 101
115 578 419 114 105 100
115 579 419 110 100 94
114 579 420 108 95 86
115 579 420 106 97 90
115 579 421 109 100 96
115 579 422 113 105 101
112 580 416 137 119 105
112 580 417 136 118 104
113 580 417 132 116 103
113 580 418 132 115 101
113 580 419 128 112 99
114 580 419 118 104 93
113 580 420 125 110 99
114 580 420 115 102 92
114 580 421 116 105 97
115 580 421 112 102 97
114 580 422 117 106 99
115 580 422 114 105 100
115 580 423 115 107 103
116 577 416 115 106 101
116 577 417 116 107 103
117 577 416 113 105 102
117 577 417 115 107 104
117 577 418 114 106 103
117 577 419 112 106 103
116 578 417 116 107 102
116 578 418 114 106 101
116 578 419 109 101 97
117 578 418 112 105 102
117 578 419 109 102 99
118 576 416 112 106 103
118 576 417 113 106 104
118 577 416 113 106 103
118 577 417 113 107 104
119 576 416 113 106 104
119 576 417 113 106 104
118 577 418 112 105 103
118 577 419 109 103 101
119 576 418 112 106 103
119 577 418 111 105 103
119 577 419 109 103 101
118 578 419 109 103 100
116 578 420 104 97 94
116 579 420 103 96 92
116 579 421 105 99 95
117 578 420 102 96 93
117 578 421 101 96 93
117 579 421 103 97 95
116 579 422 109 103 100
116 579 423 111 105 102
117 579 422 105 99 97
117 579 423 106 100 97
119 577 420 106 101 99
118 578 420 104 98 96
118 578 421 100 95 93
119 578 420 105 100 98
119 578 421 102 97 95
118 578 422 101 96 94
118 578 423 101 96 95
118 579 422 103 98 95
118 579 423 103 98 96
119 578 422 99 94 92
119 578 423 100 95 94
119 579 423 101 96 94
115 580 424 115 107 103
116 579 424 111 104 101
117 579 424 107 101 98
117 579 425 109 102 99
117 579 426 109 102 99
118 579 424 104 98 96
118 579 425 105 99 97
119 579 424 102 97 96
119 579 425 103 98 96
118 579 426 107 101 98
119 579 426 104 99 97
119 579 427 104 99 97
116 580 424 113 106 103
116 580 425 112 105 101
116 580 426 111 104 100
116 580 427 112 104 100
117 580 426 110 103 100
117 580 427 111 104 100
118 580 426 108 102 99
118 580 427 107 101 98
119 580 427 104 99 96
117 580 428 112 104 101
117 580 429 112 104 100
118 580 428 108 101 98
118 580 429 107 101 97
119 580 428 104 98 96
119 580 429 105 99 96
118 580 430 107 100 97
119 580 430 106 100 97
119 580 431 107 100 97
120 576 416 113 106 103
120 576 417 112 105 103
121 576 416 113 106 104
121 576 417 112 106 103
120 576 418 111 105 102
120 577 418 111 105 103
120 577 419 110 104 102
121 576 418 111 105 103
121 577 418 111 105 103
121 577 419 109 103 101
122 576 416 112 105 103
122 576 417 111 104 102
122 577 417 110 104 101
123 576 416 112 105 102
123 577 416 111 105 102
123 577 417 111 104 102
122 577 418 110 103 100
122 577 419 108 103 101
123 577 418 110 105 102
122 578 419 108 103 101
123 578 418 110 105 103
123 578 419 108 103 101
120 577 420 107 102 100
121 577 420 107 102 100
120 578 420 106 101 99
120 578 421 103 98 96
121 578 420 106 101 100
121 578 421 104 99 97
120 578 422 100 95 93
120 578 423 99 94 92
120 579 423 100 96 94
121 578 422 100 95 93
121 578 423 99 94 93
121 579 423 100 96 94
122 578 420 107 102 100
122 578 421 104 100 98
123 578 420 106 101 99
123 578 421 104 99 97
122 578 422 101 96 94
122 578 423 99 95 93
122 579 423 99 95 93
123 578 422 101 96 94
123 579 422 100 95 93
123 579 423 99 94 93
124 577 416 112 105 103
124 577 417 111 105 103
125 577 416 111 105 102
124 578 417 110 104 103
125 578 416 108 103 101
125 578 417 109 104 102
124 578 418 109 104 103
124 578 419 107 102 101
125 578 418 108 103 101
125 578 419 106 102 100
125 579 419 105 101 100
126 578 416 106 100 98
126 578 417 106 101 100
127 578 416 103 97 96
127 578 417 104 99 98
127 579 417 103 99 98
126 578 418 105 100 99
126 579 418 104 99 98
126 579 419 103 99 98
127 579 418 103 99 98
127 579 419 102 98 98
124 578 420 106 101 99
124 578 421 104 99 98
124 579 421 103 98 97
125 579 420 105 101 100
125 579 421 102 98 97
124 579 422 99 94 92
124 579 423 97 93 91
125 579 422 98 93 92
125 579 423 95 91 89
126 579 420 103 99 98
126 579 421 102 98 97
127 579 420 103 99 99
127 579 421 103 99 99
126 579 422 99 95 94
126 579 423 96 92 91
127 580 421 103 100 99
126 580 423 95 92 91
127 580 422 100 97 96
127 580 423 97 93 93
120 579 424 101 96 95
120 579 425 102 97 96
121 579 424 101 96 95
121 579 425 101 97 95
120 579 426 102 97 96
120 579 427 102 97 95
121 579 426 101 96 95
121 579 427 101 96 95
122 579 424 101 97 96
122 579 425 101 96 95
123 579 424 101 96 95
123 579 425 100 95 94
122 579 426 100 96 94
122 579 427 100 96 94
123 579 426 99 95 94
123 579 427 99 95 93
123 580 427 98 94 93
120 580 428 102 97 95
120 580 429 103 97 95
121 580 428 101 96 95
121 580 429 101 96 94
120 580 430 103 98 95
120 580 431 104 98 95
120 581 431 106 100 98
121 580 430 100 95 94
121 580 431 101 96 94
122 580 428 100 96 95
122 580 429 100 95 94
123 580 428 99 95 94
123 580 429 99 95 94
122 580 430 99 95 94
122 580 431 100 95 94
123 580 430 99 95 94
123 580 431 100 96 95
124 579 424 98 94 92
124 579 425 99 94 93
125 579 424 96 92 91
125 579 425 98 94 93
124 579 426 99 95 94
125 580 424 96 92 91
125 580 425 97 93 92
124 580 426 98 94 93
124 580 427 98 94 93
125 580 426 98 94 93
125 580 427 99 95 94
126 580 424 96 93 92
126 580 425 98 95 94
127 580 424 97 94 93
127 580 425 98 95 95
126 580 426 99 95 95
126 580 427 99 96 96
127 580 426 99 96 96
127 580 427 99 96 96
124 580 428 98 94 93
124 580 429 99 95 94
125 580 428 99 95 94
125 580 429 99 95 95
124 580 430 99 95 94
124 580 431 100 95 94
125 580 430 99 95 94
125 580 431 99 95 94
126 580 428 99 96 95
126 580 429 99 96 95
127 580 428 99 96 96
127 580 429 99 95 95
126 580 430 99 95 95
126 580 431 100 96 95
126 581 431 100 96 95
127 580 430 99 95 95
127 581 431 99 95 95
121 580 432 100 95 93
121 581 432 101 96 93
121 581 433 101 96 93
122 580 432 100 95 94
122 581 432 100 95 93
122 581 433 99 94 92
123 580 432 100 96 95
123 581 433 101 96 95
122 581 434 101 96 94
122 581 435 103 97 95
123 581 434 103 98 96
123 581 435 103 98 96
124 580 432 100 96 95
124 581 433 101 97 96
125 580 432 100 96 95
125 581 432 100 96 95
125 581 433 101 96 95
124 581 434 103 98 97
126 581 432 100 96 95
126 581 433 100 96 95
127 581 432 100 96 95
157 535 256 103 109 120
158 533 256 106 113 123
159 533 256 107 114 126
158 534 256 110 115 126
158 535 256 109 114 125
159 534 256 114 121 132
159 535 256 113 119 129
157 536 256 99 107 119
157 537 256 104 113 126
157 538 256 117 125 138
157 539 256 133 140 154
158 536 256 103 110 121
158 537 256 103 111 124
159 536 256 108 114 124
159 537 256 104 111 123
158 538 256 110 119 132
158 539 256 124 132 146
159 538 256 104 113 126
159 539 256 111 119 132
158 540 256 123 131 144
159 540 256 111 119 132
171 527 256 88 93 103
172 527 256 88 94 103
173 527 256 88 93 102
174 527 256 88 94 102
175 526 256 89 95 104
175 527 256 88 94 102
161 531 256 96 102 113
162 530 256 90 97 106
162 531 256 96 102 112
163 530 256 90 96 106
163 531 256 93 99 109
160 532 256 104 112 124
160 533 256 115 123 135
161 532 256 107 114 125
161 533 256 118 125 138
160 534 256 117 125 137
160 535 256 112 119 130
161 534 256 117 125 138
161 534 257 111 119 132
161 535 256 110 118 131
161 535 257 104 112 125
162 532 256 107 114 124
162 533 256 112 119 130
162 533 257 111 118 129
163 532 256 97 104 115
163 532 257 97 104 115
163 533 257 101 108 119
162 534 257 105 113 125
162 535 257 100 108 120
163 534 257 100 108 119
163 535 257 99 107 118
164 529 256 90 96 106
165 529 256 92 99 109
164 530 256 92 98 108
164 531 256 94 100 110
164 531 257 96 103 114
165 530 256 96 103 113
165 531 256 99 105 116
165 531 257 101 108 118
166 529 256 93 100 110
167 528 256 93 101 111
167 529 256 92 100 110
166 530 256 101 107 118
166 530 257 105 112 122
166 531 257 106 113 124
167 530 256 102 108 119
167 530 257 104 111 121
167 531 257 106 112 124
164 532 257 95 102 112
164 533 257 95 102 113
165 532 257 96 103 113
165 533 257 92 99 110
164 534 257 96 103 115
164 535 257 98 106 117
165 534 257 93 101 112
165 534 258 95 102 113
165 535 258 97 104 116
166 532 257 99 106 117
166 533 257 95 102 113
167 532 257 99 107 118
167 533 257 97 104 115
166 533 258 95 102 112
167 533 258 95 102 113
166 534 258 96 102 113
166 535 258 97 104 115
167 534 258 95 102 112
167 535 258 97 104 115
160 536 256 107 113 123
160 536 257 105 111 122
160 537 256 103 110 121
160 537 257 104 110 121
161 536 257 104 111 122
161 537 257 103 110 121
160 538 256 104 112 124
160 539 256 110 117 129
161 538 257 102 109 121
161 539 256 104 111 123
161 539 257 101 109 121
162 536 257 100 108 120
162 537 257 104 111 123
163 536 257 102 109 120
163 537 257 108 115 127
162 538 257 104 111 123
162 539 257 103 110 123
163 538 257 109 116 128
163 539 257 105 113 125
160 540 256 109 115 127
161 540 256 103 110 122
161 541 256 104 111 123
162 540 256 101 109 121
162 540 257 102 109 121
162 541 256 104 111 123
163 540 256 100 107 119
163 540 257 102 110 122
163 541 256 102 109 121
162 542 256 106 113 124
163 542 256 103 109 121
164 536 257 101 109 120
164 537 257 110 118 130
164 536 258 101 108 120
164 537 258 109 117 130
165 536 258 101 109 121
165 537 258 112 120 133
164 538 257 115 123 136
164 539 257 113 120 133
165 538 257 125 132 146
165 539 257 125 132 146
165 538 258 125 133 146
165 539 258 130 138 151
166 536 258 105 112 124
166 537 258 120 128 142
167 536 258 103 111 122
167 537 258 117 125 139
166 539 257 133 140 153
166 538 258 129 138 151
166 539 258 132 140 154
167 538 258 128 136 150
167 539 258 135 143 158
164 540 257 107 114 127
164 541 256 104 111 123
165 540 257 126 133 145
165 541 256 114 121 133
165 541 257 124 130 142
164 542 256 103 110 122
165 542 256 107 113 125
165 543 256 105 112 124
166 540 257 133 139 152
166 541 257 124 130 143
167 540 257 134 141 155
167 541 257 121 129 142
167 540 258 137 145 160
166 542 256 108 115 127
166 542 257 110 117 129
166 543 256 103 111 122
167 542 256 102 109 121
167 542 257 108 116 129
167 543 256 103 109 121
168 528 256 90 97 108
168 529 256 91 98 109
168 529 257 92 99 109
169 528 256 89 96 106
169 529 256 90 96 106
169 529 257 90 97 108
168 530 257 97 105 115
168 531 257 99 106 117
169 530 257 91 98 109
169 531 257 93 100 111
169 531 258 94 101 111
170 528 256 88 94 104
170 529 256 90 96 106
170 529 257 90 96 106
171 528 256 88 94 103
171 529 256 90 96 106
171 529 257 90 95 105
170 530 257 91 97 107
171 530 257 90 96 105
170 531 258 92 99 109
171 530 258 91 97 106
171 531 258 95 102 111
168 532 257 99 106 117
168 532 258 97 104 114
168 533 258 95 101 112
169 532 258 95 101 111
169 533 258 94 100 110
168 534 258 95 101 112
168 535 258 97 104 114
169 534 258 93 100 110
169 534 259 94 100 111
169 535 258 95 101 112
169 535 259 96 103 113
170 532 258 94 100 109
170 533 258 94 100 109
170 533 259 95 101 111
171 532 258 100 106 115
171 532 259 103 109 118
171 533 259 100 106 116
170 534 259 95 101 112
170 535 259 98 104 115
171 534 259 103 109 120
171 535 259 104 110 121
172 528 256 89 95 103
172 528 257 90 95 104
172 529 257 89 95 104
173 528 256 88 93 102
173 528 257 90 95 104
173 529 257 89 95 104
173 529 258 89 95 105
173 530 257 89 95 105
172 530 258 92 98 107
172 531 258 104 110 120
173 530 258 93 99 109
173 531 258 103 110 120
173 531 259 109 116 127
174 528 256 87 92 101
174 528 257 89 95 104
174 529 257 89 95 104
175 528 256 88 93 102
175 528 257 88 94 103
175 529 257 88 95 104
175 529 258 88 95 104
174 530 258 90 97 107
174 531 258 100 107 118
174 531 259 102 109 120
175 530 258 89 95 106
175 530 259 88 96 107
175 531 259 94 102 113
172 532 259 109 116 127
172 533 259 106 114 125
173 532 259 110 118 129
173 533 259 107 116 128
172 534 259 109 117 129
172 535 259 114 121 133
173 534 259 111 119 132
173 535 259 115 123 136
174 532 259 106 115 127
174 533 259 112 121 133
175 532 259 101 110 121
175 533 259 110 119 131
174 534 259 111 120 133
173 535 260 112 121 134
175 533 260 111 120 133
174 534 260 108 117 129
174 535 260 107 116 129
175 534 260 107 116 129
175 535 260 108 117 129
168 536 258 99 106 117
168 537 258 107 115 128
168 537 259 100 108 120
169 536 259 97 104 116
169 537 258 103 111 124
169 537 259 98 105 117
168 538 258 122 131 144
168 539 258 134 143 157
169 538 258 111 119 132
169 538 259 104 112 124
169 539 258 119 127 141
170 536 259 99 106 117
170 537 259 98 105 117
171 536 259 101 108 119
171 537 259 100 107 118
170 538 259 103 110 122
170 539 258 109 117 129
170 539 259 105 112 124
171 538 259 101 108 120
171 539 258 105 112 124
171 539 259 102 110 121
168 541 257 117 125 139
169 541 257 108 117 130
168 540 258 125 133 148
169 540 258 113 122 135
169 541 258 108 117 130
168 542 256 102 109 121
168 542 257 107 114 127
168 543 256 104 111 122
169 542 257 103 110 122
169 543 256 104 110 121
169 543 257 103 109 120
170 541 257 105 112 125
170 540 258 107 115 127
170 541 258 107 114 127
171 540 258 104 111 123
171 541 258 101 108 120
170 542 257 102 109 120
170 543 256 104 109 120
170 543 257 103 109 119
171 542 257 103 109 121
171 543 257 103 109 120
172 536 259 114 121 132
172 537 259 103 110 122
173 536 259 112 120 133
173 537 259 101 109 121
172 538 259 101 108 120
172 539 259 104 111 122
173 538 259 101 108 120
173 539 259 104 110 122
174 538 259 101 108 119
174 539 259 104 110 121
175 539 259 102 109 120
173 536 260 109 117 130
173 537 260 101 109 122
174 536 260 105 113 125
174 537 260 99 107 119
175 536 260 105 113 125
175 537 260 102 109 120
174 538 260 101 107 119
175 538 260 103 109 120
175 539 260 104 110 121
172 540 258 107 113 125
172 540 259 107 113 125
172 541 258 104 111 123
173 540 258 106 113 124
173 540 259 106 112 123
173 541 258 110 116 128
172 542 257 104 111 122
172 543 257 106 112 124
173 543 257 117 123 134
172 542 258 112 119 130
173 542 258 120 125 137
173 543 258 118 124 135
174 540 259 105 111 122
174 541 258 109 116 129
174 541 259 107 114 126
175 540 259 101 108 119
175 541 259 100 108 120
174 542 258 118 125 136
174 543 258 124 129 141
175 542 258 106 113 125
175 542 259 101 108 119
175 543 258 107 114 125
176 526 256 90 96 105
176 527 256 89 95 104
177 526 256 91 96 106
177 527 256 89 95 104
178 526 256 90 96 105
178 527 256 89 95 105
178 527 257 89 95 105
179 526 256 88 95 105
179 527 256 88 95 105
179 527 257 88 95 105
180 526 256 89 95 105
180 527 256 88 95 105
180 527 257 88 95 105
181 526 256 88 95 105
181 527 257 89 96 106
182 526 256 86 93 104
182 527 257 94 101 111
183 526 256 86 93 103
183 527 257 94 101 112
184 526 256 87 93 103
184 527 257 91 98 108
185 526 256 89 95 105
185 527 257 87 94 104
186 526 256 89 96 106
186 527 256 87 95 105
186 527 257 86 93 103
187 526 256 92 99 109
187 527 256 94 100 110
187 527 257 92 98 108
188 526 256 96 102 113
188 527 256 101 106 115
188 527 257 98 104 113
189 526 256 97 102 112
189 527 256 102 107 116
189 527 257 101 106 115
190 526 256 93 99 108
190 527 256 94 99 108
190 527 257 94 99 109
191 526 256 88 94 104
191 527 256 88 94 103
191 527 257 88 94 103
176 528 257 88 94 103
176 529 257 88 94 104
177 528 257 88 94 103
177 529 257 87 94 103
176 529 258 88 94 104
177 529 258 87 94 104
176 530 258 88 95 105
176 530 259 87 95 106
176 531 259 90 99 111
177 530 258 88 95 105
177 530 259 88 95 105
177 531 259 88 97 109
178 528 257 87 94 104
179 528 257 88 95 105
178 529 258 87 94 104
179 528 258 92 99 109
179 529 258 90 97 107
178 530 258 89 95 105
178 530 259 88 95 105
178 531 259 87 96 106
179 530 258 89 96 106
179 530 259 88 95 105
179 531 259 88 95 105
176 532 259 102 110 122
177 532 259 95 104 115
178 532 259 93 101 112
176 533 260 110 118 131
177 532 260 103 111 122
177 533 260 113 120 133
176 534 260 108 118 131
176 535 260 113 122 135
177 534 260 112 121 134
177 535 260 114 123 136
178 532 260 100 107 119
178 533 260 105 113 126
179 532 260 93 101 112
179 533 260 97 105 117
178 534 260 103 112 125
178 535 260 109 117 129
178 535 261 106 114 127
179 534 260 98 107 120
179 534 261 97 106 117
179 535 261 101 109 120
180 528 257 90 97 107
181 528 257 94 101 111
180 528 258 95 102 112
180 529 258 96 103 113
180 529 259 92 99 109
181 528 258 97 104 115
181 529 258 98 104 115
181 529 259 93 101 111
180 530 259 89 96 106
180 531 259 88 95 104
181 530 259 89 96 107
181 531 259 88 95 104
182 528 257 100 106 117
183 528 257 102 108 119
182 528 258 102 109 120
182 529 258 99 106 117
182 529 259 91 98 109
183 528 258 104 110 121
183 529 258 98 105 116
183 529 259 88 95 106
182 530 259 86 93 104
183 530 259 85 92 102
180 531 260 88 95 105
181 531 260 88 94 104
182 531 260 87 93 103
183 531 260 86 92 101
180 532 260 90 97 108
180 533 260 94 102 112
180 533 261 93 100 111
181 532 260 90 96 105
181 533 260 91 98 108
181 533 261 91 98 108
180 534 261 95 102 113
180 535 261 97 104 115
181 534 261 93 99 109
181 535 261 94 100 110
182 532 260 87 94 103
182 533 260 90 96 106
182 533 261 90 97 106
183 532 260 88 93 102
183 533 261 90 96 106
182 534 261 92 98 107
182 535 261 93 99 109
183 534 261 91 97 107
182 535 262 93 99 109
183 534 262 91 97 107
183 535 262 92 98 108
176 536 260 111 119 132
176 537 260 104 111 123
177 536 260 116 123 136
177 537 260 107 114 127
176 538 260 103 110 121
176 539 260 103 109 120
177 538 260 102 109 122
177 539 260 103 111 124
178 536 260 107 116 129
178 536 261 106 114 126
178 537 260 103 111 124
178 537 261 103 111 124
179 536 261 102 110 122
179 537 261 100 108 120
178 538 260 103 111 124
178 538 261 103 111 124
178 539 260 114 121 134
178 539 261 114 121 134
179 538 261 100 108 121
179 539 261 118 126 138
176 540 259 101 107 118
176 541 259 99 105 117
176 542 259 98 104 115
176 543 259 95 101 111
177 542 259 97 103 113
177 543 259 93 98 108
176 540 260 102 109 120
177 540 260 105 112 124
177 541 260 102 108 119
177 542 260 98 104 114
177 543 260 93 98 108
178 540 260 118 125 138
178 541 260 103 110 122
179 540 261 125 132 144
179 541 260 104 111 122
179 541 261 99 106 117
178 542 260 95 101 111
178 543 260 92 97 106
179 542 260 91 97 107
179 542 261 90 96 105
179 543 260 90 95 104
179 543 261 89 94 103
180 536 261 98 104 115
180 537 261 98 105 116
181 536 261 95 101 112
181 537 261 97 103 114
180 538 261 98 105 117
180 539 261 111 117 129
181 538 261 99 105 116
181 539 261 106 112 124
181 539 262 103 109 119
182 536 261 94 100 110
182 536 262 94 100 111
182 537 262 96 102 112
183 536 262 93 99 109
183 537 262 96 102 112
182 538 262 97 103 113
182 539 262 99 104 115
183 538 262 98 104 114
183 539 262 100 105 116
180 540 261 113 119 131
180 541 261 93 100 110
181 540 261 103 109 120
181 541 261 91 97 106
181 540 262 101 106 117
181 541 262 91 97 106
180 542 261 88 94 104
180 543 261 87 92 101
181 542 261 89 94 104
181 543 261 86 91 101
181 542 262 90 95 104
181 543 262 86 91 100
182 540 262 98 103 113
182 541 262 92 97 106
183 540 262 95 101 111
183 541 262 90 95 104
183 541 263 89 94 103
182 542 262 89 94 103
182 543 262 87 92 101
183 542 262 88 93 101
183 542 263 87 92 101
183 543 262 87 92 101
183 543 263 85 90 99
184 528 257 98 104 114
185 528 257 88 95 105
184 528 258 98 104 114
184 529 258 92 100 110
184 529 259 86 93 103
185 528 258 89 96 105
185 529 258 87 93 103
185 529 259 84 90 99
184 530 259 85 91 100
185 530 259 84 90 100
186 528 257 86 93 103
187 528 257 87 93 103
186 528 258 86 93 102
186 529 258 86 92 102
186 529 259 85 91 100
187 528 258 86 92 102
187 529 258 87 93 103
187 529 259 86 93 102
186 530 259 85 91 101
187 530 259 84 91 100
184 531 260 87 92 102
185 531 260 85 92 102
186 531 260 84 91 101
187 531 260 83 91 101
184 532 260 88 95 104
184 532 261 90 96 106
184 533 261 91 97 107
185 532 260 87 94 104
185 532 261 93 100 110
185 533 261 96 103 114
184 534 261 93 99 109
184 534 262 94 100 110
184 535 262 94 100 110
185 534 262 102 108 119
185 535 262 101 107 118
186 532 260 89 97 107
186 532 261 97 104 115
186 533 261 102 109 120
187 532 260 93 100 110
187 532 261 99 106 117
187 533 261 104 111 123
186 534 262 109 116 127
186 535 262 103 111 122
187 534 262 109 117 128
187 535 262 105 112 123
188 528 257 92 97 106
189 528 257 96 101 110
188 528 258 88 95 104
188 529 258 87 93 103
189 528 258 91 97 106
189 529 258 89 95 104
188 530 259 84 91 101
189 530 259 84 91 100
189 531 259 82 89 98
190 528 257 92 97 107
191 528 257 86 92 102
190 528 258 89 95 104
190 529 258 87 93 103
191 529 258 84 90 100
190 530 259 84 90 99
190 531 259 83 89 98
191 530 259 82 89 99
191 531 259 82 88 98
188 531 260 83 89 99
189 531 260 82 89 98
190 531 260 84 90 99
191 531 260 84 90 99
188 532 260 93 99 110
188 532 261 98 105 116
188 533 261 105 113 124
189 532 260 88 95 104
189 533 261 97 104 114
188 534 262 112 119 130
188 535 262 106 113 125
189 534 262 101 108 119
189 535 262 97 103 114
190 532 260 86 92 101
190 533 261 89 96 106
191 532 260 85 91 100
191 532 261 85 91 101
191 533 261 87 94 103
190 534 261 93 100 110
191 534 261 90 96 106
190 534 262 91 98 108
190 535 262 92 98 108
191 534 262 89 96 105
191 535 262 90 96 106
184 536 262 94 100 109
184 537 262 97 103 113
185 536 262 94 101 111
185 537 262 96 103 113
185 537 263 97 104 114
184 538 262 103 109 120
184 538 263 106 112 123
184 539 262 107 113 124
184 539 263 108 114 125
185 538 263 106 112 123
185 539 263 112 118 129
186 536 262 94 102 112
186 536 263 93 100 111
186 537 263 94 101 111
187 536 262 95 103 114
187 536 263 93 100 111
187 537 263 94 100 110
186 538 263 98 105 116
186 539 263 101 108 118
187 538 263 95 101 112
187 539 263 96 102 112
184 540 263 95 102 113
184 541 263 87 93 103
185 540 263 95 102 113
185 541 263 86 93 103
184 542 263 87 92 102
184 543 263 82 89 98
185 542 263 87 93 103
185 543 263 84 91 101
186 540 263 92 98 109
186 541 263 87 94 104
188 536 262 95 103 114
188 536 263 92 100 110
188 537 263 93 100 110
189 536 262 93 100 110
189 536 263 91 98 108
189 537 263 94 100 110
188 538 263 94 100 110
188 539 263 94 100 109
189 538 263 95 101 111
189 539 263 94 100 110
190 536 262 91 97 107
190 537 263 96 101 111
191 536 262 90 97 107
191 537 263 98 104 115
190 538 263 97 103 113
190 539 263 97 103 113
191 538 263 102 108 119
191 539 263 102 109 120
187 539 264 95 100 110
185 543 264 88 95 105
186 540 264 89 95 105
186 541 264 87 94 103
187 540 264 90 96 106
187 541 264 87 93 103
186 542 264 87 94 103
186 543 264 98 103 113
187 542 264 88 94 104
187 543 264 99 104 114
188 539 264 93 99 108
189 539 264 94 99 109
190 539 264 97 103 113
191 539 264 100 106 116
188 540 264 91 96 106
188 541 264 88 94 103
189 540 264 92 98 108
189 541 264 91 97 107
188 542 264 88 95 105
188 543 264 96 102 112
188 543 265 96 102 112
189 542 264 92 99 108
189 543 264 94 100 110
189 543 265 94 101 111
190 540 264 95 101 112
190 541 264 93 101 111
191 540 264 100 107 118
191 541 264 94 102 113
190 542 264 97 104 115
190 543 264 99 106 117
190 543 265 98 105 116
191 542 264 106 113 124
191 543 264 115 121 133
191 543 265 113 120 131
168 544 256 104 110 121
169 544 256 103 108 119
169 545 256 101 106 116
170 544 256 101 106 117
170 545 256 98 103 113
171 544 256 99 105 116
171 544 257 101 106 117
171 545 256 96 101 111
170 546 256 93 98 108
171 546 256 92 98 107
171 547 256 92 97 106
171 548 256 90 95 104
171 549 256 89 93 102
171 550 256 87 92 101
171 551 256 85 90 98
172 544 257 103 108 119
172 545 256 94 100 110
172 545 257 95 101 112
173 544 257 109 115 126
173 545 257 92 99 110
172 546 256 91 98 108
172 546 257 93 100 110
172 547 256 96 101 111
172 547 257 102 108 118
173 546 257 96 102 113
173 547 257 104 110 120
174 545 257 92 99 110
174 544 258 108 114 126
174 545 258 95 101 112
175 544 258 97 104 115
175 545 258 90 96 106
174 546 257 94 101 111
174 547 257 101 107 118
174 546 258 92 99 109
174 547 258 96 102 113
175 546 258 88 94 104
175 547 258 89 95 104
172 548 256 93 99 108
172 549 256 88 93 102
172 549 257 90 95 104
173 548 257 99 105 115
173 549 257 93 98 108
172 550 256 86 91 100
172 550 257 85 90 99
172 551 256 85 89 97
172 551 257 84 89 97
173 550 257 88 93 101
173 551 257 83 88 97
173 551 258 82 87 96
174 548 257 99 106 116
174 549 257 94 100 109
174 548 258 98 104 114
174 549 258 93 99 108
175 548 258 91 97 106
175 548 259 85 90 99
175 549 258 89 94 103
175 549 259 86 91 99
174 550 258 89 94 103
174 551 258 84 89 97
175 550 258 87 92 101
175 550 259 86 91 99
175 551 258 85 90 97
175 551 259 85 90 97
170 552 256 84 89 98
170 553 256 85 91 99
171 552 256 84 89 97
171 553 256 86 91 100
170 554 256 88 93 102
170 555 256 89 95 104
171 554 256 91 97 105
171 555 256 94 99 109
171 555 257 99 105 115
169 557 256 88 93 101
169 558 256 87 92 99
169 559 256 84 88 96
170 556 256 91 97 105
170 557 256 94 99 108
171 556 256 99 105 114
171 556 257 106 112 121
171 557 257 106 111 121
170 558 256 92 97 105
170 558 257 91 95 104
170 559 256 85 89 97
170 559 257 83 88 96
171 558 257 96 101 110
171 559 257 86 90 99
171 559 258 83 88 95
172 552 256 84 89 97
172 552 257 85 90 98
172 553 257 88 94 103
173 552 257 84 89 98
173 552 258 84 89 97
173 553 258 88 94 103
172 554 257 96 102 112
172 555 257 105 112 122
172 555 258 106 113 124
173 554 258 92 98 108
173 555 258 103 110 120
174 552 258 85 90 98
174 552 259 86 90 98
174 553 258 85 90 99
174 553 259 85 90 98
175 552 259 85 89 97
175 553 259 84 89 96
174 554 258 89 95 104
174 554 259 86 91 100
174 555 258 93 98 108
174 555 259 93 99 108
175 554 259 83 88 96
175 555 259 86 91 99
175 553 260 83 87 95
175 554 260 83 87 95
175 555 260 82 87 96
172 556 257 112 118 128
172 557 257 108 114 123
172 556 258 112 118 129
172 557 258 104 110 120
173 556 258 106 112 122
173 557 258 97 103 113
173 557 259 93 98 108
172 558 257 97 102 111
172 558 258 91 96 105
172 559 258 84 89 97
172 559 259 83 87 95
173 558 258 89 94 104
173 558 259 86 91 99
173 559 259 84 88 96
174 556 259 91 97 106
174 557 259 87 92 101
175 556 259 85 91 99
174 558 259 84 89 98
174 559 259 85 89 97
175 556 260 82 87 96
175 557 260 82 87 95
174 558 260 83 88 96
174 559 260 84 89 96
175 558 260 82 88 96
175 558 261 82 88 96
175 559 260 84 89 97
175 559 261 88 93 101
167 562 256 80 85 93
167 563 256 80 85 93
165 566 256 81 85 93
165 567 256 80 85 93
166 564 256 82 87 94
166 565 256 82 86 94
167 564 256 80 85 93
167 565 256 80 85 93
167 565 257 79 84 93
166 566 256 82 86 94
166 567 256 82 87 94
166 567 257 83 87 95
167 566 256 82 87 95
167 566 257 83 88 96
167 567 257 86 91 99
163 571 256 100 106 116
161 575 256 100 106 116
162 573 256 99 106 117
163 572 256 102 109 119
163 573 256 102 108 119
162 574 256 96 102 112
162 575 256 94 100 110
163 574 256 94 101 111
163 574 257 92 99 109
163 575 257 90 97 107
164 568 256 82 87 94
164 569 256 80 86 94
165 568 256 82 86 94
165 569 256 81 86 93
165 569 257 82 86 94
164 570 256 86 92 101
164 571 256 93 100 109
164 571 257 99 104 114
165 570 256 83 88 96
165 570 257 85 90 98
165 571 257 92 98 107
166 568 256 82 87 94
166 568 257 82 87 94
166 569 257 82 86 94
167 568 257 87 91 99
167 569 257 84 88 96
167 568 258 89 94 102
167 569 258 85 90 99
166 570 257 85 90 98
166 571 257 88 93 102
166 570 258 85 91 100
166 571 258 90 96 106
167 570 258 84 90 99
167 570 259 83 90 99
167 571 258 87 93 102
167 571 259 85 91 100
164 572 256 101 108 118
164 572 257 104 110 120
164 573 257 99 106 116
165 572 257 105 110 120
165 573 257 102 108 118
165 572 258 106 112 122
165 573 258 97 103 113
164 574 257 94 100 110
164 575 257 93 99 109
164 574 258 97 103 113
164 575 258 96 102 111
165 574 258 94 100 110
165 575 258 96 101 111
165 575 259 94 99 108
166 572 258 101 107 116
166 573 258 94 100 110
166 573 259 90 96 105
167 572 258 96 101 110
167 572 259 91 96 105
167 573 259 88 93 101
166 574 258 90 96 106
166 574 259 90 95 104
166 575 259 89 95 104
167 574 259 86 91 100
167 575 259 86 92 100
167 573 260 85 90 98
167 574 260 84 89 97
167 575 260 84 89 98
168 560 256 82 87 95
168 561 256 83 88 97
169 560 256 82 87 95
169 561 256 88 92 101
169 561 257 89 94 103
168 562 256 85 90 98
168 562 257 88 93 101
168 563 256 83 87 95
168 563 257 83 88 96
169 562 257 94 98 106
169 563 257 85 89 98
169 563 258 83 88 96
170 560 257 83 88 97
170 561 257 91 95 104
171 560 257 83 88 96
171 560 258 83 88 96
171 561 258 84 89 97
170 562 257 95 100 108
170 562 258 87 92 101
170 563 258 81 86 95
171 562 258 82 87 96
171 562 259 78 84 92
171 563 258 80 85 93
171 563 259 79 84 92
168 564 256 81 85 93
168 564 257 79 84 92
168 565 257 79 85 93
169 564 257 80 85 93
168 565 258 81 86 94
169 564 258 80 85 93
169 565 258 83 88 96
168 566 257 83 88 97
168 567 257 91 96 104
168 566 258 86 91 100
168 567 258 95 99 107
169 566 258 94 98 106
169 566 259 100 104 112
169 567 258 100 104 112
169 567 259 100 104 112
170 564 258 80 85 93
170 564 259 79 84 92
170 565 258 82 87 95
170 565 259 85 90 98
171 564 259 80 85 92
171 565 259 85 89 97
170 566 259 100 104 112
170 567 259 102 106 114
171 566 259 100 104 112
171 565 260 88 92 100
170 567 260 97 101 110
171 566 260 95 100 108
171 567 260 95 100 108
171 567 261 87 93 101
172 560 258 83 87 95
172 560 259 82 86 94
172 561 258 81 85 93
172 561 259 79 84 92
173 560 259 83 87 94
173 561 259 81 85 93
172 562 259 77 82 90
172 563 259 77 83 90
173 560 260 82 87 94
173 561 260 81 85 93
172 562 260 77 82 90
172 563 260 77 82 90
173 562 260 79 83 91
173 563 260 78 83 91
173 563 261 80 85 93
174 560 260 83 88 96
174 561 260 83 87 95
174 561 261 83 88 96
175 560 260 86 91 99
175 560 261 90 94 102
175 561 261 90 94 101
174 562 260 80 85 93
174 562 261 80 85 93
174 563 261 83 87 95
175 562 261 83 88 96
175 563 261 82 87 95
175 562 262 81 86 94
175 563 262 87 92 100
172 564 259 78 83 91
172 564 260 78 83 91
172 565 260 82 88 96
173 564 260 79 84 92
173 564 261 81 86 94
173 565 261 83 88 96
172 566 260 88 93 101
172 566 261 86 91 100
172 567 261 85 90 99
173 566 261 83 89 97
173 567 261 84 89 98
173 567 262 84 89 97
174 564 261 91 96 104
174 565 261 90 95 103
174 565 262 96 100 108
175 564 262 99 103 111
175 565 262 100 104 112
175 565 263 99 103 112
174 566 261 87 92 100
174 566 262 87 92 100
174 567 262 85 89 98
175 566 262 92 97 104
175 566 263 92 97 105
175 567 262 88 92 100
175 567 263 86 91 99
168 568 258 95 100 108
168 568 259 97 101 109
168 569 258 88 93 102
168 569 259 88 94 102
169 568 259 95 99 108
169 569 259 87 93 101
168 570 259 82 88 97
168 571 259 82 88 96
169 570 259 82 87 96
170 568 259 93 97 106
169 569 260 83 88 97
169 570 260 81 86 95
169 571 260 82 87 95
170 568 260 89 95 103
170 569 260 83 89 97
171 568 260 87 92 101
171 568 261 84 90 98
171 569 260 82 88 97
171 569 261 81 87 96
170 570 260 81 86 95
170 571 260 82 87 95
170 571 261 83 88 96
171 570 261 83 88 97
171 571 261 86 91 100
171 571 262 90 96 105
168 572 259 84 89 98
168 572 260 84 88 97
168 573 260 84 89 97
169 572 260 82 87 95
169 573 260 83 88 96
169 573 261 82 87 95
168 574 260 84 88 96
168 575 260 83 88 96
168 575 261 84 89 97
169 574 261 83 88 96
169 575 261 84 89 98
170 572 261 83 88 96
170 573 261 82 87 96
171 572 261 89 94 102
170 573 262 84 90 98
171 572 262 92 98 107
171 573 262 91 96 106
170 574 261 82 88 96
170 574 262 86 91 100
170 575 262 85 90 99
171 574 262 93 98 107
171 574 263 99 104 113
171 575 262 91 96 105
171 575 263 96 100 109
172 568 261 83 89 97
172 569 261 82 87 96
172 569 262 83 88 97
173 568 262 84 89 97
173 569 262 84 89 97
172 570 262 85 91 100
172 571 262 92 98 108
173 570 262 87 93 102
173 570 263 90 96 105
173 571 262 96 102 112
173 571 263 98 104 114
174 568 262 84 89 97
174 568 263 84 89 96
174 569 262 85 90 98
174 569 263 85 90 98
175 568 263 83 88 96
175 569 263 83 88 96
174 570 263 87 93 102
174 571 263 96 103 113
172 572 262 99 105 115
172 573 262 97 103 113
172 573 263 99 105 115
173 572 263 107 113 123
173 573 263 106 112 122
172 574 263 102 107 116
172 575 263 99 103 112
173 574 263 108 113 122
173 575 263 105 109 118
174 572 263 107 113 124
175 569 264 83 89 97
174 571 264 91 98 108
175 570 264 84 90 100
175 571 264 88 95 106
173 574 264 111 116 126
173 575 264 101 105 114
174 572 264 108 115 125
174 573 264 112 118 128
175 572 264 95 102 113
175 573 264 103 109 119
175 573 265 96 102 112
174 574 264 106 111 121
174 575 264 97 102 111
175 574 264 96 103 113
175 574 265 93 99 109
175 575 264 94 100 109
175 575 265 90 96 105
176 544 258 92 98 108
176 544 259 90 96 105
176 545 258 89 94 103
176 545 259 87 92 101
177 544 259 88 93 102
177 545 259 86 91 100
176 546 258 85 91 100
176 546 259 84 89 98
176 547 258 84 90 98
176 547 259 83 88 97
177 546 259 84 89 97
177 547 259 82 87 96
177 544 260 91 95 104
177 545 260 85 90 99
177 546 260 83 88 97
177 547 260 82 88 97
178 544 260 88 93 102
178 545 260 85 90 99
179 544 260 88 93 101
179 544 261 87 91 100
179 545 260 87 91 99
179 545 261 86 91 99
178 546 260 83 89 97
178 547 260 84 89 99
179 546 260 85 90 98
179 546 261 86 91 99
179 547 260 86 92 100
179 547 261 86 92 101
176 548 259 84 89 97
176 549 259 86 91 100
177 548 259 83 89 98
176 550 259 85 91 100
176 551 259 84 89 98
177 548 260 86 92 102
177 549 260 91 97 106
176 551 260 86 91 100
177 550 260 91 97 106
177 551 260 92 98 107
178 548 260 96 102 111
178 549 260 104 110 120
178 549 261 104 110 120
179 548 261 98 104 114
179 549 261 102 108 119
178 550 260 96 102 112
178 550 261 100 106 116
178 551 260 95 101 111
178 551 261 99 105 114
179 550 261 103 110 120
179 551 261 104 110 120
179 550 262 106 113 123
179 551 262 100 107 117
180 544 261 85 89 98
180 545 261 84 89 97
181 544 261 84 89 98
181 544 262 83 89 98
181 545 262 83 88 97
180 546 261 84 89 98
180 547 261 85 91 100
180 547 262 85 91 100
181 546 262 82 87 96
181 547 262 84 90 99
182 544 262 85 90 98
182 545 262 84 89 98
183 544 262 85 90 99
183 544 263 85 91 100
183 545 263 86 92 101
182 546 262 83 89 97
182 546 263 85 90 99
182 547 262 85 90 99
182 547 263 86 92 100
183 546 263 88 94 102
183 547 263 88 94 102
180 548 261 89 96 106
180 548 262 89 96 106
180 549 262 94 102 113
181 548 262 89 96 107
181 549 262 99 106 117
180 550 262 103 110 121
180 551 262 98 106 117
181 550 262 103 110 121
181 550 263 104 111 122
181 551 262 101 108 120
181 551 263 104 111 122
182 548 263 90 95 105
182 549 263 96 102 113
183 548 263 89 95 104
183 549 263 90 96 105
182 550 263 107 113 123
182 551 263 103 109 120
183 548 264 89 94 103
183 549 264 91 97 106
182 551 264 97 103 113
183 550 264 97 103 112
183 551 264 91 97 107
176 552 260 86 92 100
176 553 260 87 91 99
177 552 260 94 99 108
177 552 261 100 104 113
177 553 260 95 100 108
177 553 261 101 106 114
176 554 260 85 89 97
176 555 260 82 87 95
176 555 261 82 86 94
177 554 261 92 97 105
177 555 261 83 88 96
178 552 261 100 105 114
178 553 261 101 106 114
178 552 262 96 102 111
178 553 262 94 99 108
179 552 262 94 100 110
179 553 262 90 96 105
178 554 261 91 96 105
178 555 261 84 89 98
178 554 262 88 94 102
178 555 262 82 87 96
179 554 262 85 92 101
179 555 262 84 89 97
179 555 263 84 89 98
176 556 260 83 87 96
176 556 261 83 88 96
176 557 261 84 89 97
177 556 261 84 88 96
177 557 261 87 92 100
177 557 262 87 92 100
176 558 261 87 91 100
176 559 261 95 100 108
177 558 261 89 93 102
176 559 262 102 106 114
177 558 262 90 95 103
177 559 262 96 100 108
178 556 262 82 87 95
178 557 262 84 89 98
179 556 263 83 88 96
179 557 263 84 89 98
178 558 262 87 93 101
178 559 262 90 95 104
178 559 263 89 94 103
179 558 263 85 90 98
179 559 263 85 90 99
180 552 262 91 98 110
180 552 263 93 101 112
180 553 262 90 98 108
180 553 263 93 100 111
181 552 263 97 105 116
181 553 263 98 105 115
180 554 263 90 96 106
180 555 263 86 91 100
181 554 263 97 103 113
181 555 263 89 94 103
182 552 263 98 105 115
180 556 263 84 89 98
180 557 263 85 90 98
180 558 263 85 90 97
180 559 263 85 90 98
181 554 264 92 97 107
181 555 264 87 92 102
182 552 264 93 99 109
182 553 264 95 100 110
183 552 264 90 95 104
183 553 264 89 95 103
182 554 264 90 95 105
182 555 264 85 91 100
183 554 264 86 92 101
183 554 265 87 92 100
183 555 264 84 90 99
183 555 265 84 90 98
181 556 264 91 96 104
181 557 264 96 100 109
180 558 264 85 90 98
180 559 264 85 90 98
181 558 264 93 98 106
181 559 264 87 91 99
182 556 264 91 96 106
182 556 265 92 98 107
182 557 264 104 109 117
182 557 265 105 109 118
183 556 265 86 92 101
183 557 265 95 100 109
182 558 264 101 106 114
182 558 265 102 107 116
182 559 264 90 95 103
182 559 265 88 93 101
183 558 265 97 101 110
183 559 265 88 94 103
184 544 263 90 96 106
184 545 263 96 102 112
185 544 263 86 93 103
184 546 263 96 102 111
184 545 264 99 105 115
185 544 264 97 103 113
185 545 264 101 107 117
184 546 264 98 103 112
184 547 264 89 94 103
185 546 264 99 105 114
185 547 264 89 94 103
186 544 264 111 116 126
186 545 264 114 119 129
187 544 264 114 119 129
187 544 265 113 118 129
187 545 265 110 115 126
186 546 264 102 107 117
186 546 265 97 103 112
186 547 264 90 96 105
186 547 265 89 95 104
187 546 265 97 103 113
187 547 265 90 96 105
184 548 264 88 93 102
184 549 264 89 94 103
185 548 264 86 91 100
185 549 264 88 93 102
185 549 265 88 93 102
184 550 264 92 97 106
184 551 264 90 95 104
184 551 265 89 94 102
185 550 264 89 94 103
185 550 265 89 94 102
185 551 265 89 93 102
186 548 265 89 94 103
186 549 265 90 95 104
187 548 265 89 94 103
187 549 265 91 96 105
186 550 265 91 96 105
186 551 265 90 95 104
187 550 265 94 99 108
187 551 265 92 98 107
188 544 265 102 108 119
188 545 265 100 107 117
189 544 265 96 102 113
189 545 265 95 102 112
188 546 265 94 101 111
188 547 265 92 98 108
189 546 265 93 99 109
189 547 265 92 98 108
190 544 265 95 102 113
190 545 265 96 102 113
191 544 265 103 110 121
191 545 265 96 103 113
190 546 265 94 100 111
190 547 265 94 99 109
191 546 265 93 99 110
191 547 265 93 99 109
188 548 265 92 97 107
188 549 265 95 101 110
189 548 265 92 98 108
189 549 265 94 101 112
188 550 265 98 103 113
188 551 265 94 100 109
189 550 265 103 110 120
188 551 266 93 100 110
189 550 266 111 118 129
189 551 266 106 114 126
190 548 265 94 101 111
190 549 265 95 102 113
191 548 265 95 101 112
190 549 266 104 112 123
191 549 266 106 113 125
190 550 266 119 126 138
190 551 266 112 121 133
191 550 266 115 123 136
191 551 266 118 127 140
184 552 264 89 94 103
184 552 265 90 94 103
184 553 265 89 94 103
185 552 265 89 94 102
185 553 265 90 95 103
184 554 265 87 92 101
184 555 265 85 90 98
185 554 265 89 94 102
185 555 265 87 93 101
186 552 265 89 95 103
186 553 265 90 95 104
187 552 265 91 96 105
186 553 266 91 96 105
187 552 266 91 96 106
187 553 266 92 97 107
186 554 265 90 95 104
186 554 266 91 96 105
186 555 266 89 95 104
