ply
format ascii 1.0
comment PCL generated
element vertex 2113
property float x
property float y
property float z
property uchar red
property uchar green
property uchar blue
element camera 0
property float view_px
property float view_py
property float view_pz
property float x_axisx
property float x_axisy
property float x_axisz
property float y_axisx
property float y_axisy
property float y_axisz
property float z_axisx
property float z_axisy
property float z_axisz
property float focal
property float scalex
property float scaley
property float centerx
property float centery
property int viewportx
property int viewporty
property float k1
property float k2
end_header
132 659 168 87 92 101
132 660 168 89 95 105
131 664 167 82 88 98
131 665 167 80 86 95
131 666 167 81 87 96
131 667 167 84 91 100
131 668 167 91 97 107
131 669 167 97 103 113
135 664 162 92 98 109
135 664 163 90 96 106
135 665 162 85 91 100
135 665 163 85 90 99
135 666 162 84 90 98
135 666 163 83 88 96
135 667 162 86 92 100
135 667 163 86 91 100
133 664 165 82 88 97
133 665 165 79 85 93
132 664 166 81 87 96
132 664 167 81 87 96
132 665 166 79 84 93
132 665 167 80 85 94
133 664 166 81 87 96
133 665 166 79 85 93
133 666 165 79 84 93
133 667 165 80 86 95
132 666 166 79 85 93
132 666 167 80 86 95
132 667 166 81 87 96
132 667 167 83 89 98
133 666 166 79 84 93
133 667 166 81 86 95
134 664 164 88 94 103
134 664 165 85 90 99
134 665 164 82 88 96
134 665 165 80 86 94
134 666 164 81 86 95
134 666 165 80 86 94
134 667 164 83 88 97
134 669 163 82 87 96
135 668 162 84 89 98
135 668 163 86 91 100
135 669 162 81 87 95
135 669 163 81 87 96
134 671 163 81 87 95
135 670 163 80 85 94
135 671 163 80 86 95
133 668 165 82 88 97
133 669 165 81 87 96
132 668 166 84 90 99
132 668 167 88 94 103
132 669 166 85 91 101
132 669 167 90 96 106
133 668 166 82 88 97
133 669 166 83 89 98
133 670 165 80 87 96
133 671 165 84 89 98
132 670 166 84 90 100
132 670 167 91 97 107
132 671 166 86 93 102
132 671 167 91 97 108
133 670 166 83 89 98
133 671 166 85 91 100
134 668 164 84 90 98
134 669 164 82 88 96
134 670 164 80 86 94
134 671 164 81 87 96
135 670 164 79 85 94
129 664 171 103 110 121
129 665 171 99 106 118
129 666 171 98 104 115
129 667 171 102 108 119
130 664 168 89 95 105
130 664 169 94 100 110
130 665 168 88 94 104
130 665 169 92 98 108
131 664 168 84 91 100
131 665 168 84 90 99
130 664 170 101 107 118
130 664 171 103 110 121
130 665 170 96 103 113
130 665 171 98 105 116
130 666 169 88 94 104
130 667 169 89 95 105
131 666 168 83 89 98
131 667 168 86 92 101
130 666 170 93 100 109
130 666 171 94 101 112
130 667 170 96 102 112
128 664 173 97 103 113
128 665 173 98 104 115
129 664 172 103 110 121
129 664 173 100 106 116
129 665 172 99 106 118
129 665 173 100 106 117
128 664 174 95 101 112
128 665 174 100 106 116
128 665 175 99 106 117
129 666 172 100 106 118
129 666 173 104 110 121
129 667 172 105 111 122
129 667 173 109 115 125
128 666 174 107 113 123
128 666 175 107 114 125
128 667 174 114 119 130
128 667 175 114 120 132
129 667 174 112 118 129
129 668 171 110 115 126
129 669 171 113 119 130
130 668 169 94 99 109
130 669 169 101 107 118
131 668 168 93 99 109
131 668 169 96 102 112
131 669 168 100 106 116
131 669 169 100 106 116
130 668 170 100 107 117
130 668 171 106 112 123
130 669 170 105 111 122
130 669 171 110 116 127
131 670 168 99 105 116
131 670 169 102 108 118
131 671 168 99 106 116
131 671 169 103 109 121
130 670 170 109 115 126
130 670 171 115 121 133
130 671 170 113 119 130
130 671 171 116 122 133
131 671 170 108 114 125
129 668 172 111 117 128
129 668 173 113 119 130
129 669 172 114 119 131
129 669 173 113 119 131
128 668 175 120 127 140
129 668 174 116 122 134
129 668 175 122 128 141
129 669 174 118 125 137
129 669 175 124 132 146
129 670 172 114 120 133
129 670 173 113 120 133
129 670 174 117 125 137
129 670 175 121 130 143
129 671 174 111 119 132
129 671 175 111 119 133
130 670 172 116 122 134
130 671 172 112 119 131
130 671 173 108 115 129
130 671 174 107 115 128
136 656 160 90 96 106
136 656 161 88 95 105
136 657 160 95 102 112
136 657 161 93 99 109
137 656 160 93 99 109
137 657 160 95 102 112
136 658 160 100 107 118
136 658 161 98 105 116
136 659 160 102 110 120
136 659 161 102 109 120
137 658 160 101 108 119
137 659 160 101 109 121
136 660 160 99 107 119
136 660 161 99 107 119
136 661 160 97 104 116
136 661 161 96 105 116
137 660 160 100 108 119
137 661 160 99 105 116
136 662 161 96 104 115
136 663 161 93 99 110
137 662 160 97 103 113
137 663 160 90 96 105
136 662 162 100 107 118
136 663 162 96 103 114
136 664 161 89 96 105
136 665 161 86 92 102
137 664 160 89 94 104
137 665 160 87 93 102
136 664 162 92 98 108
136 665 162 86 92 101
136 666 161 84 89 98
136 667 161 81 87 95
137 666 160 83 89 97
137 666 161 85 91 99
137 667 160 81 87 95
137 667 161 81 87 95
136 666 162 85 90 98
136 667 162 84 90 98
138 666 160 82 88 97
138 667 160 83 88 97
136 668 161 80 86 94
136 669 161 80 85 94
137 668 160 80 85 94
137 668 161 79 85 94
137 669 160 80 85 94
137 669 161 79 85 93
136 668 162 82 88 96
136 669 162 80 86 94
136 670 161 80 85 94
136 671 161 80 86 94
137 670 160 81 86 95
137 670 161 81 86 95
137 671 160 80 86 94
137 671 161 81 86 94
136 670 162 79 85 93
136 671 162 80 85 94
138 668 160 82 87 96
138 669 160 82 88 97
128 667 176 116 123 135
128 668 176 125 132 145
128 668 177 121 128 140
128 669 176 131 137 150
128 669 177 124 130 142
129 669 176 128 135 148
129 669 177 124 130 142
129 669 178 112 118 130
129 670 176 120 128 142
129 670 177 111 118 131
129 671 176 107 115 129
129 671 177 101 108 120
129 670 178 106 112 124
129 670 179 105 112 123
129 671 178 99 106 118
129 671 179 100 106 117
137 675 159 81 87 95
138 672 159 81 86 95
138 673 159 78 84 92
139 672 158 83 89 98
139 672 159 82 88 97
139 673 158 81 87 95
139 673 159 80 86 94
138 674 159 77 83 92
138 675 159 79 85 93
139 674 158 80 86 95
139 675 158 80 86 95
137 676 159 86 91 100
137 677 159 87 93 103
137 678 159 88 94 104
137 679 159 88 95 105
139 676 157 82 88 97
139 677 157 79 86 95
138 676 158 80 86 95
138 676 159 83 89 97
138 677 158 83 89 98
138 677 159 83 90 99
139 676 158 81 87 96
139 677 158 81 87 96
139 678 157 79 86 95
139 679 157 79 86 95
138 678 158 83 89 99
138 678 159 84 91 100
138 679 158 82 89 98
138 679 159 85 92 101
139 678 158 82 88 97
142 672 155 87 92 102
142 673 155 87 93 102
143 672 154 89 95 105
143 673 154 85 92 102
142 674 155 84 91 100
142 675 155 81 87 96
143 674 154 84 91 101
143 675 154 83 89 99
140 672 157 84 90 99
140 673 157 85 91 100
141 672 156 85 91 101
141 672 157 84 90 100
141 673 156 90 96 105
141 673 157 89 95 104
140 674 157 87 93 102
140 675 156 87 93 102
140 675 157 86 92 101
141 674 156 90 96 105
141 675 156 85 91 100
141 677 155 78 84 93
141 678 155 79 85 93
141 679 155 81 88 97
142 676 155 78 85 94
142 677 154 77 83 92
142 677 155 77 83 92
143 676 154 79 85 94
143 677 154 78 84 93
143 678 153 80 86 96
143 679 153 82 89 99
142 678 154 78 85 94
142 678 155 78 84 93
142 679 154 81 89 98
143 678 154 79 86 95
140 676 156 81 87 96
140 676 157 82 88 97
140 677 156 78 85 94
140 677 157 79 86 95
141 676 156 80 87 96
141 677 156 79 85 94
140 678 156 79 85 94
140 679 156 79 85 94
141 678 156 79 85 94
141 679 156 81 87 96
137 680 159 88 95 104
137 681 159 87 93 104
137 682 159 84 90 100
137 683 159 83 89 98
139 680 157 80 86 96
139 681 156 83 89 98
139 681 157 82 88 97
138 680 158 84 90 100
138 680 159 86 92 102
138 681 158 84 90 100
138 681 159 85 92 101
139 682 156 84 90 99
139 682 157 83 89 98
139 683 157 82 88 97
138 682 158 83 89 98
138 683 158 82 88 96
137 684 159 83 88 98
137 685 159 85 91 100
137 686 159 87 93 103
137 687 159 90 96 106
139 684 157 79 85 93
139 685 157 80 86 95
138 684 158 80 86 95
138 685 158 81 88 97
139 686 157 84 90 99
139 687 157 87 94 103
138 686 158 85 91 101
138 687 158 89 95 105
138 687 159 90 96 106
141 680 155 86 92 102
141 681 155 94 100 111
141 682 155 99 105 115
141 683 155 96 102 112
143 680 153 91 98 108
143 681 153 96 103 114
142 680 154 90 97 108
142 681 154 98 105 116
143 680 154 86 93 104
143 682 153 99 106 117
143 683 153 101 107 118
142 682 154 102 109 120
142 683 154 101 108 118
140 680 156 80 87 96
140 681 156 85 91 101
140 682 156 90 96 106
140 683 156 89 95 104
141 684 154 85 92 102
141 684 155 85 91 101
141 685 154 79 86 95
141 685 155 78 85 94
141 686 154 79 85 94
141 686 155 79 85 94
141 687 154 82 88 97
141 687 155 82 88 97
143 684 153 88 95 105
143 685 153 81 88 97
142 684 154 90 97 107
142 684 155 93 99 110
142 685 154 79 86 95
143 686 153 82 88 97
143 687 153 82 88 97
142 686 154 80 86 95
142 687 154 81 87 96
140 684 156 80 86 95
140 685 156 79 85 94
140 686 156 81 87 96
140 687 156 84 90 99
137 688 159 91 98 108
137 689 159 90 96 107
139 688 157 92 98 108
139 689 157 91 97 107
138 688 158 92 98 108
138 688 159 92 98 108
138 689 158 91 98 108
138 689 159 90 97 107
139 688 158 93 100 109
139 689 158 91 97 107
139 690 157 87 93 102
139 691 157 87 93 103
138 690 158 88 95 105
138 690 159 88 95 105
138 691 159 87 94 104
139 690 158 87 93 103
139 691 158 88 94 104
139 691 159 88 94 104
138 692 159 89 95 105
138 693 159 89 95 105
139 692 158 90 97 107
139 692 159 89 95 105
139 693 158 92 98 108
139 693 159 90 96 106
138 694 159 90 97 107
139 694 158 92 98 108
139 694 159 91 98 108
139 695 158 90 97 107
139 695 159 91 98 109
141 688 155 83 89 98
141 689 155 82 88 97
141 690 155 81 87 96
141 691 155 85 91 100
143 688 153 82 88 98
143 689 153 82 88 97
142 688 154 81 86 95
142 689 154 81 87 95
143 688 154 80 86 95
143 689 154 81 87 95
143 690 153 81 87 95
142 690 154 80 86 95
142 690 155 81 87 96
142 691 154 80 86 95
142 691 155 81 87 96
143 690 154 81 87 96
143 691 154 80 86 95
140 688 156 87 93 102
140 688 157 89 96 105
140 689 156 88 94 103
140 689 157 88 94 104
141 688 156 86 92 101
141 689 156 84 90 100
140 690 156 84 90 99
140 690 157 85 92 101
140 691 156 89 95 105
140 691 157 87 93 103
141 690 156 83 89 98
141 691 156 86 91 100
142 692 155 85 91 100
142 693 155 85 91 101
143 692 154 83 89 98
143 693 154 87 93 103
143 693 155 85 91 101
142 694 155 85 91 100
142 695 155 84 90 99
143 694 154 87 93 103
143 694 155 86 92 101
143 695 154 85 91 100
143 695 155 84 90 99
140 692 156 92 98 107
140 692 157 92 98 108
140 693 157 92 98 108
141 692 156 92 98 107
141 693 156 90 96 106
140 692 158 91 98 108
140 693 158 92 98 108
140 694 157 90 97 107
140 695 157 88 95 104
141 694 156 88 95 104
141 694 157 90 96 106
141 695 156 86 93 103
141 695 157 88 94 104
140 694 158 91 98 108
140 695 158 89 95 105
142 694 156 86 93 102
142 695 156 86 92 102
139 696 158 89 95 105
139 696 159 90 96 106
139 697 158 87 94 103
139 697 159 89 96 106
139 698 159 89 96 106
139 699 159 88 95 105
139 700 159 91 97 107
142 696 155 84 90 99
142 697 155 86 91 101
143 696 154 83 89 98
143 696 155 83 89 98
143 697 154 82 89 98
143 697 155 84 90 99
142 698 155 88 95 105
142 699 155 96 103 114
143 698 154 83 90 100
143 698 155 87 93 103
143 699 155 96 103 114
140 696 157 87 93 103
140 697 157 86 93 102
141 696 156 85 91 101
141 696 157 86 92 102
141 697 156 86 92 102
141 697 157 87 93 102
140 696 158 88 94 104
140 697 158 87 93 103
140 698 157 89 95 105
140 699 157 90 96 106
141 698 156 87 94 103
141 698 157 89 96 106
141 699 157 93 100 111
140 698 158 88 94 104
140 699 158 89 95 105
140 699 159 89 95 105
142 696 156 84 90 100
142 697 156 86 92 102
142 698 156 90 96 106
142 699 156 97 104 115
143 700 155 101 108 119
143 701 155 102 110 121
143 702 155 99 106 117
143 703 155 92 99 109
141 700 157 96 103 113
141 701 157 99 106 116
140 700 158 91 97 107
140 700 159 90 97 107
140 701 158 92 98 108
140 701 159 89 95 105
141 700 158 92 99 109
141 701 158 94 101 111
141 702 157 95 101 111
141 703 157 90 96 106
140 702 159 91 96 106
140 703 159 90 96 105
141 702 158 94 99 109
141 703 158 91 97 106
142 700 156 101 109 120
142 700 157 99 107 118
142 701 156 105 113 124
142 701 157 103 110 121
143 701 156 104 112 124
142 702 156 99 107 118
142 702 157 98 105 115
142 703 156 92 99 109
142 703 157 92 98 109
143 702 156 100 107 119
143 703 156 92 99 110
159 672 135 90 97 108
159 673 135 96 104 115
155 672 139 98 105 116
155 673 139 109 115 126
155 674 139 112 118 129
152 672 143 88 94 104
152 673 143 88 95 105
153 672 142 89 96 107
153 673 142 91 97 108
153 673 143 87 94 105
152 674 143 89 96 106
152 675 143 91 99 109
153 674 142 91 98 109
153 674 143 90 97 107
153 675 142 93 100 111
153 675 143 92 99 109
154 672 140 102 109 119
154 672 141 97 104 114
154 673 141 98 105 116
155 672 140 103 110 121
155 673 140 107 113 124
154 674 141 101 108 118
154 675 141 99 106 117
155 674 140 110 117 128
155 675 140 106 112 123
154 674 142 93 100 111
154 675 142 94 101 112
152 676 143 99 106 117
152 677 143 104 111 122
153 676 142 93 100 111
153 676 143 95 102 113
153 677 142 93 100 111
153 677 143 98 105 116
153 678 143 99 106 117
153 679 143 100 107 118
154 676 141 93 100 111
154 677 141 89 96 107
155 676 140 96 103 113
155 676 141 91 98 109
155 677 140 89 95 105
155 677 141 89 96 106
154 676 142 91 98 109
154 677 142 90 97 108
154 678 141 89 96 107
154 679 141 91 98 108
155 678 140 87 93 104
155 678 141 87 94 104
155 679 140 90 97 107
155 679 141 89 96 106
154 678 142 92 99 109
154 679 142 94 101 111
157 672 137 94 100 110
157 673 137 93 100 111
156 672 138 92 98 108
156 672 139 92 99 110
156 673 138 94 100 111
156 673 139 101 108 119
157 672 138 93 99 109
157 673 138 91 99 110
157 674 137 94 101 112
157 675 137 95 102 112
156 674 138 93 101 112
156 674 139 104 111 122
156 675 138 94 101 112
156 675 139 100 107 118
157 674 138 91 98 109
157 675 138 94 101 112
158 672 136 91 98 108
158 672 137 93 99 110
158 673 136 95 102 112
158 673 137 95 102 113
159 672 136 89 97 108
159 673 136 96 104 115
158 674 136 102 109 120
158 674 137 99 106 116
158 675 136 107 113 124
158 675 137 101 107 118
159 674 136 107 114 125
159 675 136 107 114 125
157 676 137 96 103 114
156 676 139 94 100 111
156 677 139 91 97 107
157 676 138 96 102 113
157 677 138 93 100 111
156 678 139 92 98 108
156 679 139 92 99 109
157 678 138 94 101 111
157 679 138 94 101 112
157 679 139 94 101 111
158 676 136 100 106 117
158 676 137 95 102 113
158 677 137 94 100 110
159 676 136 99 107 118
159 677 136 92 99 110
159 677 137 93 100 111
158 678 137 95 101 111
158 679 137 94 101 112
159 678 136 92 98 109
159 678 137 93 100 110
159 679 136 94 100 110
159 679 137 94 101 111
158 678 138 96 102 112
158 679 138 95 102 112
156 676 140 99 105 115
153 680 143 103 110 121
153 681 143 104 110 121
153 682 143 94 101 112
154 680 141 92 98 109
155 680 140 91 98 109
155 680 141 91 98 109
155 681 140 89 96 106
155 681 141 90 97 107
154 680 142 95 101 112
154 680 143 99 105 116
154 681 142 92 99 110
154 681 143 99 105 116
155 682 140 89 96 107
155 682 141 86 93 104
155 683 141 86 93 104
154 682 142 87 94 105
154 682 143 89 96 107
154 683 143 83 91 101
155 682 142 85 93 103
155 683 142 83 90 100
155 684 141 85 92 102
155 685 141 86 92 102
154 684 143 84 91 101
154 685 143 88 94 104
155 684 142 84 91 101
155 685 142 87 94 104
154 686 143 94 99 109
154 687 143 98 104 114
155 686 142 89 95 105
155 686 143 93 99 109
155 687 142 93 99 110
155 687 143 98 104 114
156 680 139 94 101 112
156 681 139 95 103 114
157 680 138 100 107 118
157 680 139 97 104 115
157 681 138 106 113 124
157 681 139 101 108 120
156 682 139 100 107 119
156 683 139 109 115 126
157 682 139 105 113 124
157 683 139 109 116 127
158 680 137 100 107 118
158 681 137 108 115 126
159 680 136 97 103 113
159 680 137 99 105 116
159 681 137 99 106 117
158 680 138 100 107 118
158 681 138 110 117 128
159 682 137 98 106 117
159 683 137 101 108 120
158 682 138 107 114 126
158 683 138 108 115 127
158 683 139 108 115 126
159 683 138 106 113 124
156 680 140 92 99 110
156 681 140 90 98 109
156 682 140 94 102 113
156 683 140 98 105 116
156 683 141 87 94 104
157 684 139 99 106 117
157 685 139 89 95 106
158 684 138 100 107 118
158 684 139 99 106 117
158 685 138 91 98 108
158 685 139 91 98 108
159 684 138 96 103 114
159 685 138 91 98 108
158 686 139 90 96 106
158 687 139 91 97 107
159 686 138 91 97 107
159 687 138 91 97 107
159 687 139 91 97 107
156 684 140 90 98 108
156 684 141 85 92 103
156 685 140 87 94 104
156 685 141 86 93 103
157 684 140 94 101 112
157 685 140 87 94 104
156 686 141 88 94 104
156 687 141 89 95 105
157 686 140 88 94 104
157 687 140 91 97 107
157 687 141 90 96 105
156 687 142 91 98 108
145 672 151 92 99 109
145 673 151 94 101 111
145 674 151 96 103 113
145 675 151 96 103 113
147 672 149 97 103 114
147 673 149 92 99 109
146 672 150 93 100 110
146 672 151 92 98 109
146 673 150 90 98 109
146 673 151 92 99 110
147 672 150 95 101 112
147 673 150 91 98 109
147 674 149 90 97 108
147 675 149 87 95 105
146 674 150 92 100 110
146 674 151 95 102 112
146 675 150 93 100 111
146 675 151 95 102 112
147 674 150 91 98 109
147 675 150 91 98 108
145 676 151 91 98 108
145 677 151 83 90 99
145 678 151 82 88 97
145 679 151 84 90 99
147 677 149 85 92 102
146 676 150 90 97 106
146 676 151 89 96 105
146 677 150 86 92 101
146 677 151 84 91 100
147 676 150 87 94 104
147 677 150 85 92 101
147 678 149 87 94 103
147 679 149 90 96 105
146 678 150 84 90 100
146 678 151 83 89 98
146 679 150 87 93 102
146 679 151 85 92 101
147 678 150 86 92 101
147 679 150 88 94 104
148 672 147 98 105 115
149 672 147 97 103 114
149 673 147 94 100 110
149 674 147 91 97 108
149 675 147 90 97 107
150 672 145 93 99 109
150 673 145 93 99 108
151 672 144 90 96 105
151 672 145 92 97 107
151 673 144 91 97 107
151 673 145 92 98 107
150 672 146 95 101 110
150 673 146 93 99 108
151 674 144 91 97 107
151 674 145 91 98 108
151 675 144 94 101 112
151 675 145 93 101 111
150 674 146 91 98 108
150 674 147 91 97 108
150 675 146 93 100 110
150 675 147 93 99 109
148 672 148 97 103 114
148 672 149 95 101 111
148 673 148 94 100 110
148 673 149 93 99 110
148 674 148 88 95 106
148 674 149 89 96 106
148 675 148 87 93 104
148 675 149 87 94 104
149 675 148 88 94 104
149 676 147 91 97 108
149 677 147 92 100 110
149 678 147 96 104 115
149 679 147 95 103 114
151 676 145 104 111 122
151 677 145 111 117 128
150 676 146 99 105 116
150 676 147 94 101 112
150 677 146 99 106 117
150 677 147 96 104 115
151 677 146 105 112 123
151 678 145 107 114 125
151 679 145 104 111 123
150 678 146 100 107 119
150 678 147 98 105 116
150 679 146 98 106 117
150 679 147 94 102 113
151 678 146 105 112 124
151 679 146 104 111 122
148 676 148 86 93 103
148 676 149 84 91 102
148 677 148 86 93 103
148 677 149 85 92 102
149 676 148 88 95 105
149 677 148 89 97 107
148 678 148 89 96 106
148 678 149 89 95 104
148 679 148 96 102 112
148 679 149 92 98 108
149 678 148 94 101 111
149 679 148 98 104 115
144 672 152 92 98 108
144 672 153 91 97 107
144 673 152 91 98 107
144 673 153 89 96 106
145 672 152 92 98 108
145 673 152 95 101 111
144 674 153 94 100 109
144 675 153 90 96 106
145 674 152 99 105 115
145 675 152 97 102 112
144 676 153 82 89 98
144 677 152 82 88 97
144 677 153 80 86 95
145 676 152 87 94 103
145 677 152 83 89 98
144 678 152 82 88 96
144 678 153 81 87 96
144 679 152 84 90 99
144 679 153 84 90 100
145 678 152 81 87 96
145 679 152 83 89 98
145 680 151 88 94 103
145 681 151 90 96 105
145 682 151 88 95 104
145 683 151 86 92 101
147 681 149 88 95 105
146 680 150 88 94 104
146 680 151 89 95 104
146 681 150 89 95 105
146 681 151 89 95 104
147 680 150 88 94 104
147 681 150 88 95 105
147 682 149 89 95 105
147 683 149 90 96 105
146 682 150 89 94 104
146 683 150 87 93 102
146 683 151 85 90 99
147 682 150 89 95 105
147 683 150 89 94 104
145 684 151 81 88 97
145 685 151 81 88 97
145 686 151 85 91 101
145 687 151 92 99 108
147 684 149 88 93 102
147 685 149 85 91 100
146 684 150 85 90 99
146 684 151 83 89 98
146 685 150 84 90 100
146 685 151 83 89 98
147 684 150 87 92 101
147 685 150 85 91 100
146 686 150 85 92 101
146 686 151 85 92 101
146 687 150 89 95 105
146 687 151 92 98 107
147 686 150 85 91 101
147 687 150 85 92 102
149 680 147 95 102 113
149 681 147 96 103 114
149 682 147 98 105 116
151 680 145 98 106 118
151 681 145 93 102 113
150 680 147 93 101 113
150 681 147 96 104 115
151 680 146 96 104 116
151 681 146 96 104 115
151 682 145 90 98 108
150 682 147 100 107 118
150 683 147 95 101 111
151 682 146 95 102 113
151 683 146 90 96 106
148 680 148 92 98 108
148 680 149 90 96 106
148 681 148 90 97 107
148 681 149 88 95 105
149 680 148 95 102 113
149 681 148 93 100 111
148 682 148 91 97 107
148 682 149 90 96 105
148 683 148 88 94 104
148 683 149 90 95 104
149 682 148 95 101 112
149 683 148 90 97 107
150 684 147 88 94 104
150 685 147 84 90 99
151 684 146 86 92 101
151 684 147 85 91 101
151 685 146 83 89 99
151 685 147 83 89 99
150 686 147 89 95 105
150 687 147 95 100 109
151 686 146 84 90 100
151 687 146 85 91 101
148 684 148 86 92 101
148 684 149 87 92 101
148 685 148 85 90 99
148 685 149 84 90 99
149 684 148 86 92 101
149 685 148 86 91 100
148 686 149 85 91 100
148 687 149 86 92 102
149 686 148 90 95 104
149 687 148 94 99 108
149 687 149 90 96 104
148 686 150 85 91 101
150 686 148 97 102 111
150 687 148 98 103 112
144 680 152 89 95 105
144 681 152 92 98 109
145 680 152 87 93 102
144 682 152 91 97 108
144 683 152 92 98 108
144 684 152 85 91 101
144 685 152 82 88 98
145 685 152 82 88 97
144 686 152 83 89 99
144 687 152 88 94 104
144 687 153 85 91 101
145 686 152 85 91 101
145 687 152 94 100 110
152 672 144 89 96 105
152 673 144 90 96 106
152 674 144 90 96 107
152 675 144 94 101 111
152 676 144 105 111 122
152 677 144 111 118 129
152 678 144 108 115 127
152 679 144 104 111 123
152 679 145 103 111 122
152 680 144 103 110 122
152 680 145 101 109 120
152 681 144 102 108 119
152 681 145 98 106 117
153 680 144 106 112 123
153 681 144 105 111 122
152 682 144 97 104 114
152 682 145 89 96 107
152 683 145 85 91 101
153 682 144 94 101 112
153 683 144 85 92 102
152 684 145 84 90 100
152 685 145 83 90 99
153 684 144 83 90 100
153 684 145 83 89 99
153 685 144 88 94 103
153 685 145 84 90 100
152 685 146 83 89 98
152 686 145 82 88 98
152 687 145 82 88 97
153 686 144 90 95 104
153 686 145 84 89 98
153 687 144 90 95 104
153 687 145 85 90 99
152 686 146 82 88 98
152 687 146 83 89 98
154 684 144 84 91 101
154 685 144 86 92 102
154 686 144 93 99 108
154 687 144 95 100 110
154 688 143 102 107 117
155 688 142 98 104 115
155 688 143 101 107 117
155 689 142 101 107 117
155 689 143 103 108 118
155 690 143 93 100 110
155 691 143 90 97 107
155 692 143 90 97 108
155 693 143 94 100 111
155 694 143 93 100 111
155 695 143 90 97 107
158 688 139 92 98 108
158 689 139 91 97 107
159 688 138 92 98 109
159 688 139 92 98 108
159 689 139 91 97 107
159 690 139 91 97 106
159 691 139 88 94 105
156 688 141 90 96 106
156 689 141 90 97 107
157 688 140 90 97 106
157 688 141 90 96 106
157 689 140 89 95 106
157 689 141 89 96 106
156 688 142 94 100 110
156 689 142 94 101 111
157 690 140 89 95 106
157 690 141 88 94 105
157 691 140 88 95 105
157 691 141 89 96 107
156 690 142 91 98 108
156 691 142 92 99 110
158 688 140 92 98 107
158 689 140 91 97 107
158 690 140 90 96 106
158 691 140 88 94 105
159 692 139 89 95 106
159 693 139 93 100 111
157 692 141 95 102 112
157 693 141 98 105 115
156 692 142 101 108 118
156 693 142 108 114 125
156 693 143 103 110 120
157 693 142 109 115 126
157 694 141 97 104 115
156 694 142 102 108 119
156 694 143 100 106 117
156 695 142 97 103 114
156 695 143 92 99 110
157 694 142 102 109 120
157 695 142 93 100 111
158 692 140 89 95 106
158 693 140 91 98 109
159 692 140 89 96 106
159 693 140 90 97 108
158 694 140 92 98 109
158 694 141 93 100 111
158 695 141 95 101 112
159 694 140 91 98 109
159 695 140 93 100 110
156 696 143 89 96 106
156 697 143 88 94 105
157 696 142 93 99 109
157 697 142 91 97 107
157 697 143 90 96 106
156 698 143 86 93 104
156 699 143 87 94 105
157 698 142 88 95 106
157 698 143 87 94 105
157 699 143 90 97 108
158 696 141 95 101 111
158 697 141 94 100 111
159 696 140 93 100 110
159 696 141 94 101 111
159 697 140 94 101 112
159 697 141 96 102 113
158 696 142 94 101 111
158 697 142 92 98 108
158 698 141 97 104 115
159 698 141 99 106 117
159 699 141 106 113 126
158 698 142 92 100 111
158 699 142 99 107 119
157 700 143 93 100 111
157 701 143 95 101 112
157 702 143 94 101 112
159 700 141 109 117 130
159 701 141 110 119 132
158 700 142 103 111 123
158 700 143 98 106 117
158 701 142 110 117 129
158 701 143 104 111 123
159 700 142 109 117 130
159 701 142 113 121 134
158 702 143 105 113 124
158 703 143 93 101 112
159 702 142 111 119 132
159 703 142 105 113 125
159 703 143 100 109 121
145 688 151 95 101 111
145 691 151 84 90 99
146 688 151 95 101 111
146 689 151 88 94 103
147 688 150 86 93 103
147 688 151 91 97 107
147 689 150 85 91 101
147 689 151 87 93 103
146 690 151 85 91 100
146 691 151 83 89 98
147 690 150 84 89 98
147 690 151 86 91 100
147 691 150 82 88 97
146 692 151 87 93 103
146 693 151 92 98 109
147 692 150 83 89 98
147 692 151 84 90 100
147 693 150 86 92 102
147 693 151 88 95 104
146 694 151 92 100 111
146 695 151 90 97 107
147 694 150 88 95 104
147 694 151 92 98 108
147 695 151 90 96 106
150 688 147 89 95 104
150 689 147 87 93 102
151 688 146 85 91 101
151 689 146 85 91 100
151 689 147 86 92 101
150 690 147 83 89 98
150 691 147 81 87 97
151 690 146 84 89 98
151 690 147 84 90 99
151 691 147 83 89 98
148 688 149 87 93 102
148 689 149 86 92 101
149 688 148 90 95 104
149 688 149 89 94 103
149 689 148 87 92 101
149 689 149 87 93 101
148 688 150 86 92 101
148 689 150 86 91 101
148 690 149 83 89 98
148 691 149 81 87 97
149 690 148 83 89 98
149 690 149 83 89 98
149 691 149 81 87 96
148 690 150 83 89 98
148 691 150 81 87 96
150 688 148 90 95 105
150 689 148 87 92 101
150 690 148 82 88 97
150 691 148 80 86 95
150 692 147 83 89 99
151 692 147 86 91 101
151 693 147 88 93 103
151 694 147 91 97 107
151 695 147 92 100 111
148 692 149 82 89 98
149 692 149 84 90 99
149 693 149 86 92 102
148 692 150 83 88 98
148 693 150 85 91 100
149 694 149 87 94 104
149 695 149 91 97 107
148 694 150 87 93 103
148 695 150 88 94 104
149 694 150 87 94 103
149 695 150 89 95 104
150 692 148 83 89 99
150 693 148 87 92 102
150 693 149 87 93 102
150 694 148 89 96 106
150 694 149 90 96 105
150 695 148 92 99 110
150 695 149 92 99 109
151 694 148 91 98 108
151 695 148 94 101 112
144 688 152 91 97 107
144 688 153 87 93 102
144 689 152 86 93 102
144 689 153 85 91 100
145 688 152 95 100 110
145 689 152 89 96 105
144 690 152 83 89 98
144 690 153 81 87 96
144 691 152 81 88 97
144 691 153 80 86 96
145 690 152 83 90 99
145 691 152 84 90 100
146 690 152 85 90 99
144 692 153 90 96 106
144 693 153 94 100 110
145 692 152 91 97 106
145 693 152 97 103 113
145 693 153 98 104 114
144 692 154 86 92 102
144 694 153 92 98 108
144 695 153 85 92 101
145 694 152 93 101 112
145 694 153 95 102 112
145 695 152 88 94 105
145 695 153 86 93 103
144 694 154 89 95 104
144 695 154 85 91 100
146 694 152 93 101 112
146 695 152 89 96 107
146 696 151 87 94 104
147 696 151 87 94 103
147 697 151 86 92 101
147 698 151 84 90 100
147 699 151 86 92 102
147 700 151 87 93 103
147 701 151 87 92 102
147 703 151 84 90 99
149 696 149 93 100 111
148 696 150 88 94 103
148 696 151 88 94 103
148 697 150 87 93 103
148 697 151 86 93 102
149 696 150 90 96 106
149 697 150 91 98 109
148 698 150 93 100 111
148 698 151 86 93 103
148 699 150 92 99 109
148 699 151 87 94 104
149 698 150 101 107 118
149 699 150 99 105 116
150 696 149 94 102 113
150 697 149 99 107 118
151 696 148 97 105 116
151 697 148 101 109 121
151 697 149 104 112 125
150 698 149 103 111 123
150 699 149 100 107 119
151 698 148 105 112 125
151 698 149 103 111 124
151 699 149 99 107 119
150 699 150 101 107 118
148 700 150 89 96 106
148 700 151 87 93 103
148 701 151 86 92 101
149 700 150 92 98 109
149 701 150 91 97 107
149 701 151 89 95 104
148 702 151 86 92 101
148 703 151 86 91 100
149 702 150 90 96 106
149 702 151 89 95 104
149 703 151 89 95 104
150 700 149 99 106 117
150 701 149 98 105 116
151 700 149 96 104 116
151 701 149 97 104 115
150 700 150 99 106 117
150 701 150 95 102 112
151 702 149 92 99 110
151 703 149 88 95 106
150 702 150 91 97 108
150 703 150 89 96 106
151 702 150 94 101 112
151 703 150 89 96 106
144 696 153 82 89 98
144 697 153 81 87 97
145 696 152 85 91 101
145 696 153 83 90 100
145 697 152 83 89 99
145 697 153 81 88 97
144 696 154 82 89 98
144 697 154 81 88 97
144 698 153 84 91 100
144 699 153 88 94 104
145 698 152 85 91 100
145 698 153 84 91 100
145 699 152 87 93 102
145 699 153 87 93 102
144 698 154 86 92 102
144 699 154 91 98 108
146 696 152 86 92 101
146 697 152 84 90 100
146 698 152 85 91 100
146 699 152 86 92 102
147 699 152 86 92 102
145 700 153 88 94 104
145 701 153 85 92 102
144 700 154 93 99 110
144 701 154 92 99 110
144 701 155 97 105 116
145 701 154 89 96 106
145 702 153 85 91 101
145 703 153 84 90 100
144 702 154 94 100 110
144 702 155 97 104 115
144 703 154 88 95 105
144 703 155 92 99 109
145 702 154 90 96 106
145 703 154 86 92 102
146 700 152 87 93 102
146 701 152 86 92 101
146 701 153 85 91 100
147 700 152 88 94 103
147 701 152 86 92 101
146 702 152 84 90 99
146 702 153 83 90 99
146 703 153 83 89 99
147 702 152 85 91 100
147 703 152 83 89 98
152 688 145 82 88 97
152 689 145 82 88 97
153 688 144 88 94 103
153 688 145 84 89 98
153 689 144 86 91 100
153 689 145 83 89 97
152 688 146 83 89 99
152 689 146 84 90 99
152 690 145 82 88 96
152 691 145 84 89 98
153 690 144 82 88 97
153 690 145 81 87 95
153 691 145 82 87 96
152 690 146 83 89 98
152 691 146 84 89 98
154 688 144 97 102 112
154 689 144 94 100 109
154 690 144 86 91 100
154 691 144 82 88 97
155 690 144 88 94 104
155 691 144 86 93 103
153 692 145 83 89 98
153 693 145 85 91 100
152 692 146 87 92 101
152 693 146 88 94 103
152 693 147 88 94 104
153 693 146 88 94 103
153 694 145 89 95 105
153 695 145 95 101 111
152 694 146 92 98 108
152 694 147 91 98 108
152 695 147 102 108 119
153 694 146 91 98 108
153 695 146 102 108 118
154 692 144 83 89 99
154 692 145 82 88 97
154 693 144 86 92 102
154 693 145 84 91 100
155 692 144 85 91 101
155 693 144 88 94 104
154 694 144 87 93 103
154 694 145 88 94 104
154 695 145 92 98 108
155 694 144 89 95 106
155 695 144 88 95 105
152 696 147 106 113 124
152 697 147 102 110 122
153 696 146 107 114 124
153 696 147 110 116 127
153 697 146 102 109 121
153 697 147 102 109 121
152 698 147 102 109 120
153 698 146 99 107 118
153 698 147 100 107 119
153 699 147 98 106 117
154 696 145 97 103 113
154 697 145 95 102 113
155 696 144 88 95 106
155 696 145 89 96 106
155 697 144 88 95 105
155 697 145 92 99 109
154 697 146 99 106 117
154 698 145 95 103 114
155 698 144 87 94 105
155 698 145 91 99 110
155 699 144 87 94 105
155 699 145 90 98 110
154 698 146 97 105 117
154 699 146 97 105 118
154 699 147 99 107 119
152 697 148 104 111 123
152 698 148 104 111 122
152 699 148 98 105 117
153 700 147 95 103 114
153 701 147 87 95 107
155 700 145 90 98 109
155 701 145 91 98 109
154 700 146 102 110 122
154 700 147 99 108 120
154 701 146 96 104 115
154 701 147 92 101 112
155 700 146 97 105 117
155 701 146 93 101 112
154 702 147 86 94 105
154 703 147 88 94 105
155 702 146 89 96 107
155 702 147 88 95 106
155 703 146 90 97 107
155 703 147 89 95 106
152 700 148 93 101 112
152 701 148 89 97 108
152 701 149 89 97 108
153 700 148 91 99 110
153 701 148 86 94 105
152 702 148 87 95 105
152 702 149 89 96 107
152 703 149 88 95 105
153 702 148 87 94 104
153 703 148 88 95 105
154 702 148 85 93 103
154 703 148 87 94 104
156 698 144 86 93 104
156 699 144 87 94 105
156 700 144 90 97 107
156 701 144 92 98 108
156 701 145 91 98 108
157 701 144 93 99 109
156 702 144 93 99 109
156 702 145 92 98 108
156 703 145 92 98 108
157 702 144 92 99 109
157 703 144 90 96 107
157 703 145 92 98 108
156 702 146 90 97 107
156 703 146 91 97 108
158 702 144 93 100 111
158 703 144 90 97 109
134 672 163 82 88 96
134 673 163 83 89 98
135 672 162 79 85 93
135 672 163 80 86 95
135 673 162 79 85 93
135 673 163 81 87 95
134 674 163 85 91 100
134 675 163 86 93 103
135 674 162 81 87 96
135 674 163 82 88 96
135 675 162 82 88 98
133 672 165 86 92 101
133 673 164 88 94 103
133 673 165 91 97 108
132 672 166 90 97 108
132 672 167 94 101 112
132 673 166 99 107 119
132 673 167 108 115 128
133 672 166 88 94 104
133 673 166 95 101 112
132 675 165 109 116 128
133 674 164 91 97 107
133 674 165 97 104 115
133 675 164 93 100 111
133 675 165 100 108 119
132 674 166 107 115 127
132 674 167 120 128 141
132 675 166 113 121 134
132 675 167 122 130 143
134 672 164 83 89 98
134 673 164 85 91 100
134 674 164 88 94 104
134 675 164 90 97 107
135 676 161 90 97 108
135 677 161 95 102 112
134 676 162 88 95 106
134 676 163 92 99 109
134 677 162 95 102 113
134 677 163 98 105 116
135 676 162 87 94 104
135 677 162 95 101 112
135 678 161 99 105 115
135 679 161 100 107 117
134 678 162 103 109 120
134 678 163 103 110 121
134 679 162 107 114 125
134 679 163 109 116 127
135 678 162 102 108 118
135 679 162 103 110 121
132 676 165 111 118 130
133 676 164 97 104 115
133 676 165 104 111 122
133 677 164 102 109 120
133 677 165 106 113 125
132 676 166 113 120 133
132 676 167 118 125 138
132 677 166 111 118 129
132 677 167 113 119 130
133 678 164 105 112 124
133 678 165 109 116 128
133 679 164 111 118 130
133 679 165 112 119 130
132 678 166 112 118 129
132 678 167 111 116 127
132 679 166 111 117 128
132 679 167 109 115 125
133 679 166 112 118 129
131 672 168 102 109 120
131 672 169 109 115 126
131 673 168 117 123 134
131 673 169 118 124 136
130 672 170 113 119 130
130 672 171 114 120 131
130 673 171 113 119 130
131 672 170 111 117 127
131 673 170 116 121 132
131 673 171 113 118 129
131 674 168 131 138 151
131 674 169 129 136 149
131 675 169 126 134 146
131 674 170 121 128 140
131 674 171 112 118 129
131 675 170 120 126 139
131 675 171 111 116 127
130 672 172 109 116 128
130 672 173 106 113 126
130 673 172 109 115 127
130 673 173 112 119 131
131 673 172 109 115 126
130 672 174 105 113 126
130 672 175 104 113 125
130 673 174 115 122 134
130 673 175 111 117 129
130 674 172 104 111 123
130 674 173 110 117 129
131 674 172 106 112 124
131 674 173 105 113 125
131 675 172 105 111 122
131 675 173 100 107 120
130 674 174 115 122 134
130 674 175 113 120 132
130 675 174 106 113 125
130 675 175 104 111 123
131 675 174 99 107 119
131 676 169 119 125 138
131 676 170 109 116 127
131 676 171 105 111 123
131 677 171 99 105 115
131 676 172 102 107 118
131 676 173 96 102 113
131 677 172 97 103 113
131 677 173 93 99 109
130 676 175 96 103 115
131 676 174 93 100 111
131 676 175 93 99 110
131 677 174 90 96 106
131 677 175 89 95 105
131 678 172 94 99 109
131 678 173 91 96 106
131 679 173 89 96 106
131 678 174 89 95 104
131 678 175 87 92 102
131 679 174 88 95 105
131 679 175 86 92 102
132 674 168 128 135 148
132 675 168 129 135 148
132 676 168 119 126 137
132 676 169 112 118 130
132 677 168 112 117 128
132 677 169 105 111 122
132 676 170 103 110 121
132 677 170 100 106 117
132 677 171 98 104 114
132 678 168 108 114 124
132 678 169 103 108 119
132 679 168 106 111 122
132 679 169 101 107 117
132 678 170 98 104 114
132 678 171 96 101 111
132 679 170 97 102 112
132 679 171 94 99 109
132 678 172 94 99 109
132 678 173 92 98 108
132 679 172 94 100 110
132 679 173 92 99 109
135 680 161 96 104 115
135 681 161 94 103 115
134 680 162 104 112 124
134 680 163 110 118 129
134 681 163 109 116 128
135 680 162 99 107 118
135 681 162 99 107 120
135 682 161 95 103 115
135 683 161 95 103 114
134 682 163 111 118 129
134 683 163 111 117 129
135 682 162 102 110 122
135 683 162 105 112 124
133 680 164 115 122 134
133 680 165 113 119 131
133 681 164 112 118 130
133 681 165 111 117 129
132 680 166 111 117 128
132 680 167 107 112 123
133 680 166 111 117 128
133 680 167 104 110 120
133 681 166 110 116 127
133 681 167 104 109 120
133 682 165 113 119 130
133 683 165 113 118 129
133 682 166 109 114 125
133 682 167 104 109 119
133 683 166 109 114 124
133 683 167 102 107 116
134 681 164 111 118 130
134 682 164 114 120 131
134 683 164 115 121 131
134 683 165 114 119 129
135 684 161 95 102 113
135 685 161 99 106 116
134 684 162 107 114 126
134 684 163 108 115 126
134 685 163 110 117 128
135 684 162 101 108 119
135 684 163 105 112 124
135 685 162 104 111 122
135 685 163 108 115 126
135 686 161 105 111 122
134 686 163 117 123 134
134 687 163 124 129 140
135 686 162 114 120 131
135 686 163 117 123 134
135 687 162 114 120 131
135 687 163 123 127 138
133 684 166 104 108 118
133 684 167 99 104 113
133 685 167 94 99 108
133 686 167 92 97 106
133 687 167 91 96 105
134 684 164 111 117 128
134 684 165 110 115 125
134 685 164 111 117 128
134 685 165 108 114 125
134 684 166 105 110 120
134 685 166 100 105 115
134 686 164 113 119 129
134 686 165 108 114 124
134 687 164 116 121 131
134 687 165 107 112 122
134 686 166 99 104 114
134 687 166 98 103 113
131 680 175 88 95 104
131 684 175 78 85 94
131 685 175 81 88 97
131 686 175 83 89 98
131 687 174 84 90 99
131 687 175 84 90 99
132 680 168 104 110 120
132 680 169 99 106 116
132 681 169 96 103 113
133 680 168 103 109 119
133 681 168 100 105 115
133 681 169 96 102 112
132 680 170 98 104 115
132 680 171 99 105 115
132 681 170 96 102 113
132 681 171 102 108 119
133 681 170 92 99 110
133 682 168 99 104 114
133 682 169 94 100 110
133 683 168 97 101 111
133 683 169 94 99 109
133 682 170 95 101 111
133 682 171 99 105 115
133 683 170 97 102 112
133 683 171 100 106 116
132 680 172 99 106 117
132 680 173 99 106 117
132 681 172 105 111 122
132 681 173 104 110 121
132 680 174 92 99 109
132 680 175 90 96 106
132 681 174 95 102 112
132 681 175 88 94 104
132 682 172 102 108 119
132 682 173 103 110 120
132 683 172 96 102 113
132 683 173 95 102 112
133 683 172 99 105 115
132 682 174 99 105 115
132 682 175 89 95 104
132 683 174 89 95 105
132 683 175 83 89 99
133 684 168 92 97 106
133 684 169 88 94 103
133 685 168 88 93 102
133 685 169 85 90 99
133 684 170 88 93 103
133 684 171 88 94 103
133 685 170 82 87 96
133 685 171 81 87 95
133 686 168 86 92 101
133 686 169 85 90 99
133 687 168 90 95 104
133 687 169 91 96 105
132 687 171 83 89 98
133 686 170 81 86 95
133 686 171 80 85 94
133 687 170 88 93 102
133 687 171 83 88 96
132 684 172 83 89 99
132 684 173 81 88 97
132 685 172 81 86 95
132 685 173 80 86 95
133 684 172 87 92 101
132 684 174 79 86 96
132 684 175 77 84 94
132 685 174 80 86 96
132 685 175 81 88 97
132 686 172 81 87 95
132 686 173 82 87 96
132 687 172 81 87 96
132 687 173 82 88 97
132 686 174 83 89 98
132 687 174 84 90 99
136 672 161 79 85 93
136 673 161 78 84 93
137 672 160 79 85 94
137 672 161 80 85 93
137 673 160 78 84 92
137 673 161 78 84 92
136 672 162 79 85 93
136 673 162 78 84 92
136 674 161 77 83 92
136 675 161 78 85 95
137 674 160 76 82 91
137 675 160 78 85 95
136 674 162 78 84 93
136 676 160 85 92 102
136 676 161 85 92 102
136 677 160 91 98 108
136 677 161 94 101 111
137 676 160 86 92 102
137 677 160 90 97 107
136 678 160 92 99 109
136 678 161 96 103 113
136 679 160 94 101 111
136 679 161 98 105 115
137 678 160 90 97 107
136 680 160 91 98 109
136 680 161 95 102 112
136 681 160 90 98 108
136 681 161 93 101 112
136 682 160 87 95 106
136 682 161 91 99 111
136 683 160 85 92 103
136 683 161 89 97 108
136 684 160 86 93 103
136 684 161 90 97 108
136 685 160 90 96 106
136 685 161 96 102 112
136 686 160 93 99 110
136 686 161 99 105 116
136 687 160 92 99 109
136 687 161 99 106 117
137 687 160 91 98 108
129 672 176 104 112 125
129 672 177 101 107 119
129 673 177 101 107 118
129 672 178 99 105 116
129 672 179 98 104 115
129 673 178 99 105 115
129 673 179 96 102 113
129 674 179 92 98 108
130 672 176 104 111 124
130 673 176 105 112 123
130 673 177 99 106 117
130 673 178 96 102 113
130 674 176 106 113 125
130 674 177 96 103 114
130 675 176 99 106 117
130 675 177 92 98 108
130 674 178 93 99 109
130 674 179 91 97 107
130 675 178 89 95 105
130 675 179 88 94 104
129 672 180 96 102 112
129 673 180 93 99 108
129 674 180 87 94 103
129 674 181 84 90 99
129 675 180 85 91 100
129 675 181 84 89 99
129 675 182 81 87 96
130 675 180 87 93 102
130 676 176 93 99 109
130 676 177 87 93 103
130 677 177 84 90 100
131 676 176 89 95 106
131 677 176 88 93 102
131 677 177 85 91 100
130 676 178 85 91 101
130 676 179 87 94 103
130 677 178 84 90 100
130 677 179 86 93 104
131 678 176 85 91 100
131 678 177 85 91 100
131 679 176 85 91 101
131 679 177 85 91 100
130 678 178 84 91 101
130 678 179 87 94 104
130 679 179 89 96 107
131 678 178 84 91 101
131 679 178 86 93 102
131 679 179 88 95 105
129 676 181 90 96 105
129 676 182 89 95 105
129 677 183 88 96 107
129 678 183 93 101 112
129 679 183 93 101 112
130 676 180 93 99 109
130 676 181 94 101 110
130 677 180 92 99 109
130 677 181 94 101 111
130 677 182 93 100 110
130 677 183 92 99 111
130 678 180 92 99 108
130 678 181 94 101 111
130 679 180 91 98 108
130 679 181 92 100 110
130 678 182 96 103 114
130 678 183 95 103 114
130 679 182 93 101 113
130 679 183 95 103 114
129 678 184 96 102 113
129 679 184 95 102 113
131 680 176 87 93 102
131 680 177 86 92 101
131 681 176 86 92 101
131 681 177 86 91 100
130 680 179 91 98 108
130 681 179 90 96 105
131 680 178 88 94 103
131 680 179 92 97 107
131 681 178 87 92 101
131 681 179 90 95 104
131 682 176 84 90 99
131 682 177 83 89 97
131 683 176 80 86 96
131 683 177 80 86 94
130 682 179 83 89 98
130 683 179 81 87 95
131 682 178 83 88 97
131 682 179 82 88 97
131 683 178 81 86 94
129 680 183 89 96 107
129 681 182 82 88 98
129 681 183 90 96 105
129 683 181 82 87 95
129 682 182 81 87 96
129 682 183 89 94 103
129 683 182 82 88 96
129 683 183 85 91 100
130 680 180 90 97 107
130 680 181 86 93 104
130 681 180 87 93 102
130 681 181 82 89 98
130 680 182 86 94 106
130 681 182 82 89 99
130 682 180 83 89 97
130 682 181 82 88 97
130 683 180 81 87 95
130 683 181 81 87 95
130 682 182 81 87 96
129 687 179 89 95 105
130 685 177 88 94 103
131 684 176 78 85 94
131 684 177 81 87 96
131 685 176 82 89 99
131 685 177 84 91 100
130 684 178 83 89 97
130 684 179 83 88 97
130 685 178 87 93 102
130 685 179 88 93 102
131 684 178 82 88 96
130 686 177 92 98 108
130 687 176 93 100 110
130 687 177 95 102 112
131 686 176 83 90 100
131 686 177 87 94 104
131 687 176 86 93 102
131 687 177 90 97 107
130 686 178 91 97 106
130 686 179 90 96 105
130 687 178 96 102 112
130 687 179 90 96 106
129 684 181 84 89 97
129 685 181 87 92 100
129 684 182 84 90 99
129 684 183 84 91 100
129 685 182 88 93 102
129 685 183 92 98 108
129 686 180 90 94 103
129 686 181 89 94 103
129 687 180 90 95 104
129 687 181 90 95 103
129 686 182 89 95 104
129 686 183 95 101 110
129 687 182 88 93 102
129 687 183 88 94 103
130 684 180 84 89 98
130 684 181 83 88 96
130 685 180 86 92 100
130 686 180 89 94 103
128 681 185 88 93 102
129 680 184 92 99 109
129 680 185 88 95 105
129 681 184 93 99 108
129 681 185 88 94 103
128 682 185 87 92 100
128 683 185 85 90 99
129 682 184 92 97 105
129 682 185 87 92 101
129 683 184 88 93 101
128 682 186 86 91 99
128 683 186 84 89 98
128 684 185 86 91 101
128 685 184 97 103 113
128 685 185 93 99 109
129 684 184 86 92 102
129 685 184 98 104 114
128 684 186 85 91 100
128 684 187 85 91 100
128 685 186 90 97 106
128 685 187 90 96 105
128 686 185 101 106 116
128 687 185 94 100 110
129 686 184 105 111 121
129 687 184 95 101 111
128 686 186 93 99 109
128 686 187 88 94 104
128 687 186 86 92 102
128 687 187 83 89 98
128 685 188 90 95 105
128 686 188 88 93 103
128 687 188 83 89 98
128 687 189 87 93 102
129 687 189 87 93 102
135 688 162 111 117 128
135 688 163 114 119 130
135 689 162 109 115 126
135 689 163 110 115 125
135 690 163 108 113 123
135 691 163 103 108 118
133 688 166 94 99 108
133 688 167 90 95 104
133 689 166 91 96 105
133 689 167 87 93 102
133 690 166 90 95 104
133 690 167 87 93 101
133 691 166 86 92 101
133 691 167 85 92 101
134 688 164 111 116 125
134 688 165 106 110 120
134 689 164 105 109 119
134 689 165 99 103 113
135 689 164 108 112 122
134 688 166 98 103 112
134 689 166 93 99 108
134 690 164 101 106 115
134 690 165 95 100 109
134 691 164 98 103 112
134 691 165 91 97 106
135 690 164 105 110 119
135 691 164 101 106 115
134 690 166 90 95 104
134 691 166 87 92 101
135 692 163 101 107 116
135 693 163 101 107 117
135 694 163 101 108 119
135 695 163 105 112 124
133 692 166 87 93 103
133 692 167 87 94 104
133 693 166 90 96 106
133 693 167 93 100 110
133 694 166 91 98 108
133 694 167 93 100 110
133 695 166 92 98 108
133 695 167 91 97 107
134 692 165 90 96 105
134 693 165 93 99 109
135 692 164 98 104 113
135 693 164 100 105 115
134 694 165 96 102 112
134 695 165 100 106 117
135 694 164 101 107 118
135 695 164 104 111 122
134 695 166 95 102 112
131 688 173 82 88 97
131 689 173 84 90 99
131 688 174 83 89 98
131 688 175 85 91 100
131 689 174 85 91 100
131 689 175 87 92 102
131 690 172 83 89 99
131 690 173 85 90 100
131 691 172 85 91 100
131 691 173 86 92 101
130 690 175 90 97 107
130 691 175 97 103 114
131 690 174 87 93 102
131 690 175 89 95 104
131 691 174 89 95 104
131 691 175 94 100 110
131 692 172 89 95 105
131 692 173 89 95 105
131 693 172 92 98 108
131 693 173 90 96 106
130 692 175 99 105 115
130 693 175 95 102 112
131 692 174 90 97 106
131 693 174 90 97 107
131 694 172 91 97 107
131 694 173 90 97 107
131 695 172 92 98 107
131 695 173 92 98 107
130 694 175 90 97 107
130 695 175 88 95 106
131 694 174 88 95 105
131 694 175 89 96 107
131 695 174 90 97 106
131 695 175 88 95 106
133 688 168 90 95 104
133 688 169 92 97 106
133 689 168 84 90 99
133 689 169 84 90 99
132 688 171 83 89 98
132 689 170 84 90 99
132 689 171 82 88 98
133 688 170 88 94 102
133 689 170 84 90 99
132 690 169 82 89 98
132 691 169 84 91 100
133 690 168 83 89 99
133 690 169 82 88 97
133 691 168 83 90 100
133 691 169 82 90 100
132 690 170 82 89 98
132 690 171 82 88 98
132 691 170 84 91 101
132 691 171 84 90 99
132 688 172 81 87 96
132 688 173 81 87 96
132 689 172 82 88 97
132 689 173 84 90 99
132 690 172 83 89 98
132 690 173 83 89 99
132 691 172 84 90 99
132 692 169 92 99 110
132 693 169 99 107 117
133 692 168 87 95 105
133 692 169 87 95 105
133 693 168 94 102 112
132 692 170 96 102 112
132 692 171 92 99 108
132 693 170 105 111 121
132 693 171 105 111 121
132 694 168 95 103 113
132 694 169 97 104 115
132 695 168 95 101 112
132 695 169 93 100 110
133 694 168 96 103 114
133 695 168 94 101 111
132 694 170 101 107 117
132 694 171 100 106 116
132 695 170 90 97 107
132 695 171 91 98 107
132 692 172 88 94 104
132 693 172 97 103 113
132 694 172 95 101 112
132 695 172 91 97 106
133 696 166 96 102 113
133 696 167 94 100 110
133 697 166 98 105 116
133 697 167 98 105 116
133 698 167 100 107 118
133 699 167 102 109 120
134 696 165 103 110 121
134 697 165 105 112 124
135 696 164 108 115 127
135 696 165 106 113 124
135 697 164 110 117 129
135 697 165 108 115 126
134 696 166 99 106 116
134 697 166 101 108 119
134 698 165 107 115 127
134 699 165 101 109 122
135 698 164 107 115 127
135 698 165 109 116 129
135 699 164 104 111 123
135 699 165 103 111 123
134 698 166 103 111 122
134 699 166 100 108 120
134 699 167 101 108 120
133 700 167 105 112 122
133 701 167 105 111 122
135 700 165 101 109 121
135 701 165 102 109 121
134 700 166 101 108 120
134 700 167 103 110 121
134 701 166 104 110 122
134 701 167 105 111 122
135 702 165 105 112 124
135 703 165 110 117 129
134 702 166 107 114 125
134 702 167 109 114 124
134 703 166 112 119 130
134 703 167 110 116 126
135 703 166 114 121 132
131 696 172 92 98 107
131 696 173 92 98 107
131 697 172 94 100 110
131 697 173 96 102 112
130 696 175 88 95 105
131 696 174 91 97 107
131 696 175 89 96 106
131 697 174 94 100 110
131 697 175 92 99 110
131 698 172 100 106 116
131 698 173 103 109 119
131 699 173 109 116 127
131 698 174 101 108 119
131 698 175 98 105 116
131 699 174 106 114 125
131 699 175 103 109 121
131 700 173 110 117 129
131 700 174 107 115 127
131 700 175 108 115 126
131 701 174 106 114 126
131 701 175 105 112 124
131 702 174 98 106 117
131 702 175 96 104 115
131 703 174 88 95 106
131 703 175 88 95 106
132 696 169 93 99 109
132 697 169 95 101 111
133 696 168 94 100 110
133 697 168 97 103 113
132 696 170 90 96 105
132 696 171 91 97 106
132 697 170 92 98 108
132 697 171 94 100 110
132 698 169 98 104 114
132 699 169 104 110 120
133 698 168 100 106 116
133 698 169 100 106 117
133 699 168 104 110 120
133 699 169 104 110 120
132 698 170 96 102 113
132 698 171 99 105 115
132 699 170 102 107 117
132 699 171 99 105 115
132 696 172 91 97 106
132 697 172 96 102 112
132 698 172 102 108 119
132 699 172 105 112 123
132 699 173 111 118 129
132 700 169 106 111 122
132 701 169 103 108 118
