ply
format ascii 1.0
comment PCL generated
element vertex 2250
property float x
property float y
property float z
property uchar red
property uchar green
property uchar blue
element camera 0
property float view_px
property float view_py
property float view_pz
property float x_axisx
property float x_axisy
property float x_axisz
property float y_axisx
property float y_axisy
property float y_axisz
property float z_axisx
property float z_axisy
property float z_axisz
property float focal
property float scalex
property float scaley
property float centerx
property float centery
property int viewportx
property int viewporty
property float k1
property float k2
end_header
291 923 228 46 49 54
291 923 229 46 49 54
288 924 226 43 47 53
288 924 227 44 48 53
288 925 226 43 47 53
288 925 227 43 47 53
289 924 227 44 47 53
289 925 227 43 47 53
288 926 226 43 47 53
288 926 227 43 47 53
288 927 227 44 48 54
289 926 227 42 46 52
289 927 227 42 46 52
290 924 227 44 47 53
290 925 227 43 46 52
290 926 227 41 45 51
290 924 228 44 47 53
290 925 228 42 45 51
291 924 228 44 47 53
291 924 229 44 47 53
291 925 228 41 45 50
291 925 229 41 45 50
290 926 228 41 45 51
290 927 228 41 46 51
291 926 228 40 44 49
291 926 229 39 43 48
291 927 228 40 44 49
291 927 229 39 43 49
292 921 229 47 50 56
292 920 230 43 47 52
292 921 230 46 49 55
293 920 230 42 46 52
293 920 231 42 45 51
293 921 230 44 47 53
292 922 229 47 50 56
292 923 229 47 50 55
293 923 229 47 50 55
292 922 230 47 50 56
293 922 230 46 50 55
293 923 230 47 50 55
294 920 231 41 44 50
294 921 230 43 46 52
294 921 231 41 45 50
295 920 231 40 44 49
295 921 231 40 44 50
294 922 230 45 48 53
294 922 231 43 47 53
294 923 230 47 50 55
295 922 231 42 46 52
295 923 230 47 50 55
295 923 231 44 48 54
292 924 229 44 47 52
292 925 229 41 45 50
293 924 229 44 47 52
293 925 229 42 45 50
293 924 230 46 49 54
293 925 230 42 46 51
292 926 229 40 43 49
292 927 229 39 42 48
293 926 229 40 43 48
293 927 229 38 42 48
293 926 230 40 44 49
293 927 230 39 42 48
294 924 230 47 50 56
294 925 230 44 48 53
295 924 230 48 51 56
295 925 230 48 51 56
294 926 230 41 44 50
294 927 230 39 43 48
295 926 230 44 47 53
295 927 230 41 44 50
295 920 232 40 44 50
296 913 235 43 46 51
297 913 235 41 45 50
296 914 234 44 48 53
296 914 235 43 47 53
296 915 234 45 48 54
297 914 235 42 46 52
297 915 234 44 48 54
297 915 235 43 47 53
298 915 235 42 46 52
296 912 236 42 46 51
297 912 236 41 45 51
297 912 237 42 46 51
297 913 236 41 45 50
297 914 236 41 45 51
298 912 237 43 47 52
298 913 236 41 45 51
298 913 237 42 45 51
299 912 237 44 47 53
299 913 237 43 46 52
299 912 238 45 48 54
298 914 236 41 45 51
298 915 236 41 45 51
299 914 236 41 44 50
299 914 237 42 45 51
299 915 236 41 45 51
299 915 237 41 45 50
296 916 233 44 47 53
296 917 233 43 47 53
296 916 234 44 48 54
296 917 234 44 48 54
297 916 234 44 48 54
297 916 235 44 47 54
297 917 234 44 48 54
296 918 233 43 46 52
296 919 232 41 45 51
296 919 233 41 45 51
297 918 233 43 47 53
297 919 233 42 46 52
297 918 234 44 48 54
297 919 234 44 48 54
298 916 235 43 47 53
298 917 235 44 48 54
299 917 235 43 47 53
298 918 234 44 48 54
298 918 235 44 48 54
298 919 234 44 48 54
299 918 235 44 48 54
299 919 234 45 48 54
299 919 235 45 49 55
299 916 236 43 47 53
299 917 236 43 47 53
300 912 238 47 51 56
300 912 239 50 53 59
300 913 238 45 48 54
301 912 239 51 53 59
301 913 239 50 53 59
300 914 237 42 46 51
300 915 237 42 45 51
300 914 238 44 47 52
300 915 238 42 46 51
301 914 238 46 49 54
301 914 239 48 51 56
301 915 238 44 47 53
302 913 239 51 54 60
302 914 239 51 54 59
302 915 238 48 51 57
302 915 239 51 54 60
303 915 239 53 56 62
300 918 235 45 49 55
300 919 235 45 49 55
300 916 236 43 47 53
300 916 237 44 47 53
300 917 236 45 49 55
300 917 237 47 50 56
301 916 237 44 47 53
301 917 237 45 49 55
301 916 238 43 47 53
300 918 236 47 50 56
300 919 236 47 51 57
301 918 236 49 52 58
301 918 237 48 51 57
301 919 236 48 52 57
301 919 237 48 52 57
302 916 238 47 50 56
302 917 238 46 49 54
303 916 239 53 56 61
303 917 238 50 53 58
303 917 239 53 56 61
302 918 237 47 49 55
302 919 237 50 53 58
303 919 237 50 52 57
302 918 238 47 49 54
303 918 238 50 52 57
303 918 239 55 57 62
303 919 238 51 53 58
296 922 231 41 46 51
296 923 231 44 48 53
297 923 231 45 48 54
296 924 231 47 51 56
296 925 230 49 52 57
296 925 231 49 52 58
297 924 231 46 50 55
297 925 231 49 52 57
296 926 230 45 49 54
296 926 231 47 50 55
296 927 230 42 46 51
296 927 231 44 47 52
297 926 231 48 51 56
297 927 231 46 49 54
298 926 231 47 50 55
298 927 231 46 49 54
296 920 232 40 44 50
296 921 232 40 44 50
297 920 232 40 44 50
297 920 233 41 45 50
297 921 232 40 44 50
297 921 233 41 45 51
296 922 232 41 45 51
297 922 232 42 46 51
297 923 232 45 48 54
298 920 233 43 46 52
298 921 233 42 46 51
298 920 234 43 46 52
299 920 234 45 49 55
299 921 234 43 47 53
298 922 232 45 48 53
298 922 233 44 47 53
298 923 232 45 49 54
298 923 233 46 49 55
299 922 233 45 48 54
299 923 233 47 51 57
299 922 234 43 46 53
297 924 232 47 50 55
298 924 232 47 51 56
298 925 232 48 51 57
299 924 232 48 51 57
299 924 233 48 52 57
299 925 232 49 52 57
299 925 233 49 52 58
298 926 232 47 51 56
299 926 232 49 52 57
299 926 233 50 53 59
299 927 232 46 49 54
300 920 235 47 51 57
300 921 234 45 49 55
300 921 235 48 51 56
301 920 235 47 50 55
301 921 235 47 50 56
300 923 233 48 52 58
300 922 234 45 48 55
300 922 235 47 50 56
300 923 234 48 51 57
301 922 235 48 51 56
301 923 234 48 51 57
301 923 235 48 51 56
302 922 235 47 50 56
302 923 235 47 50 56
301 920 236 47 50 56
301 921 236 47 50 55
302 920 236 51 53 59
302 920 237 51 54 59
302 921 236 49 52 57
303 920 237 51 54 59
303 921 236 51 54 59
303 921 237 52 54 59
303 920 238 51 54 58
302 922 236 48 51 57
303 922 236 52 55 60
303 922 237 53 56 61
303 923 236 50 53 58
303 923 237 52 55 60
300 924 233 50 53 59
300 925 233 51 54 59
300 924 234 51 54 60
301 924 234 51 54 60
301 925 234 52 55 61
300 926 233 51 54 59
300 927 233 48 51 55
301 926 233 52 55 60
301 927 233 51 53 57
301 926 234 53 55 60
301 927 234 52 54 59
302 924 234 51 54 60
302 924 235 49 52 58
302 925 234 53 56 61
302 925 235 53 56 62
303 924 235 48 51 57
303 925 235 51 54 60
302 926 234 54 56 62
302 926 235 54 57 62
302 927 234 54 56 61
303 926 235 53 56 62
303 927 235 55 58 63
303 924 236 50 53 59
303 925 236 49 53 59
303 926 236 52 55 61
303 927 236 55 58 63
301 912 240 49 53 59
302 912 240 49 53 59
302 912 241 48 52 58
302 913 240 50 54 59
303 912 240 48 52 58
303 912 241 48 52 58
303 913 240 49 53 59
303 913 241 49 53 59
303 912 242 48 52 57
303 914 240 51 55 60
303 914 241 50 53 59
303 915 240 53 56 61
303 916 240 54 57 62
304 899 252 46 51 57
304 899 253 47 51 58
304 898 254 45 49 55
304 898 255 46 50 57
304 899 254 45 50 56
304 899 255 48 52 58
304 901 249 50 53 59
304 900 251 49 52 58
304 901 250 50 53 59
304 901 251 49 52 58
304 902 248 51 54 60
304 902 249 51 54 59
304 903 248 51 54 60
304 903 249 50 54 60
304 902 250 50 54 59
304 902 251 49 53 59
304 903 250 50 53 59
305 902 251 49 52 58
305 903 250 50 53 59
305 903 251 49 53 59
304 900 252 46 50 56
304 900 253 45 49 56
304 901 252 45 49 55
304 901 253 46 50 56
305 901 252 46 50 56
305 901 253 49 52 58
304 900 254 47 51 57
304 900 255 50 53 59
305 900 254 50 53 59
305 900 255 51 54 59
305 901 254 49 53 58
305 901 255 50 53 59
305 902 252 47 50 56
305 902 253 50 54 59
305 903 252 48 52 58
305 903 253 51 54 60
305 902 254 50 53 59
306 901 255 49 52 57
306 903 252 50 53 59
306 903 253 50 53 59
306 902 254 49 53 58
306 902 255 48 51 57
306 903 254 49 52 58
306 903 255 46 49 55
304 904 247 51 55 61
304 905 246 50 53 59
304 905 247 51 55 61
304 907 245 50 53 59
304 906 246 49 53 59
304 906 247 50 54 59
304 907 246 49 53 59
305 906 247 51 54 60
305 907 247 49 53 59
304 910 243 50 54 59
304 911 242 49 53 59
304 911 243 50 54 59
304 908 244 50 53 59
304 908 245 50 54 59
304 909 244 50 54 59
304 909 245 49 52 58
305 909 245 50 53 59
304 908 246 50 53 59
305 908 246 50 54 60
305 908 247 49 53 59
305 909 246 51 55 61
304 910 244 50 53 59
305 910 244 51 54 60
305 910 245 52 55 61
305 911 244 51 54 60
305 911 245 52 56 62
306 908 247 48 52 59
306 909 246 52 56 62
306 909 247 51 55 61
306 910 245 53 57 63
306 911 245 53 57 63
306 910 246 53 57 63
306 910 247 53 56 62
306 911 246 54 58 64
307 910 247 52 56 62
307 911 246 54 58 64
307 911 247 52 56 62
304 904 248 51 54 60
304 904 249 50 54 60
304 905 248 51 55 61
305 904 249 50 54 59
305 905 248 51 55 61
305 905 249 51 55 61
305 904 250 50 54 59
305 904 251 49 53 59
305 905 250 50 53 59
305 906 248 51 55 61
305 906 249 51 54 60
305 907 248 49 53 59
306 905 250 50 53 59
306 905 251 48 52 59
306 906 249 51 54 60
306 907 248 50 53 59
306 907 249 51 54 60
306 906 250 50 54 60
306 906 251 50 53 59
306 907 250 50 54 60
307 906 251 50 53 59
307 907 250 50 54 59
307 907 251 51 54 60
305 904 252 48 52 58
306 904 252 49 53 59
306 904 253 50 53 59
306 905 252 51 54 60
306 905 253 50 53 59
307 905 252 50 54 60
307 905 253 48 52 58
306 904 254 49 52 58
306 904 255 47 50 56
307 904 255 44 48 53
307 905 254 48 51 57
307 905 255 42 47 52
307 906 252 50 54 59
307 906 253 46 49 55
307 907 252 50 53 59
307 907 253 45 49 55
307 906 254 46 50 55
307 906 255 43 47 53
306 908 248 48 52 58
306 908 249 51 54 60
306 909 248 50 53 59
307 908 248 47 51 57
307 908 249 49 53 58
307 909 248 48 51 57
307 909 249 46 50 55
307 908 250 51 54 60
307 908 251 52 55 61
307 909 250 48 51 56
307 910 248 49 53 58
307 910 249 46 49 55
307 911 248 50 54 59
307 908 252 51 54 60
308 905 255 43 47 53
308 907 252 48 51 57
308 907 253 45 48 54
308 906 254 45 49 54
308 906 255 43 47 52
308 907 254 45 49 54
308 907 255 43 47 53
308 908 251 51 54 60
308 909 250 49 52 57
308 909 251 51 54 60
308 910 249 45 48 53
308 911 248 49 53 58
308 911 249 45 49 54
308 910 250 47 50 55
308 910 251 50 54 59
308 911 250 45 49 54
309 910 251 51 54 60
309 911 250 46 50 56
309 911 251 50 54 60
308 908 252 48 52 57
308 908 253 43 47 53
308 909 252 49 52 58
309 908 253 43 46 52
309 909 252 48 51 57
309 909 253 44 47 53
308 908 254 43 47 52
308 908 255 42 46 52
309 908 254 43 46 52
309 908 255 43 47 52
309 909 254 42 46 52
309 909 255 44 47 53
309 910 252 47 51 57
309 910 253 44 47 52
309 911 252 46 50 55
309 911 253 43 46 51
309 910 254 42 46 51
310 909 255 46 49 54
310 911 253 43 46 51
310 910 254 42 46 51
310 910 255 46 49 54
310 911 254 43 47 52
310 911 255 47 50 55
304 917 239 56 58 63
304 918 239 56 57 62
304 919 238 54 56 60
304 919 239 53 55 60
305 919 239 51 53 58
304 921 237 51 53 58
304 920 238 52 54 59
304 921 238 51 53 58
305 920 239 50 51 56
305 921 238 49 51 55
305 921 239 49 51 56
304 922 237 52 54 60
304 923 237 52 55 60
304 922 238 51 53 58
305 922 238 49 52 56
305 922 239 48 50 54
305 923 238 50 52 58
306 921 239 45 48 53
306 922 239 46 49 54
306 923 239 47 49 55
304 924 237 52 56 62
304 925 236 50 54 60
304 925 237 52 55 62
305 924 237 52 55 61
305 925 237 52 56 62
305 924 238 50 53 58
305 925 238 51 55 60
304 926 236 51 55 61
304 926 237 52 55 62
304 927 236 53 56 62
304 927 237 53 56 62
305 926 237 54 57 63
305 927 237 54 57 63
305 926 238 54 57 62
305 927 238 56 59 64
306 924 238 49 52 58
306 924 239 47 50 55
306 925 238 50 54 59
306 925 239 48 52 57
306 926 238 53 56 61
306 926 239 51 54 60
306 927 238 57 59 65
306 927 239 55 57 62
307 927 239 55 58 63
304 913 241 51 54 60
304 912 242 49 53 59
304 912 243 49 53 59
304 913 242 51 55 60
305 912 242 50 54 60
305 912 243 50 54 60
305 913 242 51 55 61
305 913 243 52 56 62
304 914 241 51 54 60
304 915 240 51 54 60
304 915 241 51 54 60
305 914 241 50 54 60
305 915 241 51 54 60
305 914 242 51 55 62
305 915 242 50 54 60
306 913 243 53 57 63
306 914 243 53 57 64
306 915 242 51 55 61
306 915 243 52 56 63
307 915 243 54 58 64
305 912 244 51 55 61
306 912 244 52 56 62
306 912 245 53 57 63
306 913 244 54 58 64
307 912 245 52 56 62
307 913 244 54 58 64
307 913 245 54 57 63
307 912 246 52 56 62
307 912 247 53 56 62
307 913 246 51 55 61
306 914 244 55 58 65
307 914 244 55 58 65
307 914 245 54 58 64
307 915 244 56 59 65
304 916 240 52 55 60
304 916 241 50 53 59
304 917 240 53 56 61
305 916 241 49 53 58
305 917 240 52 54 59
305 917 241 50 53 59
304 918 240 54 56 61
305 918 240 51 53 59
305 918 241 51 54 60
305 919 240 50 52 57
306 916 241 48 51 58
306 917 241 49 53 59
306 916 242 49 53 60
306 916 243 51 55 62
306 917 242 48 52 58
307 916 243 53 57 64
307 917 242 48 53 59
307 917 243 51 55 61
306 918 241 52 55 60
306 919 240 49 52 57
306 919 241 51 54 60
307 919 241 52 55 61
307 918 242 49 53 59
307 918 243 49 53 59
307 919 242 51 54 60
307 916 244 56 59 65
308 912 247 51 55 61
308 913 246 51 55 61
308 913 247 50 54 60
308 914 245 54 57 63
308 915 244 56 60 65
308 915 245 55 58 64
308 914 246 53 56 62
308 914 247 52 54 60
308 915 246 54 57 63
309 914 247 50 53 59
309 915 246 54 57 62
309 915 247 52 55 60
308 918 243 50 53 60
308 919 242 51 54 60
308 919 243 49 52 59
308 916 244 56 59 65
308 916 245 55 58 64
308 917 244 55 58 64
308 917 245 54 57 63
309 917 245 53 57 63
308 916 246 55 58 64
309 916 246 54 57 63
309 916 247 53 56 61
309 917 246 53 56 62
309 917 247 51 54 60
308 918 244 51 54 61
308 919 244 49 52 58
309 918 245 52 55 61
309 919 244 48 52 58
309 919 245 49 52 58
309 918 246 51 55 61
309 918 247 51 55 60
309 919 246 50 53 59
310 916 247 52 55 60
310 917 247 50 53 59
310 918 247 50 53 58
310 919 247 50 54 59
308 912 248 49 52 58
308 912 249 46 50 55
308 913 248 50 53 59
309 912 248 49 52 57
309 912 249 46 49 54
309 913 248 48 52 57
309 913 249 45 48 54
309 912 250 45 48 54
309 912 251 49 52 58
309 913 250 45 49 55
309 914 248 49 51 57
309 914 249 46 50 55
309 915 248 50 53 58
310 912 251 49 53 59
310 913 250 46 49 55
310 913 251 48 52 58
310 914 249 45 49 54
310 915 248 49 52 58
310 915 249 45 49 54
310 914 250 47 50 56
310 914 251 49 52 57
310 915 250 47 50 56
311 914 251 47 50 55
311 915 250 47 50 56
311 915 251 48 51 57
309 912 252 48 51 57
310 912 252 45 49 54
310 912 253 41 45 50
310 913 252 46 49 55
310 913 253 42 45 51
311 913 252 44 47 52
311 913 253 42 45 51
310 912 254 44 47 52
310 912 255 46 49 54
311 912 254 44 47 52
311 912 255 47 50 55
311 913 254 44 47 52
311 913 255 44 47 52
310 914 252 47 50 55
311 914 252 44 47 52
311 914 253 43 46 51
311 915 252 46 49 54
311 915 253 43 46 51
311 914 254 42 46 51
311 914 255 43 46 51
310 916 248 51 54 59
310 916 249 49 52 57
310 917 248 51 54 59
311 916 249 48 51 57
311 917 249 49 52 57
311 916 250 48 51 56
311 916 251 49 53 58
311 917 250 48 51 56
311 917 251 50 53 58
310 918 248 50 53 58
310 919 248 50 53 58
311 918 248 51 54 59
311 918 249 50 53 59
311 919 248 50 53 59
311 919 249 49 53 59
311 918 250 49 52 58
311 919 250 48 52 57
306 920 240 46 49 55
306 920 241 49 52 57
306 921 240 46 50 55
307 920 241 51 54 59
307 921 240 47 51 56
307 921 241 50 53 59
307 920 242 52 54 60
306 922 240 46 49 54
306 923 240 47 50 55
307 922 240 48 51 56
307 922 241 50 53 58
307 923 240 49 52 57
307 923 241 51 54 59
307 924 240 48 51 57
307 925 240 48 51 57
307 926 240 50 53 58
307 927 240 54 56 61
308 921 241 51 54 59
308 920 242 51 54 60
308 920 243 51 54 59
308 921 242 53 55 61
308 921 243 54 56 62
308 922 241 52 54 60
308 923 241 53 55 60
308 922 242 54 56 61
308 922 243 57 60 66
308 923 242 53 56 61
308 923 243 56 59 64
309 922 243 56 59 65
309 923 243 54 57 62
308 920 244 49 52 58
308 921 244 52 54 60
309 920 244 47 50 56
309 920 245 47 50 56
309 921 244 50 53 59
309 921 245 49 52 58
309 920 246 48 51 57
309 921 246 48 51 57
309 922 244 53 56 62
309 922 245 50 53 59
309 923 244 51 55 60
309 923 245 47 50 56
310 920 246 48 51 57
310 920 247 49 53 58
310 921 246 48 51 57
310 921 247 48 51 57
311 921 247 46 50 55
310 922 245 49 52 58
310 923 245 48 51 57
310 922 246 48 52 58
310 922 247 49 52 58
310 923 246 48 51 57
310 923 247 49 52 58
311 922 247 47 50 56
311 923 247 48 51 57
308 924 241 53 55 60
308 925 241 53 56 61
308 924 242 53 55 60
308 925 242 55 58 62
309 924 243 52 55 60
309 925 242 56 58 63
309 925 243 54 57 62
308 926 240 51 53 59
308 926 241 54 56 61
308 927 240 54 56 62
308 927 241 55 57 62
308 926 242 56 58 63
309 926 242 57 59 64
309 926 243 57 59 64
309 927 242 56 59 64
309 927 243 56 58 64
310 927 243 55 57 63
309 924 244 50 53 58
309 925 244 51 54 59
309 926 244 54 57 62
310 924 245 46 49 55
310 925 244 51 53 59
310 925 245 49 52 57
310 924 246 46 50 55
310 924 247 45 48 54
310 925 246 48 51 57
310 925 247 46 49 55
311 924 247 45 48 54
311 925 247 46 50 55
310 926 244 53 56 61
310 926 245 49 52 58
310 927 244 52 55 60
311 926 245 46 50 55
311 927 245 48 51 56
310 926 246 49 52 58
311 926 246 48 51 56
311 926 247 48 50 56
311 927 246 47 50 55
311 927 247 47 49 54
310 920 248 48 51 57
311 920 248 49 53 59
311 920 249 49 53 58
311 921 248 48 52 57
311 921 249 49 53 59
311 920 250 47 51 56
311 922 248 47 50 55
311 922 249 48 51 56
311 923 248 46 49 55
311 923 249 46 49 54
311 924 248 47 50 55
311 925 248 45 48 53
311 926 248 47 50 55
312 915 253 43 46 51
312 914 255 42 46 51
312 915 254 42 46 51
312 915 255 45 48 53
312 916 251 50 53 58
312 917 251 50 53 59
312 918 251 50 53 58
312 919 250 48 51 57
312 919 251 49 52 58
312 916 252 48 51 56
312 916 253 43 46 52
312 917 252 49 52 57
312 917 253 46 49 55
312 916 254 45 48 53
312 916 255 46 49 54
312 917 254 47 50 55
313 916 255 46 49 54
313 917 254 47 50 55
313 917 255 46 49 54
312 918 252 50 53 59
312 918 253 49 52 58
312 919 252 51 54 59
313 918 253 51 54 59
313 919 252 51 54 60
313 919 253 51 54 59
313 918 254 49 52 57
313 918 255 48 51 56
313 919 254 49 52 58
313 919 255 49 52 57
314 919 255 47 51 56
312 927 247 46 48 54
312 920 250 48 52 58
312 920 251 49 52 58
312 921 250 49 53 58
312 921 251 49 52 58
313 921 251 50 53 58
312 922 249 49 52 57
312 923 249 47 49 55
312 922 250 48 51 57
312 922 251 49 52 58
312 923 250 48 51 56
313 922 251 50 53 58
313 923 251 51 54 59
313 920 252 51 54 60
313 920 253 51 54 60
313 921 252 51 54 60
313 921 253 51 54 60
313 920 254 50 53 58
313 922 252 51 54 60
313 922 253 51 54 59
313 923 252 52 54 60
314 921 253 52 54 60
314 920 254 49 52 58
314 920 255 47 50 56
314 921 254 50 53 58
314 921 255 46 49 55
314 922 253 51 54 59
314 923 252 51 54 60
314 923 253 50 53 58
314 922 254 50 53 59
314 922 255 46 50 55
314 923 254 50 53 58
315 922 255 45 49 55
315 923 254 50 53 58
315 923 255 46 50 55
312 924 249 45 48 53
312 925 248 45 48 54
312 925 249 46 49 54
312 924 250 46 49 54
312 925 250 44 47 52
313 924 250 48 51 56
313 924 251 51 53 58
313 925 250 47 50 55
313 925 251 51 54 59
312 926 248 47 50 55
312 926 249 47 49 54
312 927 248 46 49 55
313 926 249 47 50 55
313 927 248 46 49 54
313 927 249 45 48 54
313 926 250 48 51 56
313 926 251 50 53 58
313 927 250 48 51 56
314 925 251 50 53 58
314 926 251 50 53 59
314 927 250 49 52 58
314 927 251 48 52 58
314 924 252 50 53 59
314 924 253 48 51 57
314 925 252 49 52 58
314 925 253 47 50 55
315 924 253 46 49 55
315 925 253 45 49 54
315 924 254 49 52 57
315 924 255 47 50 56
315 925 254 46 50 55
315 925 255 47 50 55
314 926 252 48 52 58
314 927 252 47 51 57
315 926 252 48 51 57
315 926 253 45 49 55
315 927 252 46 50 56
315 927 253 44 48 54
315 926 254 45 49 54
316 924 255 46 49 55
316 925 255 45 49 54
316 926 254 46 50 56
316 926 255 46 49 55
316 927 254 44 47 53
316 927 255 48 52 57
288 928 227 47 51 56
288 929 227 49 53 59
289 928 227 44 48 54
289 929 227 47 51 56
288 930 227 48 52 57
288 931 226 45 49 54
288 931 227 47 50 56
289 930 227 49 52 58
289 931 227 48 51 57
290 931 227 50 53 58
289 928 228 44 48 53
290 928 228 43 47 52
290 929 228 45 48 54
291 928 228 41 45 50
291 928 229 39 43 48
291 929 228 42 46 51
291 929 229 41 45 50
290 930 228 49 51 57
290 931 228 51 54 59
291 930 228 45 48 53
291 931 228 49 52 57
288 932 226 43 47 53
288 932 227 44 48 53
288 933 226 43 47 53
289 932 227 45 49 54
289 933 226 43 47 53
289 933 227 43 47 52
288 934 225 44 49 55
288 935 225 45 49 55
288 934 226 44 48 54
288 935 226 44 48 54
289 934 226 43 47 53
289 935 226 45 48 54
290 932 227 48 51 57
290 933 227 45 48 54
291 933 227 49 52 58
290 934 226 43 47 53
290 934 227 43 47 53
290 935 226 43 47 53
291 934 227 47 50 55
291 935 227 43 47 53
290 932 228 50 53 58
291 932 228 51 54 59
291 933 228 52 54 60
292 928 229 39 42 48
292 929 229 40 44 49
293 928 229 38 42 48
293 929 229 39 43 49
293 928 230 38 43 48
292 930 228 43 47 52
292 930 229 42 46 52
292 931 228 46 49 55
292 931 229 45 48 54
293 930 229 41 45 51
293 931 229 43 47 53
294 929 229 40 44 49
294 928 230 38 42 48
294 929 230 39 43 48
295 928 230 40 43 49
295 929 230 39 43 48
294 930 229 40 44 50
294 931 229 40 44 50
294 930 230 40 44 49
295 930 230 40 44 49
295 931 230 41 44 50
292 934 227 51 54 59
292 935 227 48 51 57
292 932 228 48 51 57
292 933 228 51 54 60
293 932 229 45 49 55
293 933 228 49 52 58
293 933 229 47 50 56
292 934 228 51 54 60
292 935 228 51 54 59
293 934 228 49 53 58
293 935 228 50 53 58
293 935 229 48 51 57
294 932 229 42 46 52
294 933 229 44 48 53
295 932 230 42 45 51
295 933 230 41 45 51
294 934 229 46 49 55
294 935 229 46 50 55
295 934 229 42 46 51
295 935 229 43 46 52
295 934 230 41 45 51
295 935 230 41 45 50
288 936 225 47 51 56
288 937 224 49 52 58
288 937 225 49 52 58
289 936 225 46 50 56
289 937 225 47 51 56
289 936 226 46 49 55
288 938 224 50 53 58
288 938 225 50 53 58
288 939 225 49 52 58
289 938 225 49 52 57
289 939 225 50 53 58
290 936 226 45 49 55
290 937 226 44 48 54
291 936 226 44 47 53
291 936 227 42 47 53
291 937 226 43 47 53
291 937 227 43 47 53
290 938 225 46 50 56
290 939 225 48 51 57
290 938 226 46 49 55
290 939 226 47 50 55
291 938 226 44 48 53
291 938 227 44 48 53
291 939 226 46 50 55
291 939 227 46 49 55
288 940 225 48 51 57
288 941 225 49 53 58
289 940 225 48 51 57
289 941 225 47 50 56
289 941 226 47 50 56
288 942 225 51 54 60
288 942 226 50 53 59
289 942 226 47 51 57
290 940 226 47 50 55
290 941 226 46 49 55
291 940 226 46 49 54
291 940 227 45 48 53
291 941 226 46 49 54
291 941 227 45 48 53
290 942 226 46 49 54
290 942 227 45 48 53
291 942 227 45 48 53
292 936 227 46 49 55
292 937 227 46 49 55
292 938 227 46 49 54
292 939 227 47 49 55
292 937 228 47 50 56
293 936 228 48 51 57
293 937 228 46 50 56
292 938 228 49 52 57
292 939 228 49 52 57
293 938 228 48 51 57
293 939 228 50 53 58
294 936 229 46 50 55
294 937 228 44 48 54
294 937 229 46 49 55
295 936 229 43 47 52
295 937 229 45 49 55
294 938 228 44 48 54
294 938 229 44 47 53
294 939 228 47 50 56
294 939 229 45 48 54
295 938 229 45 48 54
295 939 229 45 48 54
292 940 227 46 49 54
292 941 227 46 49 54
292 942 227 46 49 54
292 940 228 48 50 56
292 941 228 47 49 54
293 940 228 50 53 58
293 941 228 48 50 55
292 942 228 47 50 55
293 942 228 48 51 56
294 940 228 50 53 58
294 940 229 49 52 57
294 941 228 49 51 56
294 941 229 50 53 58
295 940 229 47 50 55
295 941 229 50 52 57
294 942 228 48 51 56
294 942 229 50 52 57
295 942 229 51 53 58
296 928 230 41 44 50
296 928 231 42 45 51
296 929 230 39 43 48
297 928 231 44 47 52
297 929 231 41 45 50
296 930 230 40 44 49
296 931 230 41 44 49
297 930 231 40 44 50
297 931 230 40 44 50
297 931 231 40 44 50
298 928 231 46 49 54
298 929 231 44 47 53
299 928 231 45 48 54
299 929 231 45 48 53
298 930 231 43 46 52
298 931 231 42 46 52
299 930 231 44 47 53
299 931 231 45 48 54
296 932 230 42 45 50
296 933 230 42 46 51
297 932 230 41 44 50
297 932 231 40 44 50
297 933 230 41 44 50
297 933 231 39 43 49
296 934 230 42 45 51
296 935 230 41 45 50
297 934 230 42 45 50
297 934 231 41 44 49
297 935 230 41 45 50
297 935 231 42 45 50
298 932 231 43 46 52
298 933 231 41 45 50
299 932 231 45 48 53
298 934 231 41 44 50
298 935 231 42 45 50
299 928 232 45 48 53
299 929 232 45 48 53
299 930 232 45 49 54
299 931 232 46 49 54
298 933 232 43 46 51
299 932 232 46 49 54
299 933 232 45 48 53
298 934 232 42 45 50
299 934 232 44 47 52
299 935 232 42 45 50
300 928 232 45 48 53
300 928 233 46 48 53
300 929 232 45 48 53
300 929 233 46 48 53
301 928 233 48 50 55
301 929 233 47 50 55
301 928 234 50 52 57
301 929 234 48 50 55
300 930 232 46 49 55
300 930 233 45 48 54
300 931 232 47 50 55
300 931 233 47 49 55
301 930 233 46 48 53
301 931 233 45 48 54
301 930 234 47 49 54
301 931 234 45 48 53
302 928 234 52 54 59
302 929 234 49 51 56
303 928 235 55 57 63
303 929 235 53 56 61
302 930 234 47 49 54
302 930 235 47 49 54
302 931 234 45 48 53
302 931 235 45 47 53
303 930 235 51 53 58
303 931 235 45 47 53
303 928 236 55 58 63
303 929 236 56 58 63
303 930 236 53 55 60
303 931 236 47 50 55
300 932 232 47 49 54
300 932 233 47 50 55
300 933 233 48 51 56
301 932 233 46 49 54
301 933 233 47 49 54
301 932 234 45 48 53
301 933 234 45 48 54
300 934 233 48 50 55
300 935 233 47 49 54
301 934 233 47 50 55
301 934 234 46 49 55
301 935 234 48 51 56
301 935 235 46 49 54
302 932 234 45 48 53
302 932 235 44 47 53
302 933 234 45 48 53
302 933 235 44 47 53
303 932 235 43 46 52
302 934 235 45 48 53
302 935 235 45 49 54
303 932 236 44 47 53
303 933 236 43 46 51
302 934 236 44 47 52
302 935 236 45 48 54
303 934 236 44 47 53
303 934 237 45 48 54
303 935 236 44 47 52
303 935 237 44 47 53
296 937 229 44 48 53
296 936 230 41 45 51
296 937 230 42 46 51
297 936 230 42 45 50
297 936 231 42 46 51
297 937 230 43 47 52
297 937 231 43 47 52
296 938 229 45 48 54
296 939 229 45 48 54
296 938 230 43 47 53
296 939 230 43 47 53
297 938 230 44 48 53
297 939 230 44 47 53
298 936 231 42 45 50
298 937 231 43 47 53
299 937 231 42 46 52
298 938 231 45 49 55
298 939 231 45 49 55
299 938 231 43 47 53
299 939 231 44 48 55
296 940 229 44 48 53
296 941 229 49 52 57
296 940 230 44 47 52
296 941 230 47 51 56
297 940 230 43 47 53
297 941 230 44 48 54
297 941 231 44 48 54
296 942 229 50 53 59
296 942 230 49 52 58
297 942 230 47 51 56
297 942 231 46 49 55
298 940 231 45 49 55
298 941 231 45 49 55
299 940 231 46 50 56
298 942 231 45 49 55
299 936 232 42 46 51
299 937 232 42 46 52
299 938 232 43 47 53
299 939 232 45 48 54
299 940 232 46 49 55
299 941 232 46 50 56
299 941 233 46 49 55
299 942 232 46 50 55
299 942 233 45 48 54
300 936 233 45 48 53
300 937 233 46 49 54
301 936 234 49 51 57
301 936 235 48 51 56
301 937 234 48 51 57
301 937 235 47 50 55
300 938 233 46 49 55
300 939 233 46 49 55
301 938 234 48 50 56
301 938 235 48 50 56
301 939 234 47 50 56
301 939 235 47 50 55
302 936 235 46 49 54
302 937 235 46 50 55
302 938 235 47 50 55
302 939 235 46 49 55
302 936 236 45 48 54
302 937 236 45 48 53
303 936 236 44 47 53
303 936 237 45 48 54
303 937 237 45 48 54
302 938 236 46 49 54
302 939 236 46 49 54
303 938 237 47 50 55
303 939 237 48 51 56
300 940 232 45 49 54
300 940 233 46 48 54
300 941 233 45 48 54
300 940 234 47 50 56
300 941 234 45 49 54
301 940 234 47 50 56
301 940 235 47 50 56
301 941 234 48 51 57
301 941 235 50 53 58
300 942 233 44 48 53
300 942 234 44 48 54
301 942 234 47 51 56
301 942 235 50 53 59
302 940 235 47 50 55
302 941 235 48 51 57
302 942 235 50 53 58
302 940 236 45 48 54
302 941 236 46 49 55
303 940 236 45 48 54
303 940 237 47 50 55
303 941 236 44 47 52
303 941 237 44 47 52
302 942 236 48 51 57
303 942 236 43 46 51
303 942 237 41 44 50
304 928 236 53 56 61
304 928 237 51 54 60
304 929 236 52 54 60
305 928 237 51 54 59
305 929 237 48 51 56
305 928 238 54 56 62
305 929 238 48 50 56
304 930 236 54 56 61
304 930 237 54 56 61
304 931 236 54 56 61
304 931 237 56 58 63
305 930 237 48 50 56
305 931 237 54 56 61
305 930 238 45 47 53
305 931 238 51 53 58
306 928 238 55 58 63
306 928 239 55 57 63
306 929 238 49 51 57
306 929 239 50 52 58
307 928 239 56 58 63
307 929 239 52 54 59
306 930 238 45 47 53
306 930 239 45 47 53
306 931 238 48 50 55
306 931 239 45 48 54
307 930 239 46 48 54
307 931 239 45 47 53
304 932 236 49 51 56
304 932 237 53 55 60
304 933 236 46 49 54
304 933 237 53 55 59
305 932 237 55 57 62
305 933 237 54 56 61
305 932 238 54 56 61
305 933 238 54 56 61
304 934 237 48 50 56
304 935 237 47 50 55
304 935 238 49 52 57
305 934 238 53 55 60
305 934 239 53 55 60
305 935 238 51 54 58
305 935 239 51 54 59
306 932 238 52 55 59
306 932 239 48 51 56
306 933 239 52 55 60
306 934 239 51 54 59
306 935 239 50 52 57
304 936 237 47 50 56
304 936 238 49 52 57
304 937 238 47 50 56
305 936 239 51 54 59
305 937 239 49 51 56
304 939 237 48 50 56
304 938 238 47 50 55
304 939 238 46 49 54
305 938 239 47 50 55
305 939 239 45 48 54
306 936 239 50 52 57
306 937 239 48 50 55
306 938 239 47 50 55
306 939 239 44 48 53
304 940 237 44 47 53
304 941 237 43 46 52
304 940 238 44 47 53
304 941 238 42 46 51
305 940 238 44 47 53
305 940 239 45 48 53
305 941 238 42 45 51
305 941 239 43 46 51
304 942 237 40 43 49
304 942 238 40 44 49
305 942 238 39 43 48
306 940 239 44 47 53
306 941 239 41 44 50
306 942 239 39 43 48
307 942 239 39 42 47
307 928 240 57 59 64
307 929 240 55 57 62
307 930 240 48 50 55
307 931 240 44 47 52
307 932 240 46 49 54
307 933 240 49 52 58
306 935 240 49 51 56
307 934 240 51 54 59
307 935 240 50 53 59
308 928 240 57 59 64
308 928 241 56 58 62
308 929 240 56 58 63
308 929 241 56 58 63
309 929 241 55 57 62
309 928 242 54 56 61
309 928 243 54 57 62
309 929 242 51 54 59
308 930 240 52 54 59
308 930 241 53 55 60
308 931 240 46 49 54
308 931 241 49 52 57
309 930 241 54 56 61
309 931 241 52 54 59
309 930 242 50 53 59
309 931 242 51 54 60
310 928 243 53 56 61
310 929 243 51 54 59
310 930 243 49 52 58
310 931 243 50 53 58
310 928 244 52 55 60
310 929 244 52 55 60
311 928 244 50 53 58
311 928 245 47 50 56
311 929 244 52 55 60
311 929 245 48 51 57
311 928 246 47 50 55
310 930 244 50 54 59
310 931 244 50 53 59
311 930 244 53 56 61
311 930 245 51 54 59
311 931 244 53 55 61
308 932 240 45 48 54
308 932 241 47 50 55
308 933 240 48 51 57
308 933 241 46 49 54
309 932 242 48 51 56
309 933 242 46 49 54
308 934 241 48 51 57
308 935 241 51 54 59
308 935 242 50 53 58
309 934 242 44 47 53
309 934 243 45 48 53
309 935 242 45 48 53
309 935 243 44 47 52
310 932 243 49 51 57
310 933 243 47 49 54
310 934 243 45 48 53
310 935 243 44 47 52
310 932 244 49 52 57
310 933 244 48 50 55
311 932 244 51 54 59
311 933 244 49 51 56
311 933 245 50 52 57
310 934 244 47 50 55
311 934 244 48 50 55
311 934 245 47 49 54
311 935 244 46 49 54
311 935 245 47 49 54
306 936 240 49 51 56
306 937 240 47 49 54
307 936 240 48 51 56
307 936 241 50 53 58
307 937 240 46 49 54
307 937 241 45 49 54
306 938 240 46 49 54
306 939 240 44 47 53
307 938 240 44 47 53
307 938 241 43 47 53
307 939 240 43 46 52
307 939 241 42 46 52
307 940 240 42 45 51
307 941 240 40 44 49
307 942 240 39 43 48
308 936 241 50 53 58
308 937 241 46 50 55
308 936 242 50 53 59
309 936 242 47 50 55
309 936 243 45 48 53
309 937 242 47 49 54
308 938 241 43 47 53
308 939 241 42 45 51
309 938 242 46 49 54
309 939 242 43 46 51
310 936 243 45 47 53
310 937 243 46 48 53
311 937 243 44 46 51
310 938 242 47 49 54
310 938 243 47 49 53
310 939 242 47 49 54
310 939 243 47 49 54
311 938 243 46 48 52
311 939 243 48 50 54
311 936 244 44 47 52
311 936 245 45 48 52
311 937 244 44 46 51
311 938 244 47 49 53
311 939 244 47 49 53
308 940 241 42 45 51
308 941 240 41 45 50
308 941 241 42 45 50
309 940 241 41 45 50
309 941 241 41 45 50
309 940 242 42 45 50
309 941 242 41 45 50
308 942 240 39 43 48
308 942 241 40 44 49
309 942 241 40 44 49
310 940 242 43 46 51
310 940 243 46 49 53
310 941 242 42 45 50
310 941 243 43 46 51
311 940 243 47 50 54
311 941 243 45 47 52
310 942 242 42 45 50
311 942 243 45 48 53
311 940 244 48 50 55
311 941 244 48 50 55
312 929 245 49 52 57
312 928 246 47 49 55
312 928 247 46 49 54
312 929 246 47 50 55
312 929 247 46 49 54
313 929 247 46 49 54
312 930 245 52 55 60
312 931 245 55 57 62
312 930 246 47 50 55
312 931 246 52 55 60
313 930 247 46 49 53
313 931 246 51 53 58
313 931 247 49 52 57
312 932 245 55 57 63
312 933 245 53 55 60
312 932 246 55 57 62
312 933 246 54 56 61
313 932 246 53 56 61
313 932 247 51 54 59
313 933 246 53 55 60
313 933 247 51 53 59
312 934 245 49 51 56
312 935 245 48 50 55
312 934 246 52 54 59
312 935 246 49 51 56
313 934 246 52 54 59
313 934 247 49 52 57
313 935 246 49 51 56
313 935 247 49 52 57
312 928 248 45 48 54
313 928 248 45 48 54
313 928 249 45 48 54
313 929 248 44 48 53
313 929 249 44 47 53
313 930 248 44 47 52
313 931 248 44 47 52
314 929 249 45 48 53
314 928 250 47 51 56
314 928 251 47 51 56
314 929 250 47 50 56
314 929 251 47 51 56
315 928 251 47 50 56
315 929 251 47 50 56
314 930 248 43 46 51
314 930 249 43 46 51
314 931 248 45 48 53
314 931 249 45 48 53
314 930 250 47 50 55
315 930 250 47 50 56
315 930 251 47 51 57
315 931 250 49 52 57
315 931 251 49 52 58
315 928 252 45 49 55
315 928 253 44 47 53
315 929 252 45 48 54
315 929 253 43 46 52
315 930 252 44 49 55
314 932 248 50 52 57
314 932 249 48 51 57
314 933 248 47 50 55
314 933 249 48 51 56
315 932 249 49 52 58
315 933 249 48 51 57
315 932 250 50 53 59
315 932 251 50 53 59
315 933 250 50 53 58
315 933 251 50 54 60
314 934 248 46 49 54
314 934 249 44 47 52
314 935 248 46 49 54
315 934 249 46 49 55
315 935 249 46 49 54
315 934 250 49 53 58
315 935 250 49 53 58
316 931 251 49 53 59
316 928 253 43 47 52
316 929 253 42 46 52
316 928 254 45 48 54
316 928 255 48 52 57
316 929 254 44 48 54
316 929 255 48 52 57
317 929 255 48 51 57
316 930 252 44 48 54
316 930 253 43 47 53
316 931 252 46 51 57
316 931 253 47 51 57
316 930 254 46 49 55
316 930 255 48 52 58
316 931 254 46 50 55
316 931 255 49 52 57
317 930 255 49 52 58
317 931 255 50 53 58
316 932 251 49 53 59
316 933 251 50 54 59
316 934 251 50 54 59
316 935 251 50 54 60
316 932 252 46 50 57
316 932 253 49 53 59
316 933 252 52 56 62
316 933 253 50 54 60
316 932 254 49 52 57
316 933 254 49 52 58
317 932 255 49 52 57
317 933 255 46 49 54
316 934 252 56 59 65
316 934 253 52 55 61
316 935 252 54 58 63
316 935 253 53 56 61
316 934 254 49 52 56
316 935 254 49 52 57
317 934 255 45 47 52
317 935 255 43 46 50
312 936 245 47 49 54
312 937 245 46 48 53
312 936 246 50 52 57
312 937 246 47 49 54
313 936 246 48 51 55
313 936 247 47 49 54
313 937 246 46 49 53
313 937 247 45 48 53
312 938 244 47 49 53
312 938 245 47 49 54
312 939 245 49 51 55
313 939 245 49 52 56
313 938 246 45 48 52
313 939 246 45 48 53
314 936 247 47 49 54
314 937 247 46 49 53
314 938 247 44 47 53
314 939 247 43 47 52
312 940 244 48 50 55
312 940 245 49 51 55
312 941 244 49 51 56
312 941 245 48 51 55
313 940 245 49 52 57
313 941 245 50 52 57
313 940 246 48 51 56
313 941 246 50 53 58
314 940 247 46 49 55
314 941 247 47 51 56
314 936 248 48 50 55
314 937 248 48 51 56
315 936 249 46 49 54
315 937 248 48 50 55
315 937 249 49 51 56
315 936 250 50 53 59
315 937 250 51 54 59
314 938 248 50 52 58
314 939 248 47 50 56
315 938 249 50 53 58
315 939 249 50 53 58
315 938 250 50 53 59
315 939 250 50 54 60
314 940 248 45 49 55
314 941 248 46 50 57
315 940 248 47 51 57
315 940 249 49 52 58
315 941 248 49 53 59
315 941 249 49 53 59
315 940 250 50 54 60
315 940 251 54 57 63
315 941 250 51 55 61
315 941 251 53 57 63
316 936 251 50 54 59
316 937 250 52 55 61
316 937 251 51 54 60
316 938 250 52 55 60
316 938 251 52 55 61
316 939 251 53 56 62
316 936 252 54 57 63
316 936 253 56 58 63
316 937 252 53 56 61
316 937 253 57 59 64
316 936 254 51 53 58
316 936 255 45 47 51
316 937 254 52 54 59
316 937 255 45 48 52
317 936 255 41 43 47
317 937 255 41 43 47
316 938 252 53 57 62
316 938 253 56 59 64
316 939 252 54 57 63
316 939 253 57 59 65
316 938 254 52 55 60
316 938 255 46 49 54
316 939 254 54 57 62
316 939 255 49 51 56
316 940 251 55 58 64
316 941 251 55 59 65
316 940 252 53 57 62
316 940 253 55 57 63
316 941 252 53 56 62
316 941 253 54 57 62
316 940 254 56 58 63
316 940 255 49 51 56
289 870 256 87 74 64
289 871 256 81 71 65
290 870 256 86 74 65
290 871 256 80 71 65
290 871 257 84 74 67
290 871 258 86 75 66
290 872 256 73 67 63
290 872 257 77 70 65
290 873 256 66 63 62
291 872 257 72 66 63
291 873 256 62 60 60
291 873 257 64 61 60
291 872 258 76 69 64
291 872 259 79 70 64
291 873 258 67 62 61
291 873 259 70 65 62
291 874 256 57 56 58
291 872 260 81 70 62
292 873 257 60 58 58
292 873 258 61 57 58
292 873 259 65 61 59
292 874 256 55 55 58
292 874 257 55 54 57
292 875 256 53 54 58
292 875 257 52 53 57
293 875 256 53 54 59
293 875 257 51 52 57
292 874 258 55 54 56
292 874 259 56 54 56
293 874 259 52 52 54
293 875 258 50 51 55
293 875 259 48 49 53
292 873 260 67 61 59
292 873 261 66 59 56
292 874 260 56 54 54
292 874 261 54 51 51
293 874 260 51 50 52
293 874 261 52 51 52
293 875 260 48 49 53
293 875 261 49 49 52
292 874 262 53 48 47
292 874 263 54 46 43
293 874 262 50 47 48
293 874 263 49 45 45
293 875 262 47 46 48
293 875 263 48 45 47
293 876 256 50 53 58
293 876 257 47 50 55
293 877 256 48 51 57
293 877 257 47 50 55
293 876 258 46 49 54
293 876 259 45 48 53
294 877 256 48 51 56
294 877 257 47 49 55
294 876 259 45 48 53
294 877 258 45 48 54
294 877 259 43 46 52
294 878 256 48 51 56
294 878 257 44 47 52
294 879 256 47 49 54
294 879 257 42 45 50
295 879 257 41 45 50
294 878 258 42 45 50
294 878 259 42 45 49
294 879 258 41 44 49
295 878 259 43 45 50
295 879 258 41 44 49
295 879 259 44 46 51
293 876 260 46 48 53
293 876 261 46 47 51
293 876 262 45 45 48
293 876 263 44 44 47
294 876 260 44 47 52
294 876 261 44 46 50
294 877 260 43 45 50
294 877 261 44 45 49
294 876 262 44 45 48
294 876 263 43 44 47
294 877 262 44 46 49
294 877 263 45 46 49
294 878 260 43 45 50
295 878 260 44 47 51
295 878 261 45 47 52
295 879 260 45 48 53
295 879 261 44 47 52
295 878 262 47 48 52
295 878 263 47 48 52
295 879 262 45 48 52
293 875 264 50 46 46
293 875 265 56 48 44
293 876 264 45 44 46
293 876 265 46 45 46
293 876 266 52 47 44
293 877 266 47 45 46
293 877 267 58 50 45
294 876 264 43 43 46
294 877 264 43 45 47
294 877 265 44 45 48
294 877 266 45 45 46
294 877 267 51 46 45
295 878 264 45 46 50
295 878 265 45 46 50
295 879 264 45 46 50
295 879 265 46 47 51
294 878 266 44 44 46
294 878 267 46 44 44
295 878 266 44 44 47
295 879 266 42 42 45
295 879 267 43 43 44
293 877 268 67 55 46
294 877 268 59 51 45
294 878 268 55 49 46
294 878 269 69 59 51
294 879 268 54 50 47
294 879 269 61 55 50
295 879 268 49 47 47
294 879 270 75 63 54
294 879 271 86 71 58
296 879 261 45 48 53
296 879 262 46 48 53
296 879 263 45 47 51
296 879 264 45 46 50
296 879 265 46 47 51
296 879 266 43 44 47
294 880 256 44 47 52
295 880 256 43 46 51
295 880 257 43 46 51
295 881 256 45 48 52
295 881 257 47 49 54
295 880 258 45 48 53
295 880 259 48 51 56
295 880 267 45 44 46
295 880 268 49 47 49
295 880 269 52 48 47
295 881 269 47 45 45
294 880 270 65 56 48
294 880 271 76 63 53
294 881 271 59 50 44
295 880 270 54 48 45
295 881 270 51 46 43
295 881 271 53 46 43
295 882 270 48 45 44
295 882 271 52 47 46
295 883 271 52 49 48
296 881 257 49 51 56
296 880 258 48 51 57
296 880 259 48 52 58
296 881 258 48 51 57
296 881 259 47 51 56
297 881 259 48 51 57
296 882 256 49 51 56
296 882 257 49 52 57
296 883 256 50 53 58
296 883 257 50 53 58
297 883 256 49 52 58
297 883 257 47 50 56
296 882 258 48 51 57
297 882 258 46 50 55
297 882 259 48 52 57
297 883 258 48 51 56
297 883 259 50 53 59
298 883 258 50 54 59
298 883 259 51 54 60
296 880 260 46 50 55
296 880 261 47 50 55
297 880 261 50 53 58
297 881 260 50 53 59
297 881 261 50 53 58
296 880 262 47 49 54
296 880 263 44 46 51
297 880 262 47 50 54
297 880 263 44 47 52
297 881 262 45 48 53
297 881 263 45 47 52
297 882 260 51 54 59
297 882 261 50 53 58
298 881 263 45 48 54
298 882 261 48 51 56
298 883 260 49 52 58
298 883 261 46 49 54
298 882 262 45 48 53
298 882 263 46 49 54
298 883 262 44 47 53
298 883 263 48 51 56
297 884 256 46 50 56
297 884 257 46 50 55
298 884 257 46 50 56
298 885 256 45 49 55
298 885 257 49 52 58
298 884 258 51 54 59
298 884 259 49 53 58
298 885 258 51 54 60
298 885 259 51 54 60
299 885 258 50 54 60
299 885 259 48 51 57
298 886 256 47 51 57
298 886 257 49 52 58
299 886 256 49 53 59
299 886 257 50 53 59
299 887 256 50 54 60
299 887 257 50 54 60
299 886 258 50 54 60
299 886 259 49 53 59
299 887 258 50 53 59
299 887 259 50 54 60
298 884 260 48 51 56
299 884 260 48 52 57
299 884 261 46 49 54
299 885 260 49 52 58
299 885 261 48 52 58
298 884 262 43 46 51
299 884 262 47 50 55
299 884 263 46 48 53
299 885 262 48 51 56
299 885 263 44 46 51
299 886 260 49 53 59
299 886 261 46 50 56
300 887 258 49 53 59
300 887 259 49 53 59
300 885 262 46 49 53
300 885 263 42 44 49
300 886 260 49 52 58
300 886 261 46 50 55
300 887 260 48 52 57
300 887 261 42 46 51
300 886 262 43 46 50
300 886 263 40 42 47
300 887 262 39 42 47
300 887 263 40 42 47
301 887 262 39 42 48
301 887 263 40 43 48
296 880 264 46 48 52
296 880 265 43 45 49
297 880 264 46 48 52
297 880 265 45 47 51
297 881 264 46 48 53
297 881 265 45 47 52
296 880 266 41 43 46
296 880 267 42 42 45
296 881 266 41 43 46
296 881 267 43 43 46
297 881 266 42 45 49
297 881 267 44 45 49
297 882 266 43 45 50
297 882 267 43 45 49
298 881 264 48 51 56
298 881 265 47 49 54
298 882 264 47 50 55
298 882 265 44 46 51
298 883 264 44 47 52
298 883 265 43 45 50
299 883 264 42 45 49
299 883 265 43 45 50
298 882 266 42 45 49
298 882 267 42 44 48
298 883 266 41 43 47
298 883 267 41 43 48
296 881 268 45 45 48
296 881 269 46 46 47
297 881 268 45 46 49
296 882 269 45 45 47
297 882 268 44 45 48
297 882 269 45 46 49
297 883 268 41 42 46
297 883 269 42 42 44
296 882 270 46 44 44
296 883 270 43 41 41
296 883 271 47 44 44
297 883 270 37 37 39
298 883 268 41 43 47
298 883 269 40 41 44
299 884 264 42 44 49
299 884 265 41 43 46
299 885 264 40 42 46
299 885 265 39 41 45
298 884 267 40 42 46
299 884 266 38 40 44
299 884 267 39 40 43
299 885 266 39 40 43
299 885 267 41 42 45
296 884 271 48 47 48
297 884 270 38 38 42
297 884 271 45 45 47
298 884 268 39 40 44
298 884 269 38 39 42
299 884 268 39 40 43
299 884 269 38 39 41
299 885 268 39 40 43
299 885 269 37 38 42
298 884 270 38 38 42
298 884 271 43 44 48
298 885 270 42 43 46
298 885 271 45 46 49
299 885 270 39 40 44
299 885 271 44 45 49
299 886 269 37 39 43
299 886 270 40 43 46
299 886 271 43 45 49
299 887 271 42 44 48
300 885 264 39 41 45
300 885 265 38 40 44
300 885 266 38 40 44
300 885 267 41 43 47
300 886 264 39 41 46
300 886 265 39 41 44
300 887 264 40 43 48
300 887 265 40 43 47
301 887 264 41 43 48
301 887 265 41 44 48
300 886 266 40 42 45
300 886 267 41 43 47
300 887 266 40 42 46
300 887 267 43 45 49
300 886 268 39 41 45
300 886 269 39 42 46
300 887 268 41 43 47
300 887 269 41 44 48
300 887 270 43 45 49
300 887 271 43 45 49
299 888 256 50 54 60
300 888 256 51 55 61
300 888 257 48 52 58
300 889 256 51 55 61
300 889 257 48 52 58
300 888 258 49 53 59
300 888 259 50 54 60
300 889 258 48 52 58
300 889 259 50 54 60
301 889 258 49 53 59
301 889 259 51 54 60
300 890 256 50 54 60
300 890 257 48 52 58
301 890 256 50 54 60
301 890 257 47 51 57
301 891 256 50 53 59
301 891 257 50 54 60
301 890 258 50 53 59
301 890 259 52 55 60
301 891 258 52 55 61
301 891 259 50 53 59
302 891 259 49 52 58
300 888 260 47 51 57
301 888 260 47 51 56
301 888 261 41 45 50
301 889 260 47 51 56
301 889 261 42 45 50
301 888 262 40 43 48
301 888 263 39 42 47
301 889 262 41 44 49
301 889 263 39 42 48
301 890 260 48 51 57
301 890 261 43 46 51
301 891 260 49 52 57
301 890 262 41 45 50
301 890 263 40 43 49
302 890 261 42 45 51
302 891 260 47 50 55
302 891 261 43 46 52
302 890 262 41 45 50
302 890 263 40 43 49
302 891 262 40 44 49
302 891 263 42 45 50
301 892 256 51 54 60
301 892 257 52 56 61
302 892 256 52 56 61
302 892 257 52 55 61
302 893 256 52 56 61
302 893 257 52 56 61
302 892 258 51 54 60
302 892 259 50 53 59
302 893 258 52 55 60
302 893 259 48 51 56
303 893 259 48 51 56
302 894 256 53 56 61
302 894 257 52 55 61
303 894 256 52 55 60
303 894 257 49 52 58
303 895 256 50 53 59
303 895 257 44 47 53
302 894 258 51 54 59
303 894 258 45 49 54
303 894 259 46 49 54
303 895 258 43 47 52
303 895 259 45 49 54
302 892 260 45 48 54
302 892 261 42 46 51
302 893 260 45 49 54
303 893 260 45 48 53
303 893 261 42 46 51
302 892 262 41 44 49
302 892 263 42 45 50
303 892 262 40 43 49
303 892 263 42 45 50
303 893 262 39 43 48
303 893 263 40 43 48
303 894 260 46 49 54
303 894 261 43 46 51
303 895 260 47 50 55
303 894 262 39 42 47
303 894 263 40 44 49
301 888 264 41 43 48
301 888 265 42 44 48
301 889 264 42 44 49
301 889 265 43 46 50
301 888 266 41 43 47
301 888 267 42 44 48
301 889 266 39 42 46
301 889 267 37 40 44
301 890 264 42 45 50
301 890 267 35 38 43
302 890 264 44 46 52
302 890 265 43 45 50
302 891 264 45 48 53
302 891 265 39 42 47
302 890 266 36 39 43
302 890 267 35 39 43
302 891 266 36 39 43
302 891 267 39 42 46
300 888 268 41 43 47
300 888 269 44 46 50
301 888 268 38 41 45
301 888 269 43 46 50
301 889 268 41 43 47
301 889 269 47 49 52
300 888 270 47 48 52
300 888 271 41 43 47
300 889 271 37 38 42
301 888 270 47 49 53
301 889 270 46 47 51
301 889 271 39 40 44
301 890 268 43 45 49
301 890 269 46 47 51
301 890 270 42 43 47
301 890 271 38 39 42
301 891 270 38 40 44
301 891 271 33 35 38
302 890 268 43 46 49
302 890 269 46 47 51
302 891 268 44 47 51
302 891 269 43 45 50
302 891 270 38 40 44
302 891 271 33 35 38
302 892 264 43 45 50
303 892 264 41 44 48
303 892 265 38 41 45
303 893 264 42 45 50
303 893 265 40 44 48
303 892 266 36 40 45
303 892 267 41 44 49
303 893 266 38 42 47
303 893 267 41 44 48
303 894 264 42 45 50
303 894 265 41 44 49
303 894 266 38 42 47
303 894 267 38 42 47
302 892 269 41 44 48
303 892 268 42 45 50
303 892 269 39 42 46
303 893 268 40 43 48
303 893 269 36 40 44
302 892 270 35 38 42
302 892 271 34 36 40
302 893 271 34 37 40
303 892 270 35 39 43
303 893 270 33 37 41
303 893 271 35 37 41
303 894 268 37 40 45
303 894 269 31 35 40
303 894 270 33 37 42
303 894 271 41 43 47
293 880 272 100 82 63
293 881 273 100 79 63
293 882 275 110 88 67
294 880 272 88 72 57
294 881 272 69 56 45
294 881 273 86 68 52
294 882 272 59 51 46
294 882 273 74 59 48
294 883 273 66 54 48
295 882 272 57 52 51
295 883 272 55 51 51
295 883 273 55 48 44
294 882 274 101 81 65
294 882 275 108 86 67
294 883 274 85 66 54
294 883 275 103 82 63
293 883 276 113 91 69
294 883 276 110 88 66
295 884 273 52 47 44
294 884 274 75 60 48
294 884 275 91 73 59
295 884 274 65 56 49
295 884 275 81 66 53
295 885 274 66 57 50
295 885 275 78 65 53
295 886 275 73 60 46
293 884 278 114 92 69
293 885 279 113 90 67
294 884 276 105 84 66
294 884 277 112 90 68
294 885 276 100 80 61
294 885 277 109 88 67
295 885 276 92 74 56
294 884 278 113 91 68
294 885 278 112 90 68
294 885 279 112 90 67
294 886 277 107 86 66
295 886 276 89 70 52
295 886 277 103 82 63
295 887 276 88 71 55
295 887 277 99 79 61
294 886 278 110 89 68
294 886 279 111 90 68
294 887 278 107 87 67
294 887 279 110 89 69
295 887 278 103 83 64
293 886 280 112 91 68
293 886 281 113 92 70
293 887 282 114 91 70
294 886 280 112 90 68
294 886 281 112 91 68
294 887 280 111 90 68
294 887 281 111 90 68
294 887 282 112 91 69
295 888 277 90 72 56
294 888 279 110 89 69
295 888 278 96 78 61
295 888 279 104 85 66
295 889 279 97 79 61
294 888 280 109 89 68
294 888 281 110 90 69
294 889 281 109 89 69
295 888 280 107 87 67
295 889 280 105 85 66
295 889 281 108 88 68
294 888 282 111 91 71
294 888 283 112 91 70
294 889 282 110 90 70
294 889 283 110 90 69
295 889 282 109 89 69
295 890 280 103 85 66
295 890 281 105 86 66
295 891 281 103 84 65
294 890 283 108 88 68
295 890 282 107 87 68
295 890 283 107 87 68
295 891 282 105 86 67
295 891 283 107 87 69
294 888 284 112 91 69
294 889 284 110 89 67
294 890 284 108 88 67
295 891 284 107 87 68
295 892 283 106 88 69
295 892 284 106 87 68
295 893 284 106 87 69
296 883 272 52 49 49
296 884 272 51 49 50
296 884 273 50 48 48
296 885 272 49 47 48
296 885 273 52 50 49
297 884 272 52 51 51
297 885 272 49 48 49
297 885 273 48 48 50
296 885 274 58 52 48
297 886 273 49 48 50
296 886 274 56 51 48
296 886 275 65 54 44
296 887 275 64 54 44
297 886 274 52 50 50
297 887 274 52 49 47
297 887 275 58 51 46
298 885 272 45 46 49
298 886 272 46 46 48
298 886 273 50 49 51
298 887 273 50 49 50
299 886 272 44 45 48
299 887 272 44 45 48
299 887 273 48 47 49
298 887 274 50 48 48
296 887 276 76 62 48
300 887 272 43 44 48
297 888 275 60 53 49
297 889 275 52 48 47
299 888 272 46 45 47
299 888 273 46 46 47
299 889 273 41 40 42
298 888 274 48 45 45
298 888 275 51 47 46
298 889 274 45 42 42
298 889 275 50 46 45
299 888 274 45 43 43
299 889 274 43 42 42
298 890 275 45 43 43
299 890 274 40 39 40
299 890 275 43 42 43
299 891 274 40 40 42
299 891 275 43 43 46
296 888 276 76 63 50
296 888 277 82 67 53
296 889 276 68 58 49
296 889 277 72 59 49
297 888 276 63 54 47
297 889 276 57 50 45
296 889 278 85 70 56
296 889 279 92 75 58
296 890 277 64 54 44
