ply
format ascii 1.0
comment PCL generated
element vertex 2253
property float x
property float y
property float z
property uchar red
property uchar green
property uchar blue
element camera 0
property float view_px
property float view_py
property float view_pz
property float x_axisx
property float x_axisy
property float x_axisz
property float y_axisx
property float y_axisy
property float y_axisz
property float z_axisx
property float z_axisy
property float z_axisz
property float focal
property float scalex
property float scaley
property float centerx
property float centery
property int viewportx
property int viewporty
property float k1
property float k2
end_header
249 297 167 40 47 55
248 299 167 40 47 55
249 298 166 39 46 54
249 298 167 39 47 55
249 299 166 39 46 54
249 299 167 39 47 55
250 297 165 40 47 54
251 296 165 39 46 54
251 297 164 40 46 53
251 297 165 40 46 54
250 296 166 41 48 55
250 296 167 40 47 54
250 297 166 40 47 54
250 297 167 39 47 54
251 296 166 39 46 54
251 296 167 40 47 54
250 298 164 39 46 53
250 298 165 39 46 53
250 299 165 40 46 54
251 298 164 39 45 53
251 299 164 39 46 53
251 299 165 39 46 53
250 298 166 39 46 54
250 299 166 39 46 54
248 300 167 39 47 55
248 301 167 38 46 54
249 300 166 39 46 54
249 300 167 38 46 54
249 301 166 39 46 53
249 301 167 38 45 53
248 302 167 39 46 53
248 303 167 40 47 54
249 302 166 39 46 53
249 302 167 39 46 53
249 303 166 40 46 54
249 303 167 40 47 54
250 300 165 40 46 54
250 301 165 40 46 53
251 300 164 39 46 53
251 300 165 39 46 53
251 301 164 40 46 53
251 301 165 40 46 53
250 300 166 39 46 53
250 301 166 39 46 53
250 302 165 39 46 53
250 303 165 38 45 52
251 302 164 39 45 52
251 302 165 39 46 53
251 303 164 38 45 52
251 303 165 38 45 52
250 302 166 39 46 53
250 303 166 39 45 53
252 299 163 40 46 53
253 298 163 39 46 52
253 299 163 40 46 53
255 296 163 38 45 52
255 297 163 38 45 52
255 299 161 38 44 50
254 298 163 39 45 52
254 299 162 39 45 52
254 299 163 39 45 52
255 298 162 38 44 51
255 298 163 38 44 51
255 299 162 38 44 51
252 296 165 39 46 53
252 297 164 40 46 53
252 297 165 40 46 53
253 296 165 40 46 53
253 297 164 40 46 53
252 296 166 39 46 53
252 298 164 39 46 53
252 299 164 40 46 53
253 298 164 40 46 52
254 296 164 40 46 53
254 296 165 40 46 52
254 297 164 39 45 52
255 296 164 38 45 52
252 300 163 39 46 53
252 301 163 39 45 52
253 300 162 39 45 52
253 300 163 39 46 53
253 301 162 39 45 52
253 301 163 40 46 53
252 302 163 39 46 52
252 303 163 38 45 52
253 302 162 39 45 52
253 302 163 39 45 52
253 303 163 38 45 52
254 301 161 37 44 51
255 300 161 37 44 51
255 301 161 37 44 51
254 300 162 38 45 52
254 301 162 38 44 51
255 300 162 38 44 51
254 302 161 37 44 51
255 302 161 37 44 51
255 303 161 38 45 52
254 302 162 38 44 52
254 303 162 38 45 52
252 300 164 39 46 53
252 301 164 39 45 52
252 302 164 39 45 52
252 303 164 38 45 52
248 297 169 42 49 56
249 296 169 42 49 57
249 297 168 40 48 55
249 297 169 42 49 56
248 296 170 43 49 57
248 296 171 43 50 58
248 297 170 42 49 56
248 297 171 43 49 57
249 296 170 43 49 57
249 296 171 43 50 57
249 297 170 43 49 56
248 298 168 41 48 56
248 298 169 42 48 56
248 299 168 41 48 56
248 299 169 42 49 56
249 298 168 40 47 55
248 298 170 42 49 56
250 296 168 40 47 55
250 296 169 41 48 56
250 297 168 40 47 54
248 296 172 43 50 57
248 296 173 42 49 56
248 297 172 43 49 56
248 296 174 42 48 56
248 296 175 41 48 55
248 300 168 40 47 55
248 300 169 41 48 56
248 301 168 40 47 54
248 301 169 41 48 55
248 302 168 39 46 54
248 302 169 40 47 54
248 303 168 39 46 54
248 303 169 39 46 54
247 295 183 40 46 54
247 288 187 38 44 51
247 289 187 39 45 52
247 290 187 38 45 52
247 288 188 38 44 51
247 288 189 38 44 51
247 289 188 38 45 52
247 289 189 38 44 51
246 288 191 37 43 50
246 289 190 38 44 51
246 289 191 37 43 50
247 288 190 37 44 50
247 289 190 38 44 51
247 290 188 39 46 53
247 290 189 39 45 52
247 291 188 39 46 54
247 291 189 39 46 53
246 290 190 39 45 51
246 290 191 38 44 50
246 291 190 40 45 52
246 291 191 39 45 51
247 290 190 38 44 51
247 291 190 39 45 51
247 293 186 39 46 53
247 293 187 40 47 54
247 295 184 40 47 54
247 295 185 40 47 54
247 294 186 40 46 53
247 294 187 40 47 54
247 295 186 41 47 54
247 295 187 40 47 54
245 294 191 39 45 52
245 295 190 40 47 53
245 295 191 41 46 53
246 293 189 39 46 54
247 292 188 39 46 53
247 292 189 38 46 53
247 293 188 39 46 54
247 293 189 38 46 53
246 292 190 40 46 52
246 292 191 39 45 51
246 293 190 39 46 53
246 293 191 38 44 51
246 294 188 40 46 53
246 294 189 40 47 54
246 295 188 41 47 54
246 295 189 41 47 54
247 294 188 41 47 54
246 294 190 39 46 53
246 294 191 39 45 52
246 295 190 41 47 54
246 295 191 40 46 53
243 303 183 38 45 53
245 299 179 40 47 54
247 296 177 42 49 56
247 297 176 42 48 55
247 297 177 42 48 56
246 297 179 42 48 55
247 296 178 41 48 56
247 296 179 41 48 55
247 297 178 41 48 55
247 297 179 42 48 55
246 298 177 40 47 54
246 299 176 41 47 55
246 299 177 41 47 55
247 298 176 41 48 55
247 298 177 40 47 55
247 299 176 40 47 54
247 299 177 40 47 54
246 298 178 41 48 55
246 298 179 41 48 55
246 299 178 41 48 55
246 299 179 40 47 54
247 298 178 42 48 55
245 298 181 41 47 54
245 299 180 40 46 53
245 299 181 40 46 53
245 298 182 41 47 54
245 298 183 41 47 54
245 299 182 41 47 54
245 299 183 40 46 53
246 297 180 42 48 55
246 297 181 41 47 54
247 296 180 42 48 55
247 296 181 42 48 55
247 297 180 41 48 55
247 297 181 41 47 54
246 297 182 41 47 54
246 297 183 41 47 55
247 296 182 40 47 54
247 296 183 40 47 54
247 297 182 40 46 54
247 297 183 41 48 55
246 298 180 40 47 54
246 298 181 41 47 54
246 298 182 40 47 54
246 298 183 41 48 55
245 300 177 41 47 54
245 301 176 41 47 55
245 301 177 40 47 54
245 300 178 40 47 54
245 300 179 39 46 54
245 301 178 39 46 53
245 301 179 39 46 54
244 302 176 42 48 56
244 302 177 41 48 55
244 303 176 42 48 55
244 303 177 41 47 54
245 302 176 42 48 56
245 302 177 40 47 54
244 302 178 41 47 54
244 302 179 40 46 54
244 303 178 40 47 54
244 303 179 39 46 53
245 302 178 40 47 54
246 300 176 41 48 55
246 300 177 41 47 54
246 301 176 42 48 56
246 300 178 41 47 55
244 301 180 39 47 55
244 301 181 40 47 54
245 300 180 39 46 54
245 300 181 39 46 54
245 301 180 39 46 54
244 300 182 40 47 54
244 300 183 39 46 53
244 301 182 40 47 54
244 301 183 39 46 54
245 300 182 40 46 54
245 300 183 40 46 53
244 302 180 39 46 54
244 302 181 39 46 54
244 303 180 39 45 53
244 303 181 39 46 54
244 302 182 39 46 54
244 302 183 39 46 53
244 303 182 39 46 54
244 303 183 39 46 53
243 299 191 41 47 54
243 303 184 40 46 53
243 303 185 40 45 52
243 303 186 40 45 52
243 303 187 39 46 52
243 300 191 41 47 54
243 301 191 40 47 54
243 303 188 39 46 53
243 303 189 39 46 53
243 302 190 40 46 53
243 302 191 40 46 54
243 303 190 39 46 53
243 303 191 40 46 53
245 299 184 39 46 53
245 299 185 41 47 54
245 298 187 42 47 54
245 299 186 41 47 54
245 299 187 41 47 54
247 296 184 41 47 54
247 296 185 40 47 54
247 297 184 42 48 55
247 297 185 41 48 55
246 296 187 41 47 54
246 297 187 41 47 54
247 296 186 40 47 54
247 296 187 40 47 54
247 297 186 41 47 54
247 297 187 39 46 53
246 298 184 41 48 55
246 298 185 41 47 55
246 298 186 41 47 54
246 298 187 41 47 54
245 296 189 41 47 54
245 297 188 41 47 54
245 297 189 41 47 54
244 297 190 41 47 54
244 297 191 42 48 54
245 296 190 42 47 54
245 296 191 42 48 54
245 297 190 42 47 54
245 297 191 42 48 54
244 298 189 41 47 54
244 299 188 41 47 54
244 299 189 41 47 54
245 298 188 41 47 54
245 298 189 42 48 54
245 299 188 41 47 54
244 298 190 41 47 54
244 298 191 41 47 54
244 299 190 41 47 54
244 299 191 41 47 54
246 296 188 41 47 54
246 296 189 41 47 54
246 297 188 41 47 54
244 300 184 39 46 53
244 300 185 40 47 54
244 301 184 39 46 53
244 301 185 39 46 53
245 300 184 40 47 54
245 300 185 41 47 55
244 300 186 40 46 53
244 300 187 40 46 53
244 301 186 40 46 53
244 301 187 40 46 53
245 300 186 40 46 53
245 300 187 40 47 53
244 302 184 39 45 53
244 302 185 39 45 52
244 303 185 39 45 52
244 302 186 39 45 52
244 302 187 38 45 52
244 303 187 39 45 52
244 300 188 41 47 54
244 300 189 41 47 54
244 301 188 40 46 53
244 301 189 40 46 53
244 300 190 41 47 54
244 300 191 41 47 55
244 301 190 40 46 53
244 301 191 40 46 53
244 302 188 39 45 53
244 302 189 39 46 53
244 303 188 39 46 53
244 303 189 39 46 53
244 302 190 40 46 53
244 302 191 40 46 53
251 288 178 40 47 55
251 288 179 40 47 54
251 289 178 39 46 54
251 289 179 39 47 54
251 290 177 40 47 54
251 291 176 41 48 56
251 291 177 41 48 55
251 290 178 40 47 54
251 290 179 40 47 55
251 291 178 40 47 55
251 291 179 40 47 55
249 288 183 40 47 54
249 289 183 40 47 54
249 290 182 40 47 54
249 290 183 40 47 54
249 291 182 41 47 55
249 291 183 40 47 55
250 288 180 40 47 54
250 288 181 40 47 54
250 289 181 39 47 54
251 288 180 40 46 53
251 289 180 39 47 54
250 288 182 41 48 55
250 289 182 40 47 54
250 289 183 40 47 54
250 290 181 41 48 55
250 291 180 41 48 55
250 291 181 42 48 56
251 290 180 40 48 55
251 291 180 41 48 56
250 290 182 41 47 55
250 290 183 40 47 54
250 291 182 41 48 55
249 293 177 42 49 57
249 293 179 41 49 57
248 295 176 41 48 56
248 295 177 41 48 56
249 294 176 41 48 56
249 294 177 41 48 56
248 295 178 42 49 57
248 295 179 42 49 57
249 294 178 41 49 57
249 294 179 41 49 57
250 292 176 40 48 55
250 292 177 42 49 57
250 293 176 41 48 56
250 293 177 42 49 56
251 292 176 41 48 56
251 292 177 41 48 56
250 292 178 41 48 56
250 292 179 41 48 56
250 293 178 41 49 57
250 293 179 41 48 56
251 292 178 40 48 55
251 292 179 40 47 55
249 293 180 41 48 56
249 293 181 41 48 55
249 292 182 40 47 54
249 292 183 40 47 55
249 293 182 41 48 55
249 293 183 40 47 55
248 294 180 41 48 56
248 294 181 41 49 56
248 295 180 41 48 56
248 295 181 41 48 55
249 294 180 41 48 56
249 294 181 41 48 56
248 294 182 40 47 54
248 294 183 40 47 54
248 295 182 40 47 54
248 295 183 41 47 54
249 294 182 41 48 55
249 294 183 39 46 54
250 292 180 41 49 57
250 292 181 41 48 56
250 293 180 41 48 56
250 293 181 42 49 57
250 292 182 42 48 56
250 293 182 41 48 55
252 288 176 39 46 54
252 288 177 39 46 54
252 289 176 41 48 55
252 289 177 40 47 55
252 288 178 40 47 54
252 289 178 40 47 55
252 290 176 41 48 56
252 290 177 40 47 55
252 291 176 41 48 56
248 288 185 39 46 53
248 289 185 39 46 53
249 288 184 39 46 53
249 288 185 39 46 53
249 289 184 39 46 53
249 289 185 39 46 53
248 288 186 39 45 52
248 288 187 38 44 51
248 289 186 38 45 53
248 289 187 38 45 52
248 290 185 40 47 54
248 291 185 40 47 55
249 290 184 40 47 54
249 290 185 40 46 54
249 291 184 40 47 54
249 291 185 40 47 54
248 290 186 39 46 54
248 290 187 38 45 53
248 291 186 40 47 54
248 291 187 38 46 53
248 288 188 38 44 51
248 292 185 40 47 54
248 293 184 41 47 54
248 293 185 40 46 53
249 292 184 40 46 53
249 292 185 40 47 54
249 293 184 40 47 54
249 293 185 41 47 54
248 292 186 40 47 54
248 292 187 39 47 55
248 293 186 40 47 54
248 293 187 39 46 53
248 294 184 40 47 54
248 294 185 40 46 53
248 295 184 40 46 54
248 295 185 40 46 53
248 294 186 41 47 54
248 296 176 42 48 56
248 296 177 42 49 56
248 296 178 42 49 57
243 306 175 41 47 53
243 307 175 43 48 54
243 308 175 41 47 53
243 309 175 40 46 52
243 310 175 40 46 53
243 311 175 40 46 53
247 304 169 38 46 53
247 305 169 38 46 54
246 304 171 40 47 54
246 305 171 39 46 54
247 304 170 40 47 54
247 305 170 39 46 54
246 306 171 38 46 53
246 307 171 38 46 53
247 306 170 38 45 53
247 306 171 38 45 53
247 307 170 37 45 53
247 307 171 38 45 53
244 305 173 41 48 55
245 304 172 41 48 55
245 304 173 41 48 56
245 305 172 40 47 55
245 305 173 40 47 55
244 304 174 42 49 56
244 304 175 42 49 55
244 305 174 41 48 55
244 305 175 42 48 55
244 306 173 41 47 54
244 307 173 40 46 53
245 306 172 39 46 54
245 306 173 41 47 55
245 307 172 40 47 54
245 307 173 40 47 54
244 306 174 41 47 54
244 306 175 42 47 54
244 307 174 40 46 53
244 307 175 42 47 53
246 304 172 41 48 55
246 305 172 40 47 55
246 306 172 39 46 54
246 307 172 39 46 53
246 308 171 38 45 53
247 308 170 38 45 53
247 308 171 38 45 53
247 309 171 37 45 53
247 310 171 38 45 53
244 308 173 40 46 53
244 309 173 40 47 53
245 308 172 39 46 53
245 308 173 39 46 53
245 309 173 40 47 54
244 308 174 40 46 53
244 308 175 39 45 52
244 309 174 40 46 53
245 310 173 39 45 52
245 311 173 40 46 53
244 310 174 39 46 52
244 310 175 39 46 52
244 311 174 40 46 52
244 311 175 40 46 52
245 310 174 40 46 52
245 311 174 41 46 53
246 308 172 38 45 53
246 309 172 39 46 54
246 309 173 39 46 54
247 309 172 38 46 54
246 310 172 39 46 54
246 310 173 38 45 53
246 311 172 37 45 53
246 311 173 38 45 53
247 310 172 38 45 53
247 311 172 37 45 52
243 312 175 39 46 53
243 313 175 39 45 52
244 312 174 41 47 53
244 312 175 40 46 52
244 313 175 40 46 53
245 312 174 40 46 53
245 313 174 40 46 53
244 314 175 39 45 52
245 314 174 39 45 52
245 314 175 39 45 52
246 312 173 37 44 52
246 313 173 37 44 52
247 312 172 37 44 52
247 313 172 37 44 51
246 313 174 38 45 52
246 314 173 37 44 51
247 314 172 36 43 51
246 314 174 38 45 52
249 304 166 40 46 54
249 304 167 39 46 53
249 305 167 39 46 53
249 306 167 38 45 53
251 304 164 37 45 52
251 304 165 38 45 52
251 305 165 38 45 53
250 304 166 39 46 53
250 305 166 38 45 53
250 305 167 38 45 53
251 305 166 37 45 53
251 306 165 36 44 53
250 306 166 37 45 53
250 306 167 37 45 53
250 307 167 37 44 52
251 306 166 36 44 52
251 307 166 36 44 52
251 307 167 37 45 52
250 308 167 37 45 52
251 308 167 37 45 52
251 309 167 38 44 52
253 304 163 38 45 52
253 305 163 39 46 53
255 304 161 38 45 52
254 304 162 38 45 52
254 304 163 38 45 53
254 305 162 38 45 52
254 305 163 39 45 53
255 304 162 38 45 53
255 305 162 39 46 53
254 306 162 39 46 54
254 306 163 38 46 54
254 307 163 38 45 53
255 306 162 38 46 53
255 306 163 39 46 54
255 307 162 38 45 53
255 307 163 38 45 53
252 304 164 38 45 53
252 305 164 39 46 54
252 305 165 37 45 53
253 305 164 39 46 54
252 306 165 37 45 53
252 307 165 37 45 53
253 306 164 38 46 54
253 307 164 37 44 53
253 307 165 37 44 53
252 307 166 37 44 52
254 306 164 37 45 53
254 307 164 37 45 52
255 308 163 37 44 52
253 308 165 36 44 52
253 309 165 37 44 52
252 308 166 35 43 51
252 308 167 37 44 52
252 309 166 35 43 51
252 309 167 36 44 51
253 308 166 36 44 52
253 309 166 36 44 52
253 309 167 35 43 51
252 310 166 36 43 51
252 310 167 37 44 51
252 311 167 36 44 51
253 310 166 37 44 52
253 311 166 36 44 51
254 308 164 37 44 52
254 308 165 37 44 52
254 309 165 37 44 52
255 308 164 37 45 52
255 309 164 38 45 52
254 310 165 37 44 52
254 311 165 36 43 51
255 310 164 38 44 52
255 310 165 38 45 52
255 311 164 36 44 51
255 311 165 36 43 51
254 310 166 36 43 51
254 311 166 36 43 51
248 304 168 39 46 53
248 304 169 38 46 53
248 305 168 38 46 53
248 305 169 38 45 53
249 305 168 38 46 53
248 306 169 37 45 54
248 307 169 37 45 53
249 306 168 38 45 53
249 307 168 37 44 52
249 307 169 37 45 53
248 307 170 37 45 53
250 307 168 37 44 52
248 308 169 38 45 53
249 308 169 37 45 52
249 309 169 37 44 52
248 308 170 37 45 53
248 309 170 37 44 52
248 309 171 37 44 52
249 309 170 38 45 52
249 310 169 38 45 52
248 310 170 38 45 52
248 310 171 38 45 52
248 311 171 38 45 52
249 310 170 38 44 51
249 311 170 38 44 51
249 311 171 39 45 52
250 308 168 38 45 52
250 308 169 38 44 52
250 309 168 38 45 52
250 309 169 38 45 52
251 309 168 38 45 52
250 310 168 37 44 52
250 310 169 38 44 52
250 311 169 37 44 52
251 310 168 37 44 52
251 311 168 37 44 52
250 311 170 37 44 51
252 311 168 37 44 51
252 312 167 36 43 51
252 313 167 37 44 51
253 312 166 36 43 51
253 312 167 37 44 51
253 313 167 37 43 51
253 314 167 37 43 51
254 312 165 36 43 51
255 312 165 36 43 51
255 313 165 36 43 50
254 312 166 36 43 50
254 313 166 35 42 50
255 314 165 36 43 50
254 314 166 36 42 50
254 314 167 36 42 50
255 314 166 36 42 50
248 312 171 38 44 52
248 313 171 37 44 51
249 312 170 37 44 51
249 312 171 38 44 51
249 313 170 37 43 50
249 313 171 37 44 51
248 314 171 37 43 50
249 314 170 37 43 50
249 314 171 37 43 50
250 312 169 37 44 51
250 313 169 37 44 51
251 312 168 37 44 51
251 312 169 37 44 51
251 313 168 37 44 51
251 313 169 37 44 51
250 313 170 37 43 51
250 314 169 37 44 51
251 314 168 36 43 50
251 314 169 37 43 51
250 314 170 37 43 50
248 314 172 36 43 50
252 312 168 37 44 51
252 313 168 36 43 51
252 314 168 36 43 51
243 304 177 41 47 54
243 305 176 42 47 54
243 305 177 41 47 54
243 304 178 40 47 54
243 304 179 39 46 53
243 305 178 41 47 54
243 305 179 39 46 54
243 306 176 42 47 54
243 306 177 42 48 54
243 307 176 42 48 54
243 307 177 42 48 55
242 307 178 42 48 55
242 307 179 42 48 55
243 306 178 41 47 54
243 306 179 40 47 54
243 307 178 42 48 55
243 307 179 41 48 55
243 304 180 38 45 53
243 304 181 38 46 53
243 305 180 38 46 54
243 305 181 38 46 54
243 304 182 38 45 53
243 304 183 39 46 53
243 305 182 38 46 53
243 305 183 39 46 53
242 307 180 41 48 55
242 307 181 40 47 55
243 306 180 39 47 55
243 306 181 40 47 54
243 307 180 40 47 55
243 307 181 40 47 55
242 307 182 39 46 54
242 307 183 40 47 54
243 306 182 39 46 54
243 306 183 40 46 54
243 307 182 40 47 55
243 307 183 39 46 54
242 308 177 42 48 55
242 309 176 41 47 54
242 309 177 41 48 55
243 308 176 41 47 54
243 308 177 42 48 55
243 309 176 41 47 54
242 308 178 42 48 55
242 308 179 41 48 56
242 309 178 42 48 55
242 309 179 42 49 56
242 310 176 41 47 54
242 310 177 41 48 55
242 311 176 39 46 54
242 311 177 40 47 55
243 310 176 41 47 54
243 311 176 40 46 54
242 310 178 41 48 56
242 310 179 41 48 56
242 311 178 40 47 55
242 311 179 40 47 55
242 308 180 41 48 56
242 308 181 41 47 55
242 309 180 42 49 56
242 309 181 41 48 55
242 308 182 39 46 54
242 308 183 40 47 54
242 309 182 39 46 54
242 309 183 40 46 54
242 310 180 42 48 56
242 310 181 41 48 55
242 311 180 41 48 55
242 311 181 41 48 55
242 310 182 41 48 55
242 310 183 41 47 55
242 311 182 41 48 55
242 311 183 41 47 55
244 304 176 41 48 54
244 304 177 41 47 54
244 305 176 42 47 54
244 304 178 40 47 54
244 304 179 39 46 53
244 304 180 38 45 53
243 304 184 39 46 53
243 304 185 39 46 53
243 305 184 39 46 53
243 305 185 40 46 53
243 304 186 39 45 52
243 304 187 39 45 52
243 305 186 39 46 53
243 305 187 38 45 52
242 307 184 39 46 53
242 307 185 38 45 53
243 306 184 40 46 53
243 306 185 39 46 53
243 307 184 39 46 53
242 306 186 38 45 52
242 306 187 38 45 53
242 307 186 38 45 52
242 307 187 38 45 53
243 306 186 39 46 53
243 306 187 38 45 52
243 304 188 39 46 53
243 304 189 39 46 53
243 305 188 39 46 53
243 305 189 39 45 53
243 304 190 39 46 53
243 304 191 41 47 53
243 305 190 39 45 52
243 305 191 40 46 53
242 307 188 38 45 53
242 307 189 39 45 53
243 306 188 38 45 53
243 306 189 38 45 53
242 306 190 39 46 53
242 306 191 41 47 54
242 307 190 40 46 54
242 307 191 40 47 54
243 306 190 39 46 53
243 306 191 41 47 54
242 308 184 39 46 53
242 308 185 38 45 53
242 309 184 39 46 53
242 309 185 39 46 54
242 308 186 38 45 53
242 308 187 38 45 53
242 309 186 38 45 53
242 309 187 38 46 53
242 310 184 41 47 55
242 310 185 40 47 55
242 311 184 41 48 55
242 311 185 41 48 55
242 310 186 38 46 54
242 310 187 39 46 54
242 311 186 39 47 54
242 311 187 38 46 53
242 308 188 38 45 53
242 308 189 39 46 54
242 309 188 38 45 53
242 309 189 38 45 53
242 308 190 40 46 54
242 308 191 40 47 54
242 309 190 39 46 54
242 309 191 40 47 54
242 310 188 39 46 54
242 310 189 38 45 53
242 311 188 38 45 53
242 311 189 38 45 53
242 310 190 39 45 53
242 310 191 40 46 54
242 311 190 38 45 53
242 311 191 38 45 53
241 312 179 38 46 54
241 313 179 39 47 54
241 314 179 39 47 54
242 312 176 40 46 54
242 312 177 40 47 54
242 313 177 37 44 52
243 312 176 39 46 53
243 313 176 39 46 53
243 313 177 38 45 52
242 312 178 39 46 54
242 312 179 39 47 54
242 313 178 38 46 54
242 313 179 39 46 54
243 314 176 38 45 52
243 314 177 38 45 52
242 314 178 39 46 54
242 314 179 39 46 54
241 312 180 40 47 55
241 312 181 41 48 56
241 313 180 40 47 55
241 313 181 40 47 55
241 312 182 41 48 55
241 312 183 41 47 55
241 313 182 41 47 55
241 313 183 41 47 55
241 314 180 39 47 55
241 314 181 40 48 55
241 314 182 41 48 55
241 314 183 41 48 55
242 312 180 41 48 55
242 312 181 41 48 55
242 312 182 41 48 55
242 312 183 41 48 55
242 313 183 41 47 55
244 314 176 39 45 52
241 312 185 40 47 54
241 313 184 40 46 54
241 313 185 39 46 54
241 312 186 39 46 54
241 313 186 39 46 54
241 313 187 38 45 53
241 314 184 40 47 55
241 314 185 38 46 53
241 314 186 38 45 52
241 314 187 38 45 53
242 312 184 41 48 55
242 312 185 41 47 55
242 312 186 39 46 54
242 312 187 37 45 53
242 313 186 39 46 53
242 313 187 38 45 52
242 314 187 38 45 52
242 312 188 38 45 53
242 312 189 38 45 53
242 313 188 38 45 53
242 313 189 38 45 52
242 312 190 38 45 52
242 312 191 38 45 52
242 313 190 39 45 53
242 313 191 39 46 53
242 314 188 38 45 52
242 314 189 38 45 52
242 314 190 39 46 53
242 314 191 39 46 53
242 315 190 39 46 53
242 315 191 40 46 53
247 267 195 40 47 54
247 264 196 39 45 53
247 265 196 38 45 52
247 266 196 39 46 53
247 267 196 39 46 53
247 269 194 39 46 53
247 269 195 39 46 53
247 270 192 39 46 53
247 270 193 38 45 53
247 271 192 39 45 52
247 271 193 38 45 52
247 270 194 38 45 53
247 270 195 39 46 54
247 271 194 38 45 53
247 271 195 38 45 53
247 269 196 40 47 54
247 270 196 40 47 54
248 256 192 38 45 52
248 256 193 38 44 52
248 257 192 38 45 52
248 257 193 39 45 52
248 256 194 38 44 51
248 256 195 38 45 52
248 257 194 38 44 51
248 257 195 37 44 51
248 258 192 39 45 52
248 258 193 39 45 51
248 259 193 39 45 52
249 258 192 39 45 52
249 259 192 39 45 52
249 259 193 39 45 52
248 258 194 38 44 51
248 258 195 38 44 51
248 259 194 40 45 52
248 259 195 39 45 52
248 256 196 39 46 53
248 257 196 38 45 52
248 258 196 38 45 52
248 259 196 39 46 53
248 260 193 39 45 52
249 260 192 39 45 52
249 260 193 39 45 52
249 261 192 39 46 53
249 261 193 39 45 52
248 260 194 39 45 52
248 260 195 39 45 52
248 261 194 39 45 52
248 261 195 40 46 52
249 261 194 40 46 53
249 262 193 40 47 54
249 263 193 40 47 54
248 262 194 39 45 52
248 262 195 39 45 52
248 263 194 39 45 53
248 263 195 39 45 52
249 262 194 39 46 53
249 263 194 39 46 53
250 261 192 40 46 53
250 261 193 41 47 54
250 262 192 39 46 53
250 262 193 41 47 54
250 263 192 39 46 53
250 263 193 41 47 54
248 260 196 40 46 53
248 261 196 40 46 53
248 262 196 39 45 53
248 263 196 39 46 53
249 264 192 40 46 54
249 264 193 40 47 54
249 265 192 39 46 53
249 265 193 40 47 55
248 264 194 39 45 53
248 264 195 38 45 52
248 265 194 39 46 53
248 265 195 38 45 52
249 264 194 39 46 54
249 265 194 39 46 53
248 266 193 40 47 54
248 267 192 39 46 54
248 267 193 39 46 54
249 266 192 40 47 54
249 266 193 40 47 55
248 266 194 40 46 54
248 266 195 39 46 53
248 267 194 40 47 54
248 267 195 41 47 54
249 266 194 39 46 53
250 264 192 40 46 54
250 264 193 41 47 54
248 264 196 39 46 53
248 265 196 38 45 53
248 266 196 39 46 53
248 267 196 40 47 54
248 268 192 38 45 53
248 268 193 39 46 54
248 269 192 38 45 53
248 269 193 39 46 53
248 268 194 40 46 54
248 268 195 41 47 54
248 269 194 39 46 53
248 269 195 40 47 54
245 274 192 39 46 53
245 274 193 40 46 54
245 275 192 40 46 53
245 275 193 40 47 54
245 275 194 40 46 54
246 272 192 39 45 53
246 272 193 39 46 53
246 273 192 39 46 53
246 273 193 39 46 53
247 272 192 38 45 53
247 272 193 39 46 53
246 272 194 38 45 53
246 273 194 39 46 53
246 273 195 39 46 54
247 272 194 38 46 53
247 272 195 38 46 53
247 273 195 39 46 54
246 274 192 39 46 53
246 274 193 39 46 54
246 274 194 39 46 54
246 274 195 40 47 54
246 275 194 40 46 54
246 275 195 40 47 54
246 273 196 39 46 53
245 276 192 40 46 53
245 276 193 40 47 54
245 277 192 39 46 53
245 277 193 39 46 53
245 276 194 39 46 54
245 276 195 39 46 53
245 277 194 39 46 53
245 277 195 39 46 53
245 278 192 40 47 53
245 278 193 40 46 54
245 279 192 40 46 53
245 279 193 40 46 53
245 278 194 40 46 54
245 278 195 39 46 54
245 279 194 40 47 54
245 279 195 40 47 54
246 276 195 39 46 53
245 280 192 39 46 53
245 280 193 39 46 53
245 281 192 39 45 52
245 281 193 39 45 52
244 281 194 38 45 53
244 281 195 38 46 54
245 280 194 39 46 53
245 280 195 40 46 54
245 281 194 38 45 53
245 282 192 39 45 52
245 282 193 39 45 53
245 283 192 38 44 51
245 283 193 38 45 52
244 282 194 38 45 53
244 282 195 38 45 53
244 283 194 38 45 52
244 283 195 38 45 53
245 282 194 39 46 53
245 283 194 39 45 53
245 284 192 37 43 50
245 284 193 38 45 51
245 285 192 38 44 50
245 285 193 38 44 51
244 284 194 38 45 52
244 284 195 38 45 53
244 285 194 38 44 52
244 285 195 38 45 53
245 286 192 37 43 50
245 286 193 38 44 51
245 287 192 37 43 49
245 287 193 37 44 51
244 286 194 38 45 52
244 286 195 39 46 54
244 287 194 38 45 52
244 287 195 39 46 54
245 287 194 38 44 51
246 284 192 37 43 49
246 285 192 37 43 49
246 286 192 36 42 49
246 287 192 36 42 49
245 288 192 37 43 50
245 288 193 37 44 50
245 289 192 37 43 50
245 289 193 37 44 50
244 288 194 38 45 52
244 288 195 39 46 53
244 289 194 38 45 52
244 289 195 38 45 53
245 288 194 37 44 51
245 289 194 37 44 51
245 290 192 37 43 50
245 290 193 36 43 50
245 291 192 37 43 50
245 291 193 36 43 50
244 290 195 37 45 52
244 291 195 36 44 51
245 290 194 36 43 51
245 291 194 35 43 50
245 291 195 35 43 51
246 288 192 37 43 50
246 289 192 36 43 50
246 290 192 37 43 50
246 291 192 38 44 51
246 291 193 37 43 50
245 292 193 36 43 50
245 293 192 38 45 52
245 293 193 38 44 51
244 292 195 37 44 52
244 293 195 36 43 51
245 292 194 35 43 50
245 292 195 36 43 51
245 293 194 37 43 50
245 293 195 36 43 50
244 295 193 40 46 53
245 294 192 40 46 52
245 294 193 39 45 52
245 295 192 41 46 53
245 295 193 41 46 53
244 294 194 37 44 51
244 294 195 36 43 51
244 295 194 38 45 52
244 295 195 36 44 51
245 294 194 38 45 51
245 295 194 39 45 52
246 292 192 37 44 50
246 292 193 36 43 50
246 293 192 38 44 51
246 294 192 40 46 52
243 298 192 41 47 54
243 298 193 41 47 54
243 299 192 40 47 54
243 299 193 40 47 54
243 298 194 40 47 54
243 298 195 39 46 54
243 299 194 41 47 54
243 299 195 40 47 54
243 300 192 41 47 54
243 300 193 40 47 54
243 301 192 41 47 54
243 301 193 41 48 55
243 300 194 40 47 54
243 300 195 40 46 53
243 301 194 40 47 54
243 301 195 40 46 53
243 302 192 41 47 54
243 302 193 41 47 54
243 303 192 41 47 54
243 303 193 41 47 54
243 302 194 40 47 54
243 302 195 40 46 53
243 303 194 40 47 54
243 303 195 39 46 53
244 296 192 42 48 54
244 296 193 40 46 53
244 297 192 41 47 54
244 297 193 40 47 54
245 296 192 42 47 54
244 296 194 39 46 53
244 296 195 38 45 52
244 297 194 39 46 53
244 297 195 38 45 53
244 298 192 41 47 54
244 298 193 41 47 54
244 298 194 40 46 54
244 298 195 39 46 53
243 304 192 41 47 54
243 304 193 41 47 54
243 305 192 41 47 54
243 305 193 41 46 53
243 304 194 41 47 53
243 304 195 40 46 53
243 305 194 40 46 53
243 305 195 39 46 53
242 306 192 40 47 54
242 307 192 41 47 54
242 307 193 41 47 54
243 306 192 40 46 53
243 306 193 40 46 53
243 307 193 41 47 53
242 307 194 41 47 54
243 306 194 40 46 53
243 306 195 40 46 53
243 307 194 40 46 53
243 307 195 40 46 53
242 308 192 41 47 54
242 308 193 41 47 54
242 309 192 41 47 54
242 309 193 41 47 54
242 308 194 41 47 54
242 309 194 40 47 53
242 309 195 41 47 54
243 308 195 41 47 54
243 309 195 41 47 54
242 310 192 40 47 54
242 310 193 40 46 54
242 311 192 38 45 53
242 311 193 38 45 52
242 310 194 39 46 53
242 310 195 40 46 53
242 311 194 38 45 52
242 311 195 39 46 53
242 312 192 39 45 53
242 312 193 38 45 52
242 313 192 39 45 53
242 313 193 38 45 53
242 312 194 37 45 52
242 312 195 38 45 53
242 313 194 37 44 52
242 313 195 37 45 53
242 314 192 39 46 53
242 314 193 39 46 53
242 315 192 39 46 53
242 315 193 39 46 53
242 314 194 39 46 53
242 314 195 39 46 53
242 315 194 39 46 53
242 315 195 39 46 53
268 254 159 39 46 53
268 255 159 38 45 53
269 254 158 39 46 53
269 254 159 39 46 53
269 255 158 39 45 53
269 255 159 39 46 53
271 254 157 39 46 53
271 255 157 39 46 54
270 254 158 39 45 53
270 255 158 39 46 53
271 254 158 38 45 53
271 255 158 39 46 53
275 255 155 39 46 54
272 254 157 39 46 53
272 255 157 39 46 54
273 254 156 39 46 54
273 254 157 39 46 53
273 255 156 39 46 54
274 254 156 39 46 54
274 255 156 39 46 54
275 254 156 39 46 54
275 255 156 39 46 54
277 255 153 40 47 54
276 255 154 39 46 54
276 255 155 39 47 54
277 255 154 39 46 54
278 255 153 39 46 54
279 255 152 39 46 53
280 255 151 39 46 53
281 255 151 39 46 53
282 255 151 40 46 53
283 255 151 40 47 54
284 255 151 40 46 53
258 252 167 39 46 53
259 253 166 39 46 54
259 253 167 39 46 53
259 254 167 38 46 53
259 255 167 39 46 54
263 253 163 38 45 52
263 254 163 39 46 53
263 255 163 39 46 54
260 253 165 38 46 53
261 253 164 39 45 53
261 253 165 39 46 53
260 253 166 39 46 54
260 254 165 39 46 54
260 255 165 39 46 54
261 254 164 39 46 53
261 254 165 39 46 53
261 255 165 39 46 54
260 254 166 40 46 54
260 255 166 39 46 54
260 255 167 39 46 54
262 253 164 38 45 52
262 254 164 39 45 53
262 255 164 39 46 54
262 255 165 39 46 54
263 255 164 39 46 54
257 252 169 39 46 54
257 253 169 39 46 54
256 252 170 39 47 55
256 253 170 39 47 55
256 254 169 40 47 54
257 254 169 39 46 54
257 255 169 39 46 54
256 254 170 39 47 54
256 255 170 39 46 54
257 255 170 39 46 54
258 252 168 39 46 53
258 253 168 39 46 53
258 253 169 39 46 54
259 253 168 39 46 53
258 254 168 39 46 53
258 254 169 39 46 54
258 255 168 39 46 54
258 255 169 39 46 54
259 255 168 39 46 54
265 253 161 38 45 53
264 253 162 38 45 53
264 253 163 38 45 52
265 253 162 38 45 53
265 254 161 38 45 53
265 255 161 40 47 54
264 254 162 39 46 53
264 254 163 39 46 53
264 255 162 40 47 55
264 255 163 40 47 54
265 254 162 38 46 53
265 255 162 40 47 54
266 253 161 38 45 53
266 254 161 38 45 53
266 255 161 39 46 54
267 254 160 38 45 53
267 255 160 38 45 53
268 254 160 38 45 53
268 255 160 38 45 53
268 256 159 39 46 54
268 257 159 40 47 54
269 256 159 39 46 53
269 257 159 41 47 55
269 258 159 40 47 54
269 259 159 39 46 54
271 256 157 39 47 54
271 257 157 40 47 55
270 256 158 40 46 54
270 256 159 40 47 54
270 257 158 41 47 55
270 257 159 41 47 55
271 256 158 40 47 54
271 257 158 40 47 55
271 258 157 40 47 55
271 259 157 40 47 55
270 258 158 40 47 55
270 258 159 40 47 54
270 259 159 38 46 54
271 258 158 40 47 55
271 259 158 39 46 54
270 260 159 37 44 52
270 261 159 36 44 52
271 260 158 37 45 53
271 260 159 37 45 53
271 261 158 36 44 52
271 261 159 36 44 52
270 262 159 35 43 51
271 262 158 36 44 52
271 262 159 35 43 51
271 263 158 36 44 51
271 263 159 36 43 51
271 264 159 36 43 50
271 265 158 36 43 50
271 265 159 36 43 50
271 266 158 37 44 50
271 266 159 37 43 50
271 267 158 37 43 50
271 267 159 37 43 50
269 271 159 38 44 51
270 268 159 37 44 50
270 269 159 36 43 50
271 268 158 37 43 49
271 268 159 37 43 50
271 269 158 37 43 50
271 269 159 37 43 50
270 270 159 37 43 50
270 271 158 39 45 52
270 271 159 38 45 51
271 270 158 38 44 51
271 271 158 40 46 53
267 276 159 40 46 54
267 277 159 39 46 53
266 278 159 39 46 53
266 279 159 40 46 53
267 278 158 39 46 53
267 278 159 39 46 53
267 279 158 39 46 53
267 279 159 39 46 53
271 275 155 39 46 53
269 272 159 38 45 51
269 273 159 39 45 52
268 274 159 41 47 54
268 275 159 40 46 53
269 274 158 39 45 53
269 274 159 40 46 53
269 275 158 39 45 53
269 275 159 39 46 53
271 272 157 40 46 53
271 273 157 38 45 52
270 272 158 39 46 53
270 272 159 39 45 52
270 273 158 39 46 52
270 273 159 39 45 52
271 272 158 39 46 53
271 273 158 39 46 53
270 274 157 38 45 52
270 275 157 38 45 52
271 274 156 38 45 52
271 274 157 38 45 53
271 275 156 38 45 53
270 274 158 38 45 52
270 275 158 38 45 52
271 276 155 40 47 54
271 277 155 40 47 55
268 277 157 40 46 54
269 276 157 39 46 53
269 277 157 40 46 54
268 276 158 39 46 53
268 276 159 39 46 53
268 277 158 40 46 54
268 277 159 39 46 53
269 276 158 40 46 53
268 278 157 40 47 54
268 279 157 41 47 55
269 278 157 40 47 54
269 279 157 41 48 55
268 278 158 39 46 54
268 279 158 40 46 54
270 276 156 40 46 54
270 276 157 39 46 53
270 277 156 40 47 54
270 277 157 40 46 54
271 276 156 40 46 54
271 277 156 40 47 55
270 278 156 40 47 55
270 278 157 40 47 55
270 279 156 41 48 55
270 279 157 41 48 55
271 278 156 41 48 55
271 279 156 41 48 56
265 280 159 39 45 53
265 281 159 39 46 53
264 282 159 37 44 52
264 283 159 38 45 52
265 282 159 39 46 53
265 283 159 39 46 53
267 281 157 40 47 54
266 280 158 40 46 53
266 280 159 39 46 53
266 281 158 40 46 54
266 281 159 40 46 54
267 280 158 40 47 54
267 281 158 40 46 54
267 282 157 40 47 54
267 283 157 39 46 53
266 282 158 40 46 54
266 283 158 40 46 54
267 282 158 40 46 54
267 283 158 39 46 53
264 284 159 36 44 52
264 285 159 37 44 52
265 284 159 37 44 52
265 285 159 37 44 51
265 286 159 36 44 51
265 287 159 36 43 51
266 284 158 37 44 52
266 285 158 37 44 51
266 285 159 37 44 52
267 284 158 36 43 51
267 285 158 36 43 50
266 286 158 37 44 51
266 286 159 36 43 51
266 287 159 36 43 50
267 286 158 37 43 50
267 287 158 36 43 50
267 287 159 36 43 50
268 280 157 41 47 55
268 281 157 41 48 55
269 280 157 41 48 55
269 281 157 41 48 55
268 282 157 41 47 55
268 283 157 39 46 54
269 282 157 40 47 55
269 283 157 38 45 53
270 280 157 41 48 55
270 281 157 40 47 55
271 280 156 41 48 56
271 280 157 41 48 56
271 281 157 41 48 55
270 282 157 39 46 54
270 283 157 39 46 53
271 282 157 40 46 54
271 283 157 39 46 53
270 283 158 37 44 52
271 283 158 38 45 52
268 284 157 37 44 52
269 284 157 37 44 52
268 284 158 36 43 51
268 285 158 35 43 50
269 284 158 35 43 51
269 285 158 35 43 50
268 286 158 37 43 50
268 287 158 37 43 50
268 287 159 37 43 50
269 286 158 37 43 50
269 286 159 37 43 50
269 287 159 37 43 50
270 284 158 37 44 51
270 285 158 37 44 51
271 284 158 38 44 52
271 285 158 38 44 51
271 285 159 38 44 51
270 286 158 37 43 51
270 286 159 37 43 50
270 287 159 36 43 50
271 286 159 37 44 51
271 287 159 37 43 50
279 256 151 40 46 54
279 257 151 39 46 54
279 258 151 39 46 54
279 259 151 40 46 54
279 260 151 39 45 53
274 256 155 40 47 55
274 257 155 41 48 55
275 256 155 40 47 55
275 257 154 40 47 55
275 257 155 40 47 55
274 258 155 41 48 55
274 259 155 39 46 54
275 258 154 40 47 55
275 258 155 41 48 55
275 259 154 39 46 54
275 259 155 39 46 53
272 256 157 40 47 55
272 257 157 40 48 56
273 256 156 39 47 55
273 257 156 40 47 55
272 258 157 40 47 55
272 259 157 39 47 55
273 258 156 40 47 55
273 259 156 39 46 54
273 259 157 39 46 54
274 256 156 40 47 55
274 258 156 40 47 55
274 259 156 40 47 54
274 260 155 38 46 53
275 260 154 38 45 53
275 260 155 37 45 52
275 261 154 37 44 52
275 261 155 36 44 51
275 262 155 36 44 51
275 263 155 36 43 51
272 260 157 38 46 53
272 261 157 37 45 53
273 260 156 37 45 53
273 260 157 38 45 53
273 261 156 37 45 53
273 261 157 37 45 53
272 260 158 38 45 53
272 261 158 37 45 53
272 262 157 37 45 53
273 262 157 37 45 53
273 263 157 37 45 52
272 262 158 37 44 52
272 263 158 37 44 52
274 260 156 37 45 52
274 261 156 37 44 52
274 262 156 37 44 52
274 263 156 37 44 52
275 262 156 36 44 51
275 263 156 36 44 51
277 256 153 39 47 54
277 257 153 40 47 55
276 256 154 40 47 55
276 256 155 39 47 54
276 257 154 40 47 55
277 256 154 39 47 54
277 257 154 39 47 54
277 258 153 40 47 55
277 259 153 39 47 54
276 258 154 39 47 55
276 259 154 39 46 54
278 256 152 39 46 53
278 256 153 39 46 54
278 257 152 40 47 54
278 257 153 40 47 55
279 256 152 39 46 53
279 257 152 39 46 53
278 258 152 40 47 55
278 258 153 40 47 55
278 259 152 39 46 53
278 259 153 39 46 54
279 258 152 39 46 54
279 259 152 39 46 54
277 260 153 39 46 53
277 261 153 38 45 53
276 260 154 38 45 53
276 261 154 38 45 52
277 261 154 37 45 52
277 262 153 37 44 52
276 262 154 37 44 52
276 263 154 38 44 51
276 263 155 37 44 51
277 262 154 37 44 51
277 263 154 38 44 51
278 260 152 38 46 53
278 260 153 39 46 53
278 261 152 37 44 52
278 261 153 37 44 52
279 260 152 39 46 53
279 261 152 37 44 52
278 262 152 37 44 51
278 262 153 37 44 51
278 263 152 38 44 51
278 263 153 37 44 51
279 262 152 37 44 51
279 263 152 39 45 52
275 264 155 37 44 51
275 265 155 38 44 52
274 266 155 39 45 52
274 267 155 38 45 52
275 266 155 39 45 52
275 267 154 39 45 52
275 267 155 39 46 53
273 264 157 37 44 52
273 265 157 38 45 52
272 264 158 37 44 51
272 265 158 37 44 51
272 267 157 37 44 50
273 266 157 38 45 52
273 267 156 38 45 52
273 267 157 38 45 51
272 266 158 38 45 51
272 267 158 37 44 50
274 264 156 37 44 52
274 265 156 38 44 52
275 264 156 37 44 51
275 265 156 38 45 52
274 266 156 38 45 52
274 267 156 38 45 52
275 266 156 38 45 52
273 271 155 39 46 53
274 268 155 39 46 53
274 269 155 40 47 54
275 268 154 39 45 53
275 268 155 39 46 53
275 269 154 39 46 53
275 269 155 40 46 53
274 270 155 40 47 53
274 271 155 40 46 53
275 270 154 40 46 53
275 270 155 40 47 53
275 271 154 40 46 53
272 268 157 38 44 51
272 269 157 38 44 51
273 268 156 38 45 52
273 268 157 38 44 51
273 269 156 39 46 53
273 269 157 39 45 52
272 268 158 37 43 50
272 269 158 37 44 50
272 270 157 39 45 52
272 271 156 39 45 52
272 271 157 39 45 52
273 270 156 39 46 53
273 271 156 39 46 53
272 270 158 38 44 51
274 268 156 39 45 52
274 269 156 40 46 53
277 265 153 38 45 52
276 264 154 38 44 51
276 264 155 37 44 51
276 265 154 38 44 51
276 265 155 38 44 51
277 264 154 38 44 51
277 265 154 38 44 51
277 266 153 38 45 52
277 267 153 39 45 53
276 266 154 39 45 52
276 267 154 39 45 52
277 266 154 38 45 52
278 264 152 38 45 52
278 264 153 37 44 51
278 265 152 39 46 53
278 265 153 38 45 52
279 264 152 39 45 52
279 265 152 39 46 53
278 266 152 40 46 53
278 266 153 39 46 53
278 267 152 41 47 54
278 267 153 41 47 54
279 266 152 40 47 54
279 267 152 41 47 54
276 268 153 39 46 53
276 269 153 39 46 53
277 268 153 40 46 53
277 269 153 40 47 54
276 268 154 39 46 53
276 269 154 39 46 53
276 270 153 40 46 53
277 270 153 40 47 54
277 271 153 41 48 55
276 270 154 40 46 53
276 271 154 41 47 54
277 271 154 42 48 56
278 268 152 41 47 54
278 268 153 41 47 54
278 269 153 41 47 55
279 268 152 41 47 54
279 269 152 41 47 54
279 269 153 41 47 54
278 270 153 41 48 55
278 271 153 42 49 56
279 270 153 41 48 55
279 271 153 42 48 56
279 271 154 42 49 56
280 256 151 40 46 54
280 257 151 40 46 54
281 256 151 39 46 53
281 257 151 39 46 53
280 258 151 40 47 54
280 259 151 39 46 53
281 258 151 40 47 54
281 259 151 39 46 54
282 256 151 39 46 53
282 257 151 40 46 54
283 256 151 40 47 54
283 257 151 41 47 54
282 258 151 40 46 54
282 259 151 40 46 54
283 258 151 41 47 54
283 259 151 40 47 54
280 260 151 39 45 53
280 261 151 38 45 52
281 260 151 39 46 53
281 261 151 39 45 52
280 262 151 38 45 52
280 263 151 39 46 53
281 262 151 39 46 53
281 263 151 41 47 54
282 260 151 39 46 53
282 261 151 40 46 53
283 260 151 41 47 54
283 261 151 41 47 54
282 262 151 40 46 53
282 263 151 41 47 54
283 262 151 41 48 55
283 263 151 42 48 55
284 256 151 40 47 54
284 257 151 41 47 54
285 256 151 40 47 54
285 257 151 41 47 54
284 258 151 40 47 54
284 259 151 41 47 54
285 258 151 41 47 54
285 259 151 42 48 55
286 256 151 41 47 54
286 257 151 41 47 54
287 256 151 41 47 54
287 257 151 41 47 54
286 258 151 41 47 54
286 259 151 42 48 55
287 258 151 41 47 54
287 259 151 42 48 54
284 260 151 41 47 54
284 261 151 41 47 54
285 260 151 41 47 54
285 261 151 42 47 54
284 262 151 41 48 55
284 263 151 42 48 55
285 262 151 42 48 55
285 263 151 42 48 55
286 260 151 41 47 54
286 261 151 42 48 54
287 260 151 41 47 54
280 263 152 39 46 53
285 263 152 42 48 55
286 261 152 41 47 54
287 260 152 41 47 54
287 261 152 41 47 54
286 262 152 42 48 55
286 263 152 42 48 55
287 262 152 41 48 55
287 263 152 41 48 55
280 264 151 40 47 54
280 265 151 40 47 54
281 264 151 42 48 55
281 265 151 42 48 55
281 266 151 42 48 56
282 264 151 42 48 55
282 265 151 42 49 56
283 264 151 42 48 55
283 265 151 43 49 56
282 266 151 43 49 56
283 266 151 44 50 57
284 264 151 43 49 56
284 265 151 43 49 56
285 264 151 43 49 56
285 265 151 43 49 56
280 264 152 39 46 53
280 265 152 40 47 54
280 266 152 42 48 55
280 267 152 43 49 56
281 266 152 42 49 56
281 267 152 43 49 56
282 266 152 43 49 56
282 267 152 43 49 57
283 266 152 43 49 56
283 267 152 43 49 57
280 268 152 43 49 56
280 269 152 42 48 56
280 269 153 42 48 56
281 268 152 43 49 56
281 269 152 42 49 56
281 269 153 42 49 56
280 270 153 42 49 56
281 270 153 42 49 56
280 271 154 43 49 57
281 270 154 43 50 57
281 271 154 43 50 57
282 268 152 43 50 57
282 269 153 43 49 57
283 268 152 43 50 57
283 269 153 43 49 57
282 270 153 43 49 57
283 270 153 43 50 57
282 270 154 43 50 57
282 271 154 43 50 58
283 270 154 43 50 57
283 271 154 43 50 58
283 271 155 43 50 58
285 264 152 43 49 56
285 265 152 43 49 56
284 266 152 43 49 56
284 267 152 43 49 57
285 266 152 43 49 57
285 267 152 43 50 57
286 264 152 42 48 56
286 265 152 43 49 56
287 264 152 41 48 56
287 265 152 42 48 56
286 266 152 43 49 56
286 267 152 42 49 56
286 267 153 42 49 57
287 266 152 42 48 56
287 266 153 41 48 56
287 267 153 42 49 56
284 268 152 43 49 57
284 268 153 43 50 57
284 269 153 43 50 57
285 268 152 43 50 57
285 268 153 43 50 58
285 269 153 43 50 58
284 270 153 43 50 58
284 270 154 43 50 57
284 271 154 43 50 58
284 271 155 44 51 58
285 270 154 43 50 57
285 271 154 43 50 58
285 271 155 44 50 58
286 268 152 43 49 57
286 268 153 43 50 58
286 269 153 43 50 58
287 268 153 42 49 57
287 269 153 43 50 57
286 269 154 42 49 57
287 269 154 42 49 57
286 270 154 42 49 57
286 271 154 43 50 57
286 271 155 42 49 57
287 270 154 43 50 58
287 271 155 43 50 58
273 272 155 39 46 53
273 273 155 40 47 54
272 274 155 40 46 54
272 275 155 40 47 54
273 274 155 40 47 54
273 275 155 41 48 55
274 272 155 40 47 54
274 273 155 41 47 55
275 272 154 41 48 55
275 273 154 42 48 56
275 273 155 42 48 56
274 274 155 42 48 56
274 275 155 42 49 56
275 274 154 42 48 56
275 274 155 42 49 56
275 275 155 43 50 57
272 272 156 39 45 52
272 272 157 38 45 52
272 273 156 38 45 52
272 273 157 38 45 52
273 272 156 39 45 53
273 273 156 39 46 53
272 274 156 38 45 53
272 275 156 38 45 53
272 276 155 41 48 55
272 277 155 41 48 56
273 276 155 41 48 56
273 277 155 42 49 57
274 276 155 42 49 56
274 277 155 43 50 58
275 276 155 43 50 58
275 277 155 43 50 58
272 277 156 42 49 57
272 278 156 42 49 56
272 279 156 42 49 57
273 278 156 42 49 57
273 279 156 42 49 57
274 278 156 43 50 58
274 279 156 42 49 57
275 278 156 43 50 58
275 279 156 42 49 57
276 272 154 42 48 55
276 273 154 42 48 56
277 272 154 42 48 56
277 273 154 42 49 57
276 274 154 42 48 56
276 274 155 42 49 56
276 275 155 42 49 57
277 274 154 43 50 58
277 274 155 43 50 58
277 275 155 43 50 58
278 272 154 42 49 57
278 273 154 43 49 57
279 272 154 43 49 57
279 273 154 43 49 57
279 273 155 43 50 57
278 274 154 43 50 58
278 274 155 43 50 58
278 275 155 44 51 58
279 274 155 44 50 58
279 275 155 44 50 58
276 276 155 43 50 58
276 277 155 43 50 57
277 276 155 43 50 58
277 277 155 43 50 58
278 276 155 44 51 58
279 276 155 44 51 58
276 277 156 43 50 57
277 277 156 42 49 57
276 278 156 42 49 57
276 279 156 42 48 56
277 278 156 42 49 57
277 279 156 41 48 56
277 279 157 41 48 56
278 277 156 43 50 58
279 276 156 43 50 58
279 277 156 43 50 58
278 278 156 42 49 57
278 278 157 42 49 56
278 279 157 41 48 55
279 278 156 42 49 56
279 278 157 41 48 55
279 279 157 40 47 54
272 280 156 42 48 56
272 280 157 42 48 56
272 281 157 42 49 56
273 280 156 41 48 56
273 280 157 41 48 56
273 281 157 40 47 55
272 282 157 40 47 55
273 282 157 39 47 55
272 282 158 39 46 54
272 283 158 37 45 52
273 282 158 38 46 54
273 283 158 37 45 53
274 280 156 41 48 56
274 280 157 41 48 56
274 281 157 40 47 55
275 280 156 42 49 56
275 280 157 41 48 56
275 281 157 39 46 54
275 281 158 38 45 53
274 282 157 39 46 54
274 282 158 38 45 53
274 283 158 37 44 52
275 282 158 38 45 52
275 283 158 37 44 51
275 283 159 37 44 51
272 284 158 37 44 51
272 285 159 37 44 51
273 284 158 37 44 51
273 284 159 37 44 51
273 285 159 37 43 50
272 286 159 37 44 50
272 287 159 37 43 50
273 286 159 38 44 50
273 287 159 37 43 49
274 284 158 37 44 51
274 284 159 37 44 51
274 285 159 37 43 50
275 284 159 37 44 51
275 285 159 37 44 50
274 286 159 37 43 50
274 287 159 37 43 49
275 286 159 36 42 49
275 287 159 37 42 49
276 280 157 39 47 54
276 281 157 38 45 53
277 280 157 39 46 54
277 281 157 37 45 52
276 281 158 38 45 53
277 281 158 37 44 52
276 282 158 37 44 52
276 283 158 38 44 52
276 283 159 38 44 52
277 282 158 37 44 52
277 283 159 38 44 52
278 280 157 39 46 53
279 280 157 39 45 53
278 280 158 38 45 52
278 281 158 37 44 52
279 280 158 37 44 52
279 281 158 36 43 51
278 282 158 37 44 52
278 283 159 37 44 51
279 282 158 36 43 51
279 282 159 36 43 51
279 283 159 37 43 51
276 284 159 38 44 51
276 285 159 37 44 50
277 284 159 37 44 51
277 285 159 37 43 50
276 286 159 36 42 49
276 287 159 36 42 49
277 286 159 36 43 49
277 287 159 36 43 49
278 284 159 37 44 51
278 285 159 37 43 50
279 284 159 37 44 50
279 285 159 37 43 50
278 286 159 37 43 50
278 287 159 36 43 49
279 286 159 37 43 49
279 287 159 37 43 49
280 272 154 43 50 57
280 273 154 43 49 57
280 273 155 43 50 57
281 272 154 44 50 58
281 272 155 44 50 58
281 273 155 43 50 58
280 274 155 43 50 57
280 275 155 43 49 57
281 274 155 43 50 57
282 272 154 44 50 58
282 272 155 44 50 58
282 273 155 44 51 58
283 272 155 43 50 58
283 273 155 43 50 58
280 275 156 42 49 57
281 274 156 43 49 57
281 275 156 42 49 57
282 273 156 43 50 58
283 273 156 43 50 58
282 274 156 42 49 57
282 275 156 43 50 58
282 275 157 43 50 58
283 274 156 43 50 58
283 275 157 43 50 58
280 276 156 43 50 57
280 277 156 43 50 57
280 277 157 42 49 57
281 276 156 43 49 57
281 276 157 42 49 57
281 277 157 42 49 57
280 278 157 41 47 55
280 279 157 41 47 54
281 278 157 41 48 56
281 279 157 40 47 54
280 279 158 39 45 53
281 279 158 40 46 54
282 276 156 42 49 57
282 276 157 43 50 58
282 277 157 42 49 57
283 276 157 43 50 58
283 277 157 43 49 57
283 277 158 42 49 56
282 278 157 42 49 56
282 278 158 42 48 56
282 279 158 40 46 54
283 278 158 41 48 56
283 279 158 39 46 53
284 272 155 45 51 59
285 272 155 44 51 59
286 272 155 43 50 58
287 272 155 42 49 57
284 273 156 44 51 58
285 273 156 44 51 59
284 274 156 44 51 58
284 275 157 43 50 58
285 274 156 44 51 58
285 275 156 44 51 58
285 275 157 43 50 58
286 273 156 43 50 58
287 273 156 43 50 58
286 274 156 43 50 58
286 275 157 43 50 58
287 274 156 43 50 57
287 275 157 42 49 57
284 276 157 43 50 58
285 276 157 42 50 57
284 277 158 42 49 57
285 277 158 41 48 56
284 278 158 41 48 55
284 279 158 39 46 53
285 278 158 41 48 55
285 279 158 39 46 53
286 276 157 42 49 57
287 276 157 41 48 56
286 277 158 42 48 56
287 276 158 40 48 56
287 277 158 41 48 55
286 278 158 41 48 55
286 279 158 39 45 53
287 278 158 41 47 55
287 279 158 39 45 53
280 280 158 38 45 52
280 281 158 37 44 51
281 280 158 38 45 52
281 281 158 37 44 51
280 282 158 37 44 51
280 282 159 37 44 51
280 283 159 38 44 51
281 282 158 37 44 51
281 283 159 37 44 51
282 280 158 38 45 53
282 281 158 37 44 51
283 280 158 38 45 53
283 281 158 38 44 52
282 282 158 37 44 51
282 283 159 37 44 50
283 282 158 37 44 51
283 283 159 38 44 51
280 284 159 38 44 51
280 285 159 37 43 50
281 284 159 38 44 51
281 285 159 37 43 50
280 286 159 37 42 49
280 287 159 37 42 49
281 286 159 37 43 49
281 287 159 36 42 48
282 284 159 38 44 50
282 285 159 37 43 50
283 284 159 38 44 50
283 285 159 37 43 49
282 286 159 37 42 49
282 287 159 37 43 49
283 286 159 37 42 48
283 287 159 37 42 48
284 280 158 38 45 52
284 281 158 38 44 52
285 280 158 38 45 52
285 281 158 38 44 51
284 282 158 37 44 51
284 283 159 37 44 50
285 282 158 37 44 51
285 282 159 37 43 50
285 283 159 37 43 50
286 280 158 38 45 52
286 281 158 38 44 51
287 280 158 38 44 51
287 281 158 38 44 51
287 281 159 38 44 51
286 282 158 38 44 51
286 282 159 37 44 50
286 283 159 37 43 50
287 282 159 38 44 50
287 283 159 37 43 49
284 284 159 37 43 50
284 285 159 37 42 49
285 284 159 37 43 50
285 285 159 36 42 49
284 286 159 37 43 49
284 287 159 37 42 48
285 286 159 36 42 48
285 287 158 37 43 49
285 287 159 37 43 49
286 284 159 37 43 49
286 285 159 36 42 48
287 284 159 36 42 49
287 285 159 36 42 48
286 286 159 36 42 48
286 287 158 37 43 49
286 287 159 37 42 49
287 286 159 36 42 48
287 287 158 37 43 49
259 256 167 39 46 54
259 257 167 39 46 54
263 256 163 40 47 55
261 256 165 38 46 54
261 257 165 39 46 54
260 256 166 38 46 54
260 256 167 38 46 53
260 257 166 39 46 54
260 257 167 39 46 54
261 256 166 38 46 54
261 257 166 39 47 55
260 258 166 39 46 54
260 258 167 39 46 54
260 259 167 40 47 55
261 258 166 40 47 55
261 259 166 40 47 55
261 259 167 40 47 55
262 256 164 39 46 54
262 256 165 38 46 54
262 257 164 40 47 55
262 257 165 39 47 55
263 256 164 39 46 54
263 257 164 40 47 55
262 258 165 40 47 55
262 259 165 40 48 56
263 258 164 41 48 56
263 259 164 40 48 56
263 259 165 40 47 55
262 259 166 40 48 56
261 260 166 39 47 55
261 260 167 39 47 55
261 261 167 38 46 54
261 262 167 37 45 53
262 260 165 38 46 54
