ply
format ascii 1.0
comment PCL generated
element vertex 2155
property float x
property float y
property float z
property uchar red
property uchar green
property uchar blue
element camera 0
property float view_px
property float view_py
property float view_pz
property float x_axisx
property float x_axisy
property float x_axisz
property float y_axisx
property float y_axisy
property float y_axisz
property float z_axisx
property float z_axisy
property float z_axisz
property float focal
property float scalex
property float scaley
property float centerx
property float centery
property int viewportx
property int viewporty
property float k1
property float k2
end_header
370 640 242 85 92 101
370 640 243 82 89 98
370 641 242 87 93 103
370 641 243 83 90 100
370 642 240 82 88 97
370 642 241 85 91 100
370 643 240 78 84 93
370 643 241 81 87 97
370 642 242 87 93 103
370 642 243 86 93 102
370 643 242 85 91 100
371 643 242 84 90 100
371 643 243 86 93 102
370 640 244 80 86 94
370 640 245 78 84 93
370 641 244 79 85 94
370 641 245 79 84 93
370 640 246 75 82 92
370 640 247 76 83 92
370 641 246 78 84 92
370 641 247 80 85 94
370 642 244 82 89 98
370 642 245 81 87 96
371 642 244 87 94 104
371 643 244 90 97 107
371 643 245 85 92 103
370 642 246 79 85 93
370 642 247 81 86 95
370 643 246 76 82 92
370 643 247 80 84 93
371 643 246 78 85 95
370 644 240 74 81 91
370 644 241 77 84 94
370 645 240 78 85 95
370 645 241 77 85 95
371 644 241 78 85 94
371 645 241 78 85 95
371 644 242 80 87 97
371 644 243 86 93 103
371 645 242 81 88 99
371 645 243 94 100 111
370 646 240 95 101 112
370 646 241 89 96 107
370 647 240 103 111 122
370 647 241 101 108 119
371 646 241 87 95 106
370 647 242 103 109 121
371 646 242 89 96 107
371 646 243 102 109 119
371 647 242 98 106 117
371 647 243 105 112 123
371 644 244 89 97 108
371 644 245 88 96 107
371 645 244 102 109 120
371 645 245 103 111 123
370 644 247 75 81 89
371 644 246 80 88 99
371 644 247 76 83 93
371 645 246 95 103 115
371 645 247 82 89 100
371 646 244 116 123 135
371 646 245 117 125 137
371 647 244 112 119 131
371 647 245 110 118 130
371 646 246 107 115 127
371 646 247 92 100 111
371 647 246 105 113 125
371 647 247 100 108 119
370 640 248 93 98 107
370 640 249 101 106 116
370 641 248 85 91 99
370 641 249 95 99 108
370 640 250 100 106 117
370 640 251 100 107 118
370 641 250 99 103 112
370 641 251 109 115 125
370 642 248 77 82 91
370 642 249 82 86 94
370 643 248 80 84 92
370 643 249 76 80 87
370 642 250 94 97 104
370 642 251 115 120 130
370 643 250 85 87 94
370 643 251 98 102 111
370 640 252 117 123 135
370 640 253 138 146 159
370 641 252 121 129 142
370 641 253 121 133 149
370 640 254 130 139 153
370 640 255 111 120 133
370 641 254 124 137 154
370 641 255 115 126 141
370 642 252 128 135 148
370 642 253 128 138 153
370 643 252 104 111 122
370 643 253 110 119 132
370 642 254 130 141 157
370 642 255 118 128 143
370 643 254 116 125 139
370 643 255 101 111 125
370 644 248 77 81 89
370 644 249 76 80 88
370 645 248 72 78 87
370 645 249 72 78 86
371 645 248 75 82 91
370 644 250 74 78 86
370 644 251 88 92 100
370 645 250 71 76 85
370 645 251 78 84 93
370 646 249 70 78 88
371 646 248 79 86 96
371 646 249 75 82 93
371 647 248 99 105 115
371 647 249 93 101 112
370 646 250 67 75 85
370 646 251 81 86 95
370 647 250 70 80 92
370 647 251 77 83 93
371 647 250 92 101 113
369 645 253 92 97 107
369 644 254 107 111 121
369 644 255 106 110 119
369 645 254 94 99 110
369 645 255 99 104 113
369 647 253 91 95 103
369 646 254 94 98 107
369 646 255 100 104 114
369 647 254 95 99 107
369 647 255 98 102 110
370 644 252 98 102 111
370 644 253 97 103 113
370 645 252 93 97 107
370 645 253 94 100 110
370 644 254 101 107 118
370 644 255 99 106 117
370 646 252 91 95 103
370 646 253 92 95 103
370 647 252 79 84 93
370 647 253 87 92 100
369 650 240 103 109 121
369 651 240 94 101 112
369 651 241 93 99 110
370 648 240 104 111 123
370 648 241 103 111 122
370 649 240 102 110 122
370 649 241 102 109 121
370 648 242 103 110 121
370 649 242 98 106 118
370 649 243 96 104 116
371 648 243 104 111 122
370 650 240 104 111 122
370 650 241 99 106 118
370 651 241 98 104 115
370 650 242 96 103 114
370 650 243 94 101 112
370 651 242 96 101 111
370 651 243 96 101 110
370 649 244 96 102 114
371 648 244 105 112 123
371 648 245 103 109 120
371 649 244 98 105 115
371 649 245 99 104 114
371 648 246 106 112 121
371 648 247 107 112 121
371 649 246 102 107 116
371 649 247 106 109 118
370 650 244 95 101 111
370 651 244 96 99 108
370 651 245 96 101 109
371 650 244 96 102 112
371 650 245 99 104 113
370 651 246 98 102 111
371 650 246 101 105 115
371 650 247 101 104 113
371 651 246 97 102 111
371 651 247 100 105 114
369 652 240 88 93 102
369 652 241 89 94 104
369 653 240 88 93 102
369 653 241 88 93 102
369 652 242 91 95 105
369 652 243 91 95 105
369 653 242 88 93 102
369 653 243 89 94 103
369 654 240 89 95 105
369 654 241 90 95 105
369 655 240 95 101 112
369 655 241 95 101 111
369 654 242 90 95 104
369 654 243 91 96 104
369 655 242 93 99 108
369 655 243 94 98 107
370 652 243 94 98 106
369 653 244 92 97 105
369 654 244 93 98 107
369 655 244 94 98 107
369 655 245 100 104 112
370 652 244 95 99 108
370 652 245 97 102 111
370 653 244 94 99 108
370 653 245 103 108 117
370 652 246 100 105 115
370 652 247 101 107 118
370 653 246 111 116 126
370 653 247 114 119 130
371 652 247 100 105 115
370 654 244 99 104 114
370 654 245 110 115 125
370 655 245 106 110 119
370 654 246 128 132 143
370 654 247 132 137 148
370 655 246 124 128 138
370 655 247 130 135 146
371 648 248 121 125 134
371 648 249 133 138 149
371 649 248 120 123 131
371 649 249 138 142 152
370 648 251 91 101 114
370 649 251 107 118 133
371 648 250 122 130 143
371 648 251 119 128 142
371 649 250 138 145 157
371 649 251 124 134 148
371 650 248 107 109 117
371 650 249 122 124 132
371 651 248 100 105 113
371 651 249 100 104 114
371 650 250 133 138 148
371 650 251 128 135 148
371 651 250 108 113 124
371 651 251 121 126 139
369 648 254 83 87 95
369 648 255 94 98 106
369 649 254 76 80 88
369 649 255 91 95 102
369 650 255 84 89 98
370 648 252 67 78 91
370 648 253 67 75 87
370 649 252 89 101 116
370 649 253 67 78 94
370 648 254 63 69 80
370 649 254 60 67 78
370 650 252 114 123 137
370 650 253 97 106 119
370 651 253 108 115 127
371 650 252 120 128 141
371 651 252 121 127 139
371 651 253 111 118 129
370 650 254 66 74 85
370 650 255 67 74 85
370 651 254 91 98 108
370 651 255 69 75 84
370 653 248 108 114 125
371 652 248 100 106 116
371 652 249 99 105 115
371 653 248 97 103 114
371 653 249 98 103 113
371 652 250 99 104 115
371 652 251 104 110 122
371 653 250 100 104 114
371 653 251 102 107 117
370 654 248 122 127 139
370 654 249 105 111 122
370 655 248 119 126 138
370 655 249 101 108 120
371 654 249 100 105 116
370 654 250 94 100 111
370 655 250 95 101 112
370 655 251 94 100 110
371 654 250 95 100 110
371 654 251 98 102 112
371 655 251 95 101 112
370 652 253 101 107 118
370 653 253 98 104 115
371 652 252 103 110 121
371 652 253 100 106 117
371 653 252 100 106 117
371 653 253 99 104 115
370 652 254 101 107 117
370 652 255 90 96 105
370 653 254 97 104 115
370 653 255 96 103 114
370 654 253 97 105 117
370 655 252 111 117 128
370 655 253 126 133 146
371 654 252 100 105 116
371 654 253 97 104 115
370 654 254 99 109 123
370 654 255 101 111 125
370 655 254 126 136 151
370 655 255 120 132 149
368 659 227 94 101 111
368 656 231 89 95 105
368 657 230 88 95 105
368 657 231 88 95 105
368 658 229 90 97 107
368 659 228 91 98 109
368 659 229 89 97 108
368 658 230 90 97 107
368 658 231 90 97 107
368 659 230 90 97 108
368 659 231 92 98 109
368 661 225 92 98 107
368 660 226 99 105 115
368 660 227 98 104 114
368 661 226 95 101 111
368 661 227 101 107 117
368 662 224 86 92 100
368 662 225 89 94 104
368 663 224 83 89 99
368 663 225 85 91 101
368 662 226 91 98 107
368 662 227 99 106 116
368 663 226 90 97 107
368 663 227 99 105 116
368 660 228 97 104 114
368 660 229 93 100 111
368 661 228 104 110 121
368 661 229 98 106 118
368 660 230 92 99 110
368 660 231 92 99 110
368 661 230 96 104 115
368 661 231 100 107 118
368 662 228 102 109 120
368 662 229 100 108 119
368 663 228 100 107 118
368 663 229 96 105 117
369 663 229 93 102 114
368 662 230 102 110 122
368 662 231 105 113 124
368 663 230 102 110 122
369 663 230 95 103 115
369 663 231 100 108 120
368 656 232 90 96 106
368 656 233 90 96 106
368 657 232 91 97 107
368 657 233 92 97 107
368 656 234 90 96 106
368 656 235 90 96 106
368 657 234 92 99 108
368 657 235 94 99 109
368 658 232 91 97 107
368 658 233 93 99 108
368 659 232 92 98 108
368 659 233 94 99 109
368 658 234 96 101 110
368 658 235 97 102 110
368 659 234 96 101 110
368 659 235 97 102 111
368 656 236 90 96 106
368 656 237 93 98 108
368 657 236 94 100 109
368 657 237 95 100 109
369 657 237 95 101 110
368 656 238 93 99 108
369 656 238 97 102 111
369 656 239 100 105 114
369 657 238 100 105 113
369 657 239 113 116 125
368 658 236 95 100 109
368 658 237 94 100 109
368 659 236 96 101 110
368 659 237 93 99 108
369 658 237 95 101 110
369 659 237 96 101 110
369 658 238 101 105 114
369 658 239 117 120 127
369 659 238 99 103 112
369 659 239 106 109 116
368 660 232 91 98 109
368 660 233 92 99 109
368 661 232 101 109 120
368 661 233 103 111 122
368 660 234 94 101 112
368 660 235 92 100 110
368 661 234 105 112 124
368 661 235 93 101 113
368 662 232 106 113 126
368 662 233 108 115 127
369 662 233 106 113 124
369 663 232 102 110 122
369 663 233 101 108 119
368 662 234 112 118 129
369 662 234 109 115 126
369 662 235 97 104 116
369 663 234 103 109 118
369 663 235 95 101 112
368 660 236 94 99 109
368 661 236 89 98 110
369 660 236 90 97 108
369 660 237 96 102 112
369 661 236 88 96 109
369 661 237 93 101 113
369 660 238 101 107 117
369 660 239 100 106 116
369 661 238 115 122 135
369 661 239 118 126 138
369 662 236 85 94 107
369 662 237 95 103 116
369 663 236 84 93 104
369 663 237 91 98 110
369 662 238 118 126 139
369 662 239 128 136 149
369 663 238 106 112 124
369 663 239 105 113 126
368 664 224 84 90 99
368 664 225 86 92 101
368 665 224 83 89 98
368 665 225 83 90 99
368 664 226 89 95 105
368 664 227 96 102 113
368 665 226 85 92 102
368 665 227 87 93 103
369 664 227 93 101 111
369 665 227 86 93 103
368 666 224 83 89 97
368 666 225 84 90 99
368 667 224 85 89 98
368 667 225 91 95 104
368 666 226 84 90 100
368 667 226 90 95 104
369 666 226 86 91 100
369 666 227 84 90 100
369 667 226 93 98 106
369 667 227 88 94 102
369 664 228 94 102 113
369 664 229 89 97 108
369 665 228 86 93 104
369 665 229 85 93 104
369 664 230 89 97 107
369 664 231 96 104 115
369 665 230 87 94 104
369 665 231 90 97 107
369 666 228 83 90 100
369 666 229 85 92 102
369 667 228 84 90 99
369 667 229 84 91 100
369 666 230 87 93 103
370 665 231 90 97 107
370 667 229 85 91 101
370 666 230 87 93 103
370 666 231 87 94 104
370 667 230 87 93 103
370 667 231 87 94 104
368 668 224 83 88 96
368 668 225 88 92 101
368 669 224 78 83 91
369 668 225 90 95 103
369 669 224 77 83 90
369 669 225 79 84 92
369 668 226 92 96 105
369 668 227 84 90 98
369 669 226 80 85 93
369 669 227 79 84 92
368 670 224 78 82 90
369 670 224 77 82 90
369 670 225 76 81 89
369 671 224 77 82 90
369 671 225 75 80 88
369 670 226 74 79 87
369 670 227 75 81 89
369 671 226 73 78 86
370 670 227 73 79 87
370 671 226 72 77 85
370 671 227 72 78 86
369 668 228 81 87 96
369 669 228 78 84 93
370 668 228 81 87 96
370 668 229 84 90 99
370 669 228 79 85 94
370 669 229 84 90 99
370 668 230 86 92 102
370 668 231 86 93 103
370 669 230 87 93 102
370 669 231 86 93 102
371 669 230 87 94 103
371 669 231 87 93 103
370 670 228 77 83 92
370 670 229 82 88 97
370 671 228 76 82 90
371 670 229 81 87 97
371 671 228 77 83 91
371 671 229 82 87 95
370 670 230 83 89 99
371 670 230 86 93 103
371 670 231 92 98 108
371 671 230 91 97 106
371 671 231 96 102 111
372 671 231 92 98 107
369 664 232 100 108 118
369 664 233 99 106 117
369 665 232 96 103 114
369 665 233 96 103 114
369 664 234 96 102 112
369 664 235 93 98 107
369 665 234 93 99 110
369 665 235 92 97 105
370 665 232 93 100 110
370 665 233 93 100 111
370 665 234 90 97 108
370 665 235 91 97 105
370 666 232 88 95 105
370 666 233 90 97 107
370 667 232 88 94 104
370 667 233 89 95 105
371 667 233 90 96 106
370 666 234 89 97 107
370 666 235 87 94 104
370 667 234 89 96 106
370 667 235 87 95 105
371 667 234 90 97 107
371 667 235 90 97 108
369 664 236 85 92 102
369 664 237 83 90 101
369 665 236 87 92 101
369 665 237 83 90 100
369 664 238 93 99 110
369 664 239 95 102 113
369 665 238 83 90 101
369 665 239 86 93 105
370 665 236 89 93 102
370 665 237 86 91 100
370 665 238 86 91 101
370 665 239 83 90 101
370 666 236 87 94 103
370 666 237 88 94 103
370 667 236 88 96 107
370 667 237 90 98 108
371 667 236 92 100 112
371 667 237 97 105 117
370 666 238 89 94 103
370 666 239 86 93 103
370 667 238 92 98 107
370 667 239 92 98 107
371 667 238 96 103 114
370 668 232 87 93 103
371 668 232 87 94 103
371 668 233 89 95 105
371 669 232 88 95 105
371 669 233 90 96 106
371 668 234 94 100 109
371 668 235 102 108 119
371 669 234 94 100 110
371 669 235 102 109 119
371 670 232 91 97 107
371 670 233 91 97 107
371 670 234 90 97 107
371 668 236 106 114 125
371 668 237 107 115 128
371 669 236 111 118 130
371 669 237 113 121 133
370 668 239 96 102 111
371 668 238 104 112 124
371 668 239 102 109 120
371 669 238 106 115 127
371 669 239 97 106 118
371 670 238 108 116 128
371 670 239 95 104 117
372 670 233 92 99 108
372 671 232 91 97 107
372 671 233 90 96 106
372 670 234 91 98 108
372 670 235 94 101 111
372 671 234 90 96 106
372 671 235 90 97 107
372 669 236 109 116 128
372 669 237 115 122 134
372 670 236 100 107 117
372 670 237 111 118 129
372 671 236 93 99 108
372 671 237 97 104 114
372 670 238 111 119 131
372 670 239 98 106 118
372 671 238 99 105 116
372 671 239 94 102 112
369 656 240 107 112 121
369 656 241 102 108 118
369 657 240 114 117 125
369 657 241 105 110 119
369 656 242 91 98 109
369 656 243 90 96 106
369 657 242 94 101 111
369 657 243 89 96 106
369 658 240 119 120 127
369 658 241 105 108 116
369 659 240 112 115 121
369 659 241 103 106 113
369 658 242 94 100 110
369 658 243 91 98 108
369 659 242 96 101 110
369 659 243 95 101 111
369 656 244 93 98 107
369 656 245 98 102 110
369 657 244 90 96 106
369 657 245 94 99 108
369 658 244 91 98 108
369 658 245 90 96 106
369 659 244 96 102 111
369 659 245 97 103 112
370 656 245 105 108 116
370 657 245 97 101 108
370 656 246 113 116 124
370 656 247 122 126 135
370 657 246 97 100 108
370 657 247 102 105 114
370 658 245 92 98 107
370 659 245 98 103 113
370 658 246 94 98 107
370 658 247 93 98 106
370 659 246 97 103 113
370 659 247 95 101 110
369 660 240 98 102 111
369 660 241 95 100 108
369 661 240 108 115 127
369 661 241 97 103 113
369 660 242 94 100 109
369 660 243 95 101 111
369 661 242 93 98 108
369 661 243 93 99 109
369 662 240 116 124 137
369 662 241 100 108 119
369 663 240 100 108 120
369 663 241 96 103 113
369 662 242 97 104 114
369 662 243 98 105 115
369 663 242 98 104 114
369 663 243 100 106 117
369 660 244 98 104 113
369 660 245 108 112 122
369 661 244 100 105 114
369 661 245 117 120 129
369 661 246 129 132 141
369 661 247 129 134 144
369 662 244 99 104 115
369 662 245 100 106 117
369 663 244 100 106 117
369 663 245 98 104 114
369 662 246 102 108 120
369 662 247 106 113 125
369 663 246 99 105 115
369 663 247 101 107 117
370 660 245 115 119 128
370 660 246 118 122 132
370 660 247 109 115 126
370 661 246 134 136 146
370 661 247 129 134 144
370 656 248 117 124 135
370 656 249 98 106 118
370 657 248 102 107 118
370 657 249 93 100 111
370 656 250 97 102 113
370 656 251 97 102 111
370 657 250 93 99 108
370 657 251 95 100 110
370 658 248 92 97 106
370 658 249 92 97 107
370 659 248 95 100 109
370 659 249 95 100 109
370 658 250 95 100 110
370 658 251 97 103 112
370 659 250 95 100 109
370 659 251 98 102 110
369 659 252 99 106 119
369 659 253 123 131 146
369 658 255 115 129 147
369 659 254 130 140 157
369 659 255 120 132 150
370 656 252 101 107 117
370 656 253 126 133 145
370 657 252 101 105 114
370 657 253 123 128 138
370 656 254 131 141 156
370 656 255 133 144 161
370 657 254 128 136 150
370 657 255 131 140 155
370 658 252 105 110 119
370 658 253 126 131 143
370 659 252 100 106 117
370 659 253 110 119 134
370 658 254 132 140 153
370 658 255 120 132 148
370 659 254 132 142 157
370 659 255 129 141 159
369 661 248 106 114 126
369 661 249 100 106 118
369 660 250 94 100 111
369 660 251 95 101 110
369 661 250 96 103 114
369 661 251 98 104 115
369 662 248 100 108 121
369 662 249 102 108 118
369 663 248 98 104 116
369 663 249 99 105 115
369 662 250 105 110 119
369 662 251 121 127 138
369 663 250 102 108 118
369 663 251 125 130 142
370 660 248 98 105 116
370 660 249 97 103 113
370 661 248 108 114 126
370 660 250 93 99 109
370 660 251 96 101 110
369 660 252 98 104 113
369 660 253 104 110 122
369 661 252 99 107 120
369 661 253 99 107 120
369 660 254 117 124 139
369 660 255 106 114 130
369 661 254 98 104 116
369 661 255 99 105 117
369 662 252 124 131 144
369 662 253 115 123 136
369 663 252 138 142 154
369 663 253 136 140 152
368 662 254 102 108 119
368 662 255 101 106 115
368 663 254 108 113 124
368 663 255 103 107 117
369 662 254 106 113 124
369 662 255 101 104 115
369 663 254 120 125 136
370 660 252 100 105 114
369 664 240 91 98 109
369 664 241 94 99 108
369 665 240 85 93 104
369 665 241 89 95 104
369 664 242 106 110 119
369 664 243 116 121 132
369 665 242 105 110 119
369 665 243 127 132 143
369 666 241 86 92 102
369 666 242 89 95 106
369 666 243 101 108 119
370 666 240 84 91 100
370 666 241 85 91 101
370 667 240 87 93 101
370 667 241 87 92 100
370 666 242 86 92 102
370 667 242 87 92 101
370 667 243 88 95 105
369 664 244 119 126 138
369 664 245 106 113 125
369 665 244 139 144 156
369 665 245 131 137 148
369 664 246 97 104 115
369 664 247 100 106 116
369 665 246 104 111 122
369 665 247 97 103 113
369 666 244 125 131 143
369 666 245 130 136 147
369 667 244 102 111 124
369 667 245 111 119 131
369 666 246 118 124 135
369 666 247 112 118 129
369 667 246 112 119 130
369 667 247 112 118 129
370 667 244 89 98 110
370 668 240 92 97 105
370 668 241 90 94 102
371 668 240 94 100 108
371 669 240 92 99 108
371 669 241 90 95 104
370 668 242 88 92 100
370 668 243 90 95 103
370 669 242 87 92 100
370 669 243 86 91 99
371 669 242 87 92 101
371 669 243 86 92 101
371 670 240 87 95 107
371 670 241 87 93 101
371 671 241 88 94 103
371 670 242 87 92 100
371 670 243 88 94 103
371 671 242 87 92 101
371 671 243 88 95 105
369 668 245 106 114 125
369 668 246 109 114 125
369 668 247 112 117 126
369 669 247 103 107 116
370 668 244 86 93 103
370 668 245 94 102 114
370 669 244 87 93 102
370 669 245 89 96 106
371 669 244 85 90 99
370 668 246 101 108 118
370 669 246 92 99 109
370 669 247 93 99 108
371 670 244 86 92 102
371 670 245 92 97 106
371 671 244 88 96 107
371 671 245 95 101 111
370 670 246 92 101 113
370 670 247 92 101 113
370 671 247 102 112 125
371 670 246 100 108 118
371 671 246 111 117 128
371 671 247 106 115 129
372 670 240 89 98 110
372 671 240 89 97 108
372 671 241 89 96 106
372 671 242 89 95 104
369 664 248 99 105 115
369 664 249 98 103 114
369 665 248 97 102 112
369 665 249 98 102 112
369 664 250 98 104 115
369 664 251 98 105 115
369 665 250 97 102 112
369 665 251 99 103 113
369 666 248 97 103 113
369 666 249 93 98 107
369 667 248 95 102 113
369 667 249 91 96 105
368 666 251 94 98 107
368 667 251 90 93 101
369 666 250 93 97 105
369 666 251 93 97 105
369 667 250 91 95 103
369 667 251 91 94 102
368 664 252 100 106 118
368 664 253 109 114 125
368 665 252 99 104 115
368 665 253 98 103 114
369 664 252 100 107 119
369 665 252 98 104 114
368 664 254 103 108 118
368 664 255 99 105 116
368 665 254 97 102 112
368 665 255 98 104 114
368 666 252 96 100 109
368 666 253 97 102 112
368 667 252 95 98 107
368 667 253 96 100 108
368 666 254 95 100 110
368 666 255 97 102 112
368 667 254 91 96 104
368 667 255 90 96 106
369 668 248 93 99 109
369 668 249 90 94 103
369 669 248 90 95 104
369 669 249 86 92 101
369 668 250 89 93 102
369 668 251 89 93 101
369 669 250 86 92 101
369 669 251 86 92 101
369 670 250 88 96 107
369 670 251 91 98 108
369 671 251 111 117 128
370 669 248 88 93 103
370 670 248 93 101 111
370 670 249 91 98 108
370 671 248 108 115 126
370 671 249 107 113 122
371 671 248 114 123 135
370 670 250 96 104 115
370 670 251 103 109 120
370 671 250 108 114 125
370 671 251 115 121 132
368 668 252 95 99 107
368 668 253 94 98 106
368 669 253 90 95 103
369 668 252 90 94 102
369 669 252 85 91 100
369 669 253 87 93 102
368 668 254 92 96 104
368 668 255 90 96 105
368 669 254 92 96 105
368 669 255 91 96 105
369 670 252 86 93 104
369 670 253 88 95 104
369 671 252 96 102 113
369 671 253 89 96 106
368 670 254 90 96 105
368 670 255 92 98 107
369 670 254 90 96 105
369 671 254 90 97 107
369 671 255 101 106 117
370 671 252 106 113 124
352 675 199 71 77 86
352 676 199 72 77 85
352 677 198 78 83 91
352 677 199 74 80 88
353 676 199 72 78 86
353 677 199 72 78 86
352 679 197 68 74 82
352 678 198 78 83 91
352 679 198 71 77 85
353 678 198 73 79 87
353 678 199 73 79 87
353 679 198 70 76 84
354 677 199 72 78 86
354 678 199 72 78 86
354 679 198 71 76 84
354 679 199 72 77 84
355 678 199 72 78 86
355 679 199 71 77 85
356 679 199 70 76 83
352 672 201 71 77 85
352 673 200 69 76 84
352 673 201 69 76 84
353 672 201 71 77 86
353 673 201 71 78 86
353 672 202 74 80 88
353 673 202 72 78 86
352 674 200 70 76 84
352 675 200 71 78 86
353 674 200 71 77 85
353 674 201 71 77 86
353 675 200 73 79 87
354 673 201 73 79 87
354 672 202 77 83 91
354 672 203 80 85 93
354 673 202 76 82 90
355 672 203 80 86 94
355 673 202 79 85 93
355 673 203 80 86 94
354 674 201 74 80 88
354 675 200 74 80 88
354 675 201 74 80 89
355 675 201 76 82 90
354 674 202 77 83 91
355 674 202 78 84 92
355 675 202 77 83 91
352 676 200 72 78 86
353 676 200 73 79 87
354 676 200 75 81 89
354 677 200 73 79 88
355 676 200 76 82 90
355 676 201 77 83 91
355 677 200 76 82 90
355 678 200 75 81 89
356 672 203 81 87 95
356 673 202 80 86 94
356 673 203 81 87 95
357 672 203 80 86 94
357 673 203 81 86 94
356 674 202 79 85 93
356 674 203 80 86 94
356 675 202 78 84 92
357 674 203 81 87 94
357 675 202 81 86 94
357 675 203 81 86 94
358 673 203 80 85 93
358 674 203 80 86 93
358 675 203 80 86 94
357 672 204 78 85 93
357 673 204 79 85 93
358 672 204 77 83 92
358 672 205 78 84 92
358 673 204 78 84 91
359 672 205 78 84 93
359 673 205 77 83 91
359 672 206 80 86 94
358 674 204 78 83 91
358 675 204 78 84 92
359 674 204 77 83 91
359 674 205 77 83 90
359 675 204 77 83 90
359 675 205 75 81 89
356 676 201 78 84 92
356 677 200 82 87 96
356 677 201 82 88 96
357 677 201 85 90 98
356 676 202 79 84 92
357 676 202 80 86 94
357 677 202 83 88 96
356 678 200 78 84 92
356 678 201 82 87 96
356 679 200 71 77 85
357 678 201 81 87 95
357 679 200 72 78 86
357 679 201 73 79 87
358 676 202 80 85 93
358 676 203 79 84 92
358 677 202 80 85 93
358 677 203 78 84 91
359 676 203 78 84 92
359 677 203 78 84 91
358 679 201 72 78 86
358 678 202 79 84 92
358 679 202 75 80 88
359 678 203 78 83 91
359 679 202 75 81 89
359 679 203 76 82 90
359 676 204 77 82 90
359 677 204 79 84 92
359 678 204 78 84 91
352 680 197 69 75 82
352 681 197 70 76 83
353 680 197 69 75 82
353 681 197 69 75 82
352 680 198 68 74 82
353 680 198 69 74 82
352 682 196 74 80 87
352 682 197 72 78 85
352 683 196 75 81 89
353 682 197 71 77 85
353 683 196 75 81 89
353 683 197 74 80 88
354 681 197 68 74 82
354 680 198 70 75 82
354 680 199 71 76 84
354 681 198 68 74 81
355 680 199 70 76 83
355 681 198 70 76 83
355 681 199 70 75 82
354 682 197 71 77 84
354 683 197 72 78 86
355 683 197 72 78 85
354 682 198 71 77 84
355 682 198 72 78 85
355 683 198 73 78 86
352 684 195 73 79 87
352 685 195 70 77 85
353 685 195 71 77 85
352 687 193 71 77 84
352 686 194 69 75 83
352 686 195 69 75 83
352 687 194 71 77 85
353 686 195 72 77 85
353 687 194 72 78 86
353 687 195 73 79 86
354 687 195 75 81 89
352 684 196 74 80 88
353 684 196 74 80 88
353 685 196 72 78 86
354 684 196 74 80 88
354 684 197 73 79 87
354 685 196 73 79 87
355 684 197 73 78 86
355 685 197 74 79 87
355 684 198 72 78 86
354 686 196 74 79 87
354 687 196 73 79 87
355 686 196 74 80 87
355 686 197 76 81 89
355 687 196 80 85 93
356 680 199 70 76 83
356 681 199 71 76 83
356 682 199 72 78 85
356 683 198 73 79 86
356 683 199 73 78 86
357 682 199 72 78 85
357 683 199 73 79 87
356 685 197 75 81 89
356 684 198 73 79 87
356 685 198 75 81 88
357 684 199 75 81 89
357 685 198 77 83 91
357 685 199 78 84 92
356 686 197 77 82 90
356 687 196 85 90 99
356 687 197 83 89 97
357 687 197 86 91 100
356 686 198 76 82 89
357 686 198 78 84 92
357 686 199 80 86 94
357 687 198 84 89 97
357 687 199 82 87 95
358 685 199 80 86 94
358 686 199 84 90 98
358 687 199 84 90 99
359 687 199 84 90 99
356 680 200 70 76 84
357 680 200 72 78 85
357 680 201 73 79 87
357 681 200 72 78 85
357 682 200 73 78 86
357 683 200 74 80 88
358 680 201 74 80 87
358 681 200 72 78 86
358 681 201 73 79 87
359 681 201 73 79 87
358 680 202 74 79 87
359 680 202 75 80 88
359 680 203 76 82 90
359 681 202 75 80 88
358 682 200 73 79 86
358 682 201 74 79 87
358 683 200 74 80 88
358 683 201 75 81 89
359 682 201 74 80 88
359 683 201 77 82 90
359 682 202 76 81 89
359 683 202 76 82 89
358 684 200 76 82 90
358 685 200 78 84 93
359 684 200 78 84 92
359 684 201 77 83 91
359 685 200 80 86 95
359 685 201 80 86 94
358 686 200 86 91 100
359 686 200 86 92 100
359 687 200 86 91 100
360 672 206 80 86 94
360 672 207 80 86 94
360 673 206 79 85 93
360 673 207 80 86 94
361 673 207 81 86 94
360 674 205 76 83 91
360 675 205 75 81 89
360 674 206 78 84 92
360 675 206 76 82 90
361 674 207 80 86 93
361 675 206 78 83 91
361 675 207 78 84 91
360 676 204 78 84 91
360 676 205 78 84 91
360 677 204 81 86 94
360 677 205 80 85 93
361 677 205 79 84 92
360 676 206 77 83 91
361 676 206 78 83 91
361 676 207 78 84 92
361 677 206 78 83 91
360 678 204 81 87 94
360 678 205 81 86 93
360 679 204 79 85 93
361 678 205 80 86 94
361 679 204 79 85 93
361 679 205 81 87 95
361 678 206 78 84 92
362 676 207 80 85 93
362 677 206 78 84 92
362 677 207 80 86 94
362 678 206 79 84 92
362 678 207 80 86 94
362 679 206 80 86 94
363 678 207 80 86 94
363 679 207 80 85 93
364 679 207 79 85 93
360 680 203 77 83 90
360 681 202 76 81 89
360 681 203 79 84 91
360 683 201 78 83 91
360 682 202 77 82 90
360 682 203 79 84 92
360 683 202 77 83 90
360 683 203 78 83 91
361 682 203 80 85 93
361 683 203 79 84 92
360 680 204 79 85 93
361 680 204 81 87 95
361 680 205 83 88 97
361 681 204 82 87 95
361 681 205 84 90 98
361 682 204 81 86 94
361 683 204 79 85 93
362 680 205 83 89 97
362 681 204 84 89 97
362 681 205 84 90 98
362 680 206 82 87 95
363 680 206 80 86 94
363 680 207 79 84 92
363 681 206 80 85 93
362 682 204 82 88 96
362 682 205 83 89 97
362 683 204 78 84 92
362 683 205 78 84 92
363 682 205 82 87 95
363 683 205 78 83 91
363 682 206 81 87 94
363 683 206 78 83 91
360 684 201 78 84 92
360 685 201 77 83 91
360 684 202 78 83 91
360 685 202 77 82 90
361 684 202 79 84 92
361 684 203 79 84 92
361 685 202 77 82 90
361 685 203 78 83 91
360 686 201 81 87 95
360 687 200 84 91 99
360 687 201 80 85 94
361 687 201 77 82 90
361 686 202 77 83 90
361 687 202 76 81 89
362 684 203 80 85 93
362 685 203 79 84 92
362 686 203 78 83 91
362 687 202 75 80 88
362 687 203 76 81 88
363 686 203 79 84 91
363 687 203 74 79 87
362 684 204 80 85 93
362 685 204 81 86 94
363 684 204 83 88 96
363 684 205 80 85 93
363 685 204 84 89 96
363 686 204 79 85 92
363 687 204 75 81 88
364 680 207 78 83 91
364 681 207 75 80 88
364 682 206 80 85 92
364 682 207 75 80 88
364 683 206 77 82 90
364 683 207 75 80 88
365 682 207 73 79 87
365 683 207 74 79 87
364 684 205 80 85 93
364 685 205 82 87 94
364 684 206 76 82 89
365 684 206 74 79 87
365 684 207 72 78 86
365 685 206 74 80 87
365 685 207 73 79 86
364 686 204 79 84 91
364 686 205 76 82 89
364 687 204 74 79 86
364 687 205 74 79 86
365 686 205 75 80 87
365 687 205 73 78 84
365 686 206 72 78 85
365 687 206 72 77 84
366 684 207 71 76 84
366 685 207 72 77 85
366 686 206 73 78 85
366 686 207 73 79 86
366 687 206 73 78 85
366 687 207 75 80 87
367 686 207 77 82 89
367 687 206 74 79 86
367 687 207 78 83 89
360 672 208 79 85 93
361 672 208 80 86 94
361 672 209 81 86 94
361 673 208 81 86 94
361 673 209 81 86 94
361 674 208 80 85 93
362 672 209 80 85 93
362 673 208 81 86 94
362 673 209 82 87 95
362 672 210 80 86 94
362 672 211 80 85 93
362 673 210 82 87 95
363 672 211 79 84 92
363 673 210 83 88 96
363 673 211 81 87 95
362 674 208 80 86 93
362 674 209 84 89 97
362 675 208 82 87 95
363 674 209 84 90 98
363 675 209 84 90 98
363 674 210 86 91 99
363 674 211 87 92 100
363 675 210 86 91 99
363 672 212 77 82 90
363 673 212 79 85 93
362 676 208 82 88 95
363 676 208 84 89 97
363 676 209 86 91 99
363 677 208 83 88 97
363 678 208 80 86 95
364 674 211 84 89 97
364 675 210 86 91 99
364 675 211 86 92 100
364 672 212 78 83 90
364 672 213 78 83 90
364 673 212 80 86 94
364 673 213 79 84 92
365 673 213 78 84 92
364 672 214 77 82 90
365 672 214 77 83 91
365 672 215 76 81 90
365 673 214 76 82 89
365 673 215 75 81 89
364 674 212 82 88 96
364 675 212 85 91 99
365 674 212 80 86 95
365 674 213 79 84 92
365 675 212 82 88 96
365 675 213 77 83 91
365 674 214 75 81 88
366 673 215 75 81 89
366 675 213 76 82 90
366 674 214 74 80 87
366 674 215 73 80 88
366 675 214 76 82 89
366 675 215 75 81 89
364 676 209 89 94 102
364 677 208 82 88 96
364 677 209 86 91 99
364 676 210 89 94 102
364 676 211 86 92 100
364 677 210 88 93 102
365 676 211 87 93 101
365 677 210 88 93 101
365 677 211 87 93 101
364 678 208 80 85 94
364 678 209 82 87 95
364 679 208 79 85 93
365 678 209 80 86 93
365 679 209 78 83 91
365 678 210 83 88 96
365 678 211 86 91 99
365 679 210 78 83 91
366 678 211 84 89 97
366 679 210 76 82 90
366 679 211 77 82 90
365 676 212 83 89 97
365 677 212 83 89 97
366 676 212 80 86 94
366 676 213 78 84 92
366 677 212 81 86 94
366 677 213 77 83 90
366 676 214 77 82 89
366 676 215 76 81 89
366 677 214 76 82 89
367 676 215 76 81 88
367 677 214 75 80 87
367 677 215 74 79 86
366 678 212 80 85 93
366 678 213 76 82 90
366 679 212 77 83 90
367 678 213 74 80 87
367 679 212 75 81 89
367 679 213 75 80 87
367 678 214 75 79 86
367 678 215 75 80 86
367 679 214 75 79 86
365 672 216 78 84 93
366 672 216 81 87 95
366 672 217 87 93 101
366 673 216 74 80 89
366 673 217 81 87 95
367 673 217 79 85 93
366 672 218 85 91 100
367 672 218 83 89 98
367 672 219 82 87 95
367 673 218 82 87 96
367 673 219 82 87 95
366 674 216 73 79 87
367 674 216 75 80 88
367 674 217 74 79 86
367 675 216 75 80 87
367 675 217 75 80 86
367 674 218 75 81 88
367 672 220 79 84 92
367 676 216 76 80 87
367 676 217 76 80 87
367 677 216 75 80 87
364 680 208 77 82 90
364 681 208 74 79 87
365 680 208 76 81 89
365 680 209 76 81 88
365 681 208 73 79 86
365 681 209 74 80 87
365 682 208 72 78 85
365 682 209 72 77 85
365 683 208 73 78 86
366 680 209 75 80 87
366 681 209 73 78 86
366 680 210 75 81 88
366 680 211 75 80 88
366 681 210 76 81 88
367 680 211 74 80 87
367 681 211 74 80 87
366 682 209 72 77 85
366 683 208 72 77 85
366 683 209 71 77 84
367 683 209 72 77 83
366 682 210 75 80 87
367 682 210 77 82 89
367 682 211 78 83 91
367 683 210 72 77 83
367 683 211 76 80 87
367 680 212 73 79 86
367 680 213 73 79 86
367 681 212 73 79 87
367 682 212 74 79 86
366 684 208 70 76 83
366 685 208 70 76 83
367 684 209 71 76 83
367 685 208 72 78 85
367 685 209 73 77 84
367 686 208 78 83 89
352 688 193 70 77 85
352 689 193 71 77 86
353 689 193 72 78 86
352 688 194 72 77 85
353 688 194 73 78 86
353 689 194 73 78 86
352 690 192 71 76 84
352 690 193 72 78 86
352 691 192 71 77 85
353 690 193 72 78 86
353 691 192 71 77 85
353 691 193 72 78 86
353 690 194 73 78 86
354 688 195 76 81 89
354 689 194 73 79 87
354 689 195 74 80 88
355 688 195 81 86 95
355 689 195 76 83 91
354 691 193 73 79 87
354 690 194 73 79 87
354 691 194 73 79 88
355 690 194 74 80 89
355 690 195 75 82 91
355 691 194 74 80 89
355 691 195 76 83 91
355 688 196 84 90 98
352 692 192 71 77 85
352 693 192 71 77 85
353 692 192 71 77 85
353 692 193 71 77 86
353 693 192 71 77 85
353 693 193 71 77 85
353 694 192 72 78 86
353 695 192 71 77 85
354 692 193 72 79 87
354 693 193 72 78 86
355 693 193 72 78 87
355 692 194 72 79 87
355 693 194 72 79 87
354 694 192 72 78 86
354 694 193 73 79 87
354 695 192 73 79 87
355 694 193 74 80 88
355 695 192 76 82 90
355 695 193 77 83 91
356 690 195 79 86 95
356 691 195 78 85 93
356 688 196 83 89 98
356 688 197 85 91 99
356 689 196 80 87 96
357 688 197 84 90 99
357 689 196 80 87 96
357 689 197 81 88 97
357 688 198 86 92 100
356 690 196 80 87 96
356 691 196 80 87 96
357 690 196 79 86 95
357 690 197 78 85 94
357 691 196 79 85 94
357 691 197 78 85 94
358 688 198 87 93 101
358 688 199 86 92 100
358 689 198 82 88 97
359 688 199 84 90 99
359 689 198 79 86 95
359 689 199 81 87 96
358 690 197 78 85 94
358 691 197 75 82 91
359 691 197 73 80 88
358 690 198 78 85 93
359 690 198 79 85 94
359 690 199 79 85 94
359 691 198 75 82 91
356 692 194 73 79 88
356 692 195 76 83 92
356 693 194 73 79 88
356 693 195 74 80 89
357 692 195 78 84 92
357 693 195 76 82 90
356 695 193 80 85 93
356 694 194 76 82 90
356 695 194 81 86 94
357 694 195 76 82 90
357 695 194 79 84 92
357 695 195 77 83 91
358 694 195 75 81 89
358 695 194 75 81 89
358 695 195 75 80 88
359 695 195 73 79 87
357 692 196 78 84 92
357 693 196 76 82 90
358 692 196 76 82 91
358 692 197 75 81 89
358 693 196 75 81 89
359 692 197 74 80 88
359 693 196 74 80 88
359 693 197 74 80 88
358 694 196 75 80 88
359 694 196 73 79 86
359 694 197 72 78 86
359 695 196 72 78 86
359 688 200 84 90 99
354 696 192 72 78 86
355 696 192 73 80 88
355 697 192 73 78 86
356 696 192 75 81 89
356 696 193 76 81 89
356 697 192 73 79 86
357 696 193 73 79 87
357 697 192 73 79 86
357 697 193 71 77 85
357 696 194 75 80 88
356 698 192 72 77 85
357 698 192 71 77 85
357 698 193 70 77 84
357 699 192 71 76 84
358 697 193 72 78 86
358 696 194 73 79 87
358 697 194 72 78 86
359 696 194 72 78 86
359 696 195 72 78 86
359 697 194 73 79 87
358 698 192 72 78 85
358 698 193 71 77 85
358 699 192 71 76 84
358 699 193 71 77 85
359 698 193 72 78 86
359 699 193 72 78 86
359 698 194 73 79 86
357 700 192 71 76 84
358 700 192 71 77 84
358 701 192 73 78 86
359 700 192 72 78 86
359 700 193 72 78 86
359 701 192 74 80 88
359 701 193 73 79 87
359 702 192 75 81 89
359 703 192 82 87 95
360 689 199 80 87 96
360 690 199 81 87 96
360 691 198 76 83 91
360 691 199 80 86 93
361 691 199 77 82 90
360 693 197 74 80 88
360 692 198 73 79 87
360 692 199 74 79 87
360 693 198 73 79 86
361 692 199 71 77 84
361 693 198 72 78 85
361 693 199 71 77 84
360 694 196 72 78 85
360 694 197 72 77 85
360 695 196 72 78 86
360 695 197 72 78 86
361 694 197 72 77 85
361 695 197 73 79 86
360 694 198 72 78 85
361 694 198 72 77 85
362 693 199 72 77 84
362 695 197 73 79 86
362 694 198 72 78 85
362 694 199 72 77 85
362 695 198 73 78 86
363 694 199 71 77 84
363 695 198 72 78 86
363 695 199 72 78 85
364 694 199 71 76 84
364 695 199 71 77 85
360 688 200 82 89 97
360 688 201 80 86 94
360 689 200 81 87 96
361 688 201 77 82 91
361 689 201 78 84 92
360 690 200 79 86 94
361 690 200 77 83 92
361 690 201 76 82 90
361 691 200 76 81 89
362 689 201 75 81 89
362 688 202 73 79 87
362 689 202 73 79 87
363 688 202 72 77 85
363 688 203 72 77 85
363 689 202 72 77 85
363 689 203 70 76 83
362 690 201 72 78 86
362 691 200 73 79 86
362 691 201 71 77 85
363 691 201 72 78 85
362 690 202 72 78 86
363 690 202 71 77 85
363 691 202 72 78 85
361 692 200 72 77 85
362 692 200 71 76 84
362 693 200 71 76 83
363 692 200 70 76 84
363 692 201 71 77 85
363 693 200 71 77 85
363 694 200 71 77 84
364 688 203 71 76 83
364 689 203 71 76 84
364 690 202 72 77 85
364 690 203 72 77 85
364 691 202 74 79 87
364 691 203 74 80 87
365 690 203 72 78 85
365 691 203 77 82 90
366 691 203 80 85 93
364 688 204 73 78 85
364 689 204 73 78 85
365 688 204 74 78 85
365 688 205 73 78 84
365 689 204 73 78 85
365 689 205 74 79 85
365 690 204 73 78 86
366 688 205 73 77 83
366 689 205 74 78 85
366 688 206 71 76 82
367 688 206 72 76 83
367 688 207 74 79 86
367 689 206 73 78 85
366 690 204 73 78 85
366 690 205 73 78 85
366 691 204 76 81 89
367 690 205 73 78 84
367 691 204 75 80 87
367 691 205 74 79 86
367 690 206 75 79 85
364 692 201 73 80 88
364 693 200 72 78 86
364 693 201 76 81 89
365 693 201 81 87 94
364 692 202 77 82 90
365 692 202 81 86 93
365 692 203 81 86 93
365 693 202 84 89 96
364 694 200 71 77 85
364 694 201 75 81 89
364 695 200 72 77 85
365 694 200 74 80 88
365 694 201 80 85 93
365 695 200 74 80 87
366 692 203 82 87 94
366 693 202 85 90 97
366 693 203 84 88 95
367 692 203 81 85 92
367 693 203 79 83 90
366 694 201 83 88 95
366 695 201 77 82 89
366 694 202 86 91 98
367 694 202 86 90 97
367 694 203 82 86 93
367 695 202 79 84 91
367 692 204 77 82 88
367 693 204 75 80 86
360 696 195 72 78 86
360 697 195 74 80 88
360 699 193 72 78 86
360 698 194 73 79 87
360 698 195 74 80 88
360 699 194 73 79 87
361 698 195 75 81 89
361 699 195 75 80 88
362 699 195 76 82 89
360 696 196 72 78 86
360 697 196 72 79 87
361 696 196 74 80 88
361 696 197 74 80 87
361 697 196 75 81 89
361 698 196 77 83 91
362 696 197 73 79 87
362 697 196 77 83 91
362 697 197 77 83 91
363 696 197 72 79 87
363 697 197 74 81 89
363 696 198 72 78 86
363 697 198 73 80 88
362 698 196 79 85 93
362 699 196 79 84 91
363 698 196 81 86 94
363 698 197 77 83 91
363 699 196 80 85 92
363 699 197 79 85 92
360 700 193 73 79 87
360 701 193 75 80 88
361 701 193 74 79 87
360 700 194 73 79 87
361 700 194 75 80 87
361 700 195 75 81 88
361 701 194 75 80 88
360 702 192 76 82 90
360 702 193 76 81 89
360 703 192 80 85 93
361 702 193 76 81 89
361 703 193 77 82 90
361 702 194 77 82 90
361 703 194 76 82 90
362 700 195 77 82 89
362 701 194 75 81 88
362 701 195 77 82 90
363 701 195 80 86 94
362 702 194 77 83 91
362 702 195 80 86 94
362 703 194 79 85 93
363 702 195 88 93 101
363 703 195 89 94 102
363 700 196 78 83 90
363 701 196 81 86 94
364 696 198 71 78 85
364 696 199 71 76 84
364 697 198 71 77 85
365 696 199 73 79 86
365 697 199 72 78 86
364 698 197 75 81 89
364 699 197 78 83 91
364 698 198 72 79 87
365 698 198 72 78 86
365 698 199 73 79 87
365 699 198 75 81 89
365 699 199 76 82 90
366 698 199 75 81 89
366 699 199 76 82 90
364 700 196 77 83 91
364 700 197 77 83 91
364 701 196 84 89 97
364 701 197 82 87 95
365 700 197 78 83 91
365 701 197 81 86 93
365 700 198 78 83 90
365 701 198 79 84 91
364 702 196 92 97 106
364 702 197 88 93 101
364 703 196 89 94 103
365 702 197 82 87 95
365 703 197 79 85 93
365 703 198 76 81 89
366 700 199 77 82 90
366 701 198 79 83 91
366 701 199 79 84 92
366 702 198 76 82 90
366 702 199 77 82 90
366 703 198 76 82 90
366 703 199 78 83 92
367 702 199 78 84 92
367 703 199 82 88 97
365 696 200 74 80 87
365 697 200 73 79 86
366 696 200 75 81 88
366 696 201 77 82 89
366 697 200 77 82 89
366 697 201 78 83 90
367 696 201 77 82 90
367 697 201 80 85 93
367 696 202 76 82 90
366 698 200 78 83 91
366 699 200 75 81 90
367 698 201 86 91 99
367 699 200 77 83 91
367 699 201 85 90 98
366 700 200 77 83 91
367 700 200 80 86 94
367 700 201 85 90 98
367 701 200 80 86 94
367 701 201 81 86 95
367 702 200 79 85 94
367 703 200 87 93 102
368 687 207 79 83 90
368 678 215 75 79 85
368 679 214 74 79 85
368 679 215 75 79 84
368 673 219 80 85 93
368 674 218 74 80 87
368 674 219 74 79 86
368 675 218 74 79 87
368 675 219 71 76 83
368 672 220 79 83 91
368 672 221 75 80 88
368 673 220 77 82 89
368 673 221 75 79 86
369 673 221 74 79 87
368 672 222 76 81 88
368 673 222 73 78 85
369 672 223 75 80 88
369 673 222 73 78 85
369 673 223 73 77 84
368 674 220 75 80 87
368 674 221 75 79 87
368 675 220 71 77 84
369 674 221 74 79 87
369 675 220 73 78 85
369 675 221 74 79 87
369 674 222 75 80 87
369 674 223 74 79 86
369 675 222 73 79 86
370 674 223 72 77 84
370 675 222 74 79 86
370 675 223 74 79 86
368 676 217 75 79 86
368 677 216 74 79 85
368 677 217 74 79 85
368 676 218 74 79 86
368 676 219 73 78 85
368 677 218 76 81 87
369 676 219 75 81 88
369 677 218 77 82 89
369 677 219 79 84 92
368 678 216 74 78 84
368 678 217 74 79 85
368 679 216 75 78 84
369 678 217 75 79 85
369 679 216 74 78 84
369 679 217 76 80 86
369 678 218 76 81 87
369 678 219 77 83 90
369 679 218 78 83 89
370 678 219 77 83 90
370 679 218 78 83 90
370 679 219 77 83 90
369 676 220 75 81 88
369 676 221 75 81 89
369 677 220 80 85 92
370 676 221 78 84 92
370 677 220 80 85 92
370 677 221 79 85 92
370 676 222 77 82 90
370 676 223 79 84 91
370 677 222 78 84 92
371 676 223 81 86 93
371 677 222 79 85 92
371 677 223 81 86 94
370 678 220 77 83 90
370 678 221 77 83 91
370 679 220 77 82 89
371 678 220 78 84 91
371 678 221 78 84 92
371 679 220 77 82 90
371 679 221 81 87 95
371 678 222 79 86 94
371 678 223 81 88 96
371 679 222 83 90 99
372 678 223 83 89 98
372 679 222 85 92 101
372 679 223 84 91 101
368 683 210 71 76 82
368 683 211 72 77 84
368 680 213 72 77 83
368 681 212 73 78 85
368 681 213 72 77 83
368 680 214 72 77 83
368 680 215 73 77 83
368 681 214 72 76 82
369 680 215 73 77 84
369 681 214 73 77 84
369 681 215 73 79 86
368 682 212 73 77 84
368 682 213 72 76 82
368 683 212 75 79 86
369 682 213 75 78 83
369 683 212 74 78 84
369 683 213 75 78 83
369 682 214 77 81 86
369 682 215 78 83 90
369 683 214 77 80 85
370 683 213 76 79 85
370 682 215 82 86 94
370 683 214 77 82 88
370 683 215 84 89 97
368 684 209 73 77 84
368 685 209 74 78 84
368 684 210 74 78 84
368 684 211 73 78 84
368 685 210 74 79 85
369 684 211 74 79 85
369 685 210 74 78 85
369 685 211 76 81 88
368 686 208 81 85 91
368 686 209 76 80 86
368 687 208 82 85 91
368 687 209 81 84 90
369 686 209 75 79 85
369 687 209 79 83 89
369 686 210 74 79 86
369 686 211 77 82 89
369 687 210 73 79 86
370 686 211 76 82 90
370 687 210 76 81 89
370 687 211 79 84 93
369 684 212 75 80 86
369 685 212 79 83 90
370 684 212 78 82 89
370 684 213 79 83 89
370 685 212 82 86 94
370 685 213 85 90 97
370 684 214 81 86 94
370 684 215 82 89 97
370 685 214 86 92 100
371 684 215 88 95 104
371 685 214 91 96 106
371 685 215 96 103 113
370 686 212 82 87 95
370 686 213 90 95 103
370 687 212 87 93 103
371 686 213 92 98 107
371 687 212 97 103 114
371 687 213 100 106 116
371 686 214 97 104 114
371 686 215 105 112 124
371 687 214 107 114 125
371 687 215 114 121 133
368 680 216 74 78 83
369 680 216 74 78 84
369 680 217 75 79 85
369 681 216 75 80 87
370 680 216 73 78 84
370 680 217 74 79 86
370 681 216 77 81 88
370 681 217 77 82 89
370 680 218 77 83 90
370 680 219 78 83 91
371 680 218 77 83 91
371 680 219 78 84 92
371 681 218 81 87 95
371 681 219 84 90 99
370 682 216 82 87 95
370 683 216 87 93 102
371 682 217 81 87 96
371 683 216 85 92 102
371 683 217 85 92 103
371 682 218 85 92 101
371 682 219 90 97 107
371 683 218 90 98 109
371 683 219 97 104 116
371 680 220 80 86 94
371 680 221 81 87 96
371 681 220 87 93 103
371 682 220 92 98 109
371 684 216 91 98 108
371 684 217 98 105 116
371 685 216 105 112 124
371 685 217 111 118 131
371 684 218 104 111 123
371 684 219 107 115 127
371 685 218 111 119 131
371 686 216 112 120 132
371 686 217 116 124 137
371 687 216 118 126 138
371 687 217 120 128 140
371 686 218 117 125 137
371 686 219 123 131 144
371 687 218 117 123 135
371 687 219 116 123 135
371 685 220 128 134 148
371 685 221 132 138 150
371 684 223 109 116 130
371 685 222 124 131 143
371 685 223 111 119 132
371 686 220 133 140 153
371 686 221 132 138 151
371 687 220 125 131 144
371 687 221 127 135 149
371 686 222 122 129 143
371 686 223 111 119 133
371 687 222 119 129 144
371 687 223 108 118 134
372 680 221 85 92 101
372 681 220 93 99 109
372 681 221 92 99 109
372 680 222 88 96 107
372 680 223 89 97 109
372 681 222 96 103 115
372 681 223 102 109 121
372 682 220 95 102 113
372 682 221 102 109 120
372 683 220 103 111 123
372 683 221 110 118 130
372 682 222 108 115 126
372 682 223 112 119 131
372 683 222 116 122 135
372 683 223 114 121 135
372 684 219 113 120 133
372 685 218 114 121 134
372 685 219 117 125 138
372 686 218 117 125 138
372 686 219 120 128 141
372 684 220 113 121 134
372 684 221 117 125 138
372 685 220 117 125 138
372 684 222 116 123 137
372 684 223 110 117 132
372 686 220 128 135 148
368 688 207 77 81 87
368 689 206 73 77 84
368 689 207 75 80 87
368 690 205 74 78 85
368 691 205 75 80 87
368 690 206 75 79 86
368 690 207 76 80 87
368 691 206 77 81 87
369 690 206 75 79 86
369 690 207 76 81 88
369 691 206 77 81 88
369 691 207 79 84 92
368 694 203 76 81 89
368 695 202 76 82 90
368 695 203 76 81 90
368 692 204 75 80 88
368 692 205 76 81 88
368 693 204 75 80 87
368 693 205 77 82 90
369 692 205 77 82 89
369 693 205 78 84 92
369 692 206 79 85 92
369 692 207 84 89 98
369 693 206 83 88 96
369 693 207 89 95 104
368 694 204 77 82 90
368 695 204 77 83 92
369 694 205 81 87 95
369 695 204 80 86 94
369 695 205 83 89 98
369 694 206 87 93 102
369 694 207 93 98 108
369 695 206 89 95 105
370 692 207 89 95 105
370 693 207 93 99 109
370 694 207 96 102 112
370 695 207 95 101 111
368 696 202 77 83 91
368 696 203 79 85 94
368 697 202 79 85 94
368 697 203 85 91 100
368 699 201 95 100 108
368 698 202 92 97 107
368 698 203 90 97 106
368 699 202 103 108 117
368 699 203 104 109 119
369 698 203 93 99 109
369 699 203 99 105 114
368 696 204 81 87 96
369 696 204 85 91 100
369 696 205 87 93 102
369 697 204 90 95 104
369 697 205 91 96 105
369 696 206 88 95 105
369 696 207 90 97 108
369 697 206 89 96 107
369 697 207 91 99 110
369 698 204 90 96 105
369 698 205 90 96 106
369 699 204 95 101 110
369 699 205 92 98 108
369 698 206 91 99 109
369 698 207 94 102 113
369 699 206 96 103 114
369 699 207 102 109 121
370 696 207 92 99 110
370 697 207 92 99 111
370 698 207 95 103 115
370 699 207 103 111 123
368 700 201 90 95 103
368 701 201 82 87 96
368 700 202 90 95 104
368 700 203 94 100 109
368 701 202 84 90 99
368 701 203 87 94 104
369 700 203 92 98 108
369 701 203 88 94 104
368 702 201 81 87 96
368 703 201 88 94 103
368 702 202 84 90 99
368 703 202 84 90 100
369 702 203 88 94 103
369 703 203 87 93 103
369 700 204 93 99 109
369 700 205 94 101 111
369 701 204 90 96 106
369 701 205 96 102 112
369 700 206 101 108 119
369 700 207 110 117 129
369 701 206 99 105 116
369 702 204 89 96 106
369 702 205 92 99 109
369 703 204 90 96 106
369 703 205 90 97 107
369 702 206 94 101 111
369 703 206 93 99 109
370 700 207 114 120 132
370 701 207 100 107 118
370 702 207 94 100 110
370 703 206 94 100 110
370 703 207 93 99 109
368 688 208 81 85 91
369 688 208 82 85 92
369 688 209 83 86 92
369 689 208 75 81 88
369 689 209 80 85 92
369 690 208 76 82 91
369 691 208 82 89 98
370 688 209 83 87 94
370 689 209 84 90 98
370 688 210 84 89 97
370 688 211 90 96 106
370 689 210 91 97 106
370 689 211 98 105 116
370 690 208 81 88 98
370 690 209 87 94 104
370 691 208 89 95 105
370 691 209 100 107 119
370 690 210 99 106 116
370 690 211 105 113 125
370 691 210 111 120 133
370 691 211 115 125 139
370 688 212 96 103 113
370 689 212 103 110 121
371 688 212 103 110 122
371 688 213 110 116 128
371 689 212 108 115 127
371 689 213 113 121 134
371 688 214 114 121 133
371 688 215 116 123 135
371 689 214 117 124 137
371 689 215 118 125 137
370 690 212 111 119 132
370 691 212 115 126 141
370 691 213 122 132 147
371 690 212 112 121 134
371 690 213 114 123 137
371 691 213 124 133 148
371 690 214 115 124 137
371 690 215 116 124 137
371 691 214 134 142 156
371 691 215 131 139 153
370 692 208 97 103 114
370 692 209 114 122 134
370 693 208 101 108 120
370 693 209 120 128 140
370 692 210 132 140 154
370 692 211 129 138 153
370 693 210 129 137 150
370 693 211 129 137 151
370 694 208 100 107 119
370 694 209 114 122 135
370 695 208 99 107 118
370 695 209 112 120 133
370 694 210 120 129 142
370 694 211 121 129 142
370 695 210 111 120 133
370 695 211 108 116 129
370 692 212 123 133 148
370 692 213 122 132 146
370 693 212 127 136 150
370 693 213 120 129 143
371 692 213 127 136 150
371 692 214 131 139 153
371 692 215 131 139 152
371 693 214 115 125 138
371 693 215 112 121 135
370 694 212 115 124 138
370 694 213 110 119 132
370 695 212 102 110 123
370 695 213 102 110 122
371 694 214 106 115 128
371 694 215 100 110 124
371 695 214 101 110 122
371 695 215 96 106 119
371 688 216 117 124 136
371 688 217 117 124 136
371 689 216 118 125 137
371 689 217 113 119 131
371 688 218 113 119 130
371 688 219 106 112 124
371 689 218 105 112 123
371 689 219 103 109 120
371 690 216 111 118 131
371 690 217 104 111 123
371 691 216 115 123 135
371 691 217 102 108 119
371 690 218 99 105 116
371 690 219 96 103 114
371 691 218 98 103 113
