ply
format ascii 1.0
comment PCL generated
element vertex 2184
property float x
property float y
property float z
property uchar red
property uchar green
property uchar blue
element camera 0
property float view_px
property float view_py
property float view_pz
property float x_axisx
property float x_axisy
property float x_axisz
property float y_axisx
property float y_axisy
property float y_axisz
property float z_axisx
property float z_axisy
property float z_axisz
property float focal
property float scalex
property float scaley
property float centerx
property float centery
property int viewportx
property int viewporty
property float k1
property float k2
end_header
231 986 302 63 64 68
231 986 303 56 57 61
231 987 302 63 64 68
231 987 303 57 57 60
232 985 288 64 67 72
232 985 289 66 68 73
232 986 288 66 68 74
232 986 289 65 67 72
233 986 288 66 68 73
233 987 288 67 69 75
233 987 289 66 67 73
232 986 290 63 65 71
232 986 291 57 59 65
232 987 290 61 63 68
232 987 291 60 62 67
233 987 290 63 65 70
233 987 291 62 64 69
234 987 288 66 68 74
234 987 289 67 69 74
232 986 292 56 58 63
232 987 292 59 61 66
232 987 293 60 62 67
233 987 292 62 64 69
232 987 294 59 61 66
232 987 295 59 61 66
233 988 290 64 66 71
233 988 291 63 65 69
234 988 288 66 68 74
234 988 289 66 68 74
235 988 288 65 68 74
235 988 289 67 68 74
235 989 289 67 69 75
234 988 290 66 68 73
234 988 291 63 65 70
234 989 291 63 65 69
235 989 290 66 68 73
235 989 291 63 65 70
235 990 291 61 62 67
233 988 292 62 64 69
233 988 293 63 64 69
233 989 293 62 63 67
232 988 294 63 64 68
232 988 295 62 63 68
233 988 294 63 64 68
233 988 295 63 64 68
233 989 294 62 62 66
233 989 295 61 62 66
234 989 292 59 60 65
234 989 293 58 58 64
235 989 292 58 59 64
234 989 294 58 59 62
234 989 295 58 59 63
235 990 292 58 59 64
235 990 293 55 57 61
235 990 294 56 57 61
235 990 295 57 58 62
236 989 288 67 69 75
236 989 289 66 68 74
236 989 290 65 67 72
236 990 288 67 68 73
236 990 289 65 66 72
237 990 288 64 65 70
237 990 289 64 65 70
237 991 289 62 63 68
236 990 290 62 64 69
236 990 291 60 61 67
237 990 290 61 63 68
237 990 291 60 62 67
237 991 290 61 62 67
237 991 291 57 59 64
238 991 288 60 61 66
238 991 289 61 62 67
239 991 288 65 66 70
238 991 290 60 61 66
238 991 291 59 60 66
236 990 292 57 58 64
236 990 293 57 58 63
236 991 292 54 56 61
236 991 293 55 56 62
237 991 292 55 57 62
237 991 293 54 56 62
236 990 294 56 57 61
236 990 295 56 57 61
236 991 294 55 56 61
236 991 295 55 56 60
237 991 294 53 55 61
237 991 295 53 54 60
232 987 296 59 61 66
232 987 298 57 59 64
232 987 299 58 60 64
232 987 300 61 62 66
232 987 301 65 65 70
232 987 302 61 62 65
232 987 303 57 58 61
232 988 296 62 63 68
232 988 297 60 62 67
233 988 296 63 64 69
233 988 297 62 63 68
233 989 296 62 62 67
233 989 297 61 62 66
232 988 298 60 62 66
232 988 299 59 60 64
233 988 298 61 62 67
233 988 299 59 61 65
233 989 298 61 61 65
233 989 299 58 58 63
234 989 296 59 60 64
234 989 297 61 62 66
234 989 298 60 60 64
234 989 299 56 56 61
235 990 296 58 59 62
235 990 297 59 60 64
235 990 298 56 57 61
235 990 299 50 51 55
232 988 300 61 62 66
232 988 301 64 64 68
233 988 300 59 60 64
233 988 301 59 60 64
233 989 300 57 57 61
233 989 301 55 55 60
232 988 302 58 58 62
232 988 303 54 55 58
232 989 303 56 57 61
233 989 302 55 55 60
233 989 303 57 57 61
233 990 302 54 56 60
233 990 303 53 54 57
234 989 300 54 54 59
234 989 301 51 52 57
234 990 300 51 52 57
234 990 301 51 53 58
235 990 300 47 48 53
235 990 301 44 47 52
235 991 301 44 47 52
234 990 302 51 52 57
234 990 303 47 49 53
234 991 302 42 45 49
234 991 303 42 44 48
235 990 302 44 47 52
235 991 302 44 47 51
236 990 296 57 58 62
236 990 297 55 56 60
236 991 296 54 55 59
236 991 297 52 53 57
237 991 296 51 54 59
237 991 297 50 53 58
236 990 298 51 51 56
236 990 299 45 46 51
236 991 298 49 50 54
236 991 299 44 46 51
237 991 298 46 48 54
236 991 300 45 48 52
236 991 301 47 50 55
227 976 304 61 56 57
227 977 304 56 53 55
227 977 305 55 52 55
227 978 304 53 54 57
227 978 305 55 55 59
227 979 304 58 58 62
227 979 305 59 60 64
227 980 304 57 58 62
228 976 304 62 57 58
228 976 305 60 56 57
228 977 305 56 54 56
228 976 306 61 56 57
228 976 307 60 56 57
228 977 306 57 55 58
228 977 307 61 59 60
229 976 307 60 56 57
228 978 305 56 56 59
228 979 305 59 60 63
228 978 306 59 58 61
228 978 307 61 59 62
228 979 306 59 59 62
228 979 307 58 57 59
228 977 308 62 59 61
229 976 308 61 57 58
229 976 309 60 57 57
229 977 308 62 59 61
229 977 309 64 61 62
228 978 308 60 57 60
229 978 308 62 60 62
229 978 309 62 59 61
229 979 308 59 57 59
229 979 309 56 54 57
230 976 309 60 57 57
230 976 310 61 58 58
230 977 310 62 58 59
231 976 310 61 57 58
231 976 311 59 56 57
231 977 311 59 56 58
230 978 309 59 56 57
230 979 309 55 53 55
230 978 310 60 56 57
230 979 310 54 51 52
231 978 311 57 54 56
231 979 310 53 51 53
231 979 311 51 50 52
228 980 304 57 58 62
228 980 305 57 58 61
228 981 304 55 55 59
228 981 305 54 55 58
228 980 306 55 55 58
228 980 307 56 55 57
228 981 306 56 56 59
229 980 307 56 54 57
229 981 306 56 56 59
229 981 307 55 54 57
228 982 304 55 55 59
228 982 305 55 56 59
229 982 305 54 55 58
229 983 304 56 57 61
229 983 305 54 54 58
229 982 306 55 55 58
229 982 307 52 51 54
229 983 306 53 52 56
229 983 307 46 46 48
230 983 305 53 53 56
230 983 306 49 49 52
230 983 307 46 45 48
229 980 308 53 52 54
229 980 309 53 51 53
229 981 308 50 50 52
229 982 308 47 47 50
230 980 309 53 51 53
230 981 308 50 49 51
230 981 309 49 48 49
230 980 310 53 51 53
230 981 310 50 48 50
231 980 310 51 49 51
231 980 311 48 47 49
231 981 310 45 45 47
231 981 311 46 45 46
230 982 308 46 46 48
230 982 309 46 45 47
230 983 308 45 45 47
230 983 309 43 44 46
231 982 309 44 44 46
231 983 309 45 45 47
231 982 310 45 45 47
231 982 311 46 45 47
231 983 310 46 46 49
229 984 304 57 58 62
230 984 304 56 57 61
230 984 305 51 51 55
230 985 304 53 54 58
230 985 305 46 46 49
230 984 306 46 46 48
230 984 307 46 46 48
230 985 306 43 43 46
230 985 307 44 45 47
231 985 306 44 44 47
231 985 307 48 48 51
230 986 304 49 50 54
231 986 304 51 51 54
231 986 305 48 47 50
231 987 304 53 52 55
231 987 305 48 47 50
231 986 306 46 46 48
231 986 307 47 47 49
231 987 306 44 44 46
231 987 307 43 43 45
230 984 308 45 46 48
230 984 309 47 47 50
231 984 308 47 48 51
231 984 309 51 52 55
231 985 308 51 52 54
231 985 309 52 52 54
231 984 310 51 51 54
231 985 310 50 51 53
231 986 308 47 47 49
231 986 309 47 47 49
231 987 308 46 46 48
231 987 309 49 49 51
231 986 310 47 47 50
231 988 307 47 47 49
232 976 311 56 54 56
232 977 311 57 55 58
232 978 311 55 53 55
232 979 311 50 48 50
232 980 311 48 47 49
232 981 311 48 47 48
232 982 311 47 46 48
232 983 311 48 48 50
232 976 312 54 52 54
232 977 312 56 54 56
233 976 312 55 53 55
233 977 312 55 53 56
232 978 312 56 54 56
232 979 312 53 52 53
233 978 312 56 54 56
233 979 312 54 53 55
234 976 312 59 57 59
234 977 312 56 54 57
235 976 312 64 60 62
235 976 313 67 63 63
235 977 313 62 59 60
234 978 312 57 55 57
234 979 312 56 55 57
235 978 313 59 56 57
235 979 313 57 54 55
232 980 312 50 49 51
232 981 312 49 48 50
233 980 312 53 52 54
233 981 312 51 50 53
232 982 312 48 47 49
232 983 312 49 49 52
233 982 312 50 50 52
233 983 312 50 51 54
234 980 312 54 53 56
234 981 312 53 53 56
234 981 313 52 52 55
235 980 313 55 54 56
235 981 313 53 53 56
234 982 312 52 53 56
234 982 313 52 53 56
234 983 313 51 52 55
235 982 313 53 53 56
235 983 313 52 53 57
236 976 313 72 65 65
236 977 313 69 64 64
237 976 313 78 68 68
237 977 313 69 62 63
236 978 313 65 62 63
236 979 313 60 57 59
237 978 313 65 60 61
237 979 313 62 60 60
237 978 314 63 60 60
237 979 314 62 60 60
238 976 313 83 69 68
238 977 313 74 63 63
238 976 314 86 71 68
238 977 314 72 62 61
239 976 314 92 75 72
239 977 314 77 65 64
238 978 314 61 56 57
238 979 314 60 57 59
239 978 314 62 56 56
239 979 314 58 55 57
236 980 313 57 55 57
236 981 313 54 53 55
237 980 313 59 58 59
237 981 313 55 55 57
237 981 314 56 54 57
236 982 313 53 53 56
236 983 313 53 54 57
237 982 313 53 53 55
236 983 314 53 54 57
237 982 314 54 54 57
237 983 314 55 56 59
238 980 314 58 56 57
238 981 314 57 55 57
239 980 314 56 55 58
239 981 314 57 56 59
238 982 314 56 56 58
238 983 314 60 60 62
239 982 314 59 58 61
239 982 315 63 62 64
239 983 314 62 61 63
239 983 315 62 61 64
232 984 311 50 51 53
232 985 310 47 47 50
232 985 311 51 51 55
232 986 310 47 47 50
232 986 311 50 50 53
232 987 310 51 51 54
232 987 311 52 52 56
232 988 304 52 53 56
232 988 305 51 51 53
232 989 304 56 56 59
232 989 305 55 56 59
233 989 304 58 58 62
232 988 306 47 47 50
232 988 307 53 52 55
232 989 306 55 55 58
232 989 307 53 53 56
232 990 305 52 53 56
233 990 304 52 53 56
233 990 305 46 47 51
233 991 304 44 46 50
233 991 305 46 47 51
232 990 306 47 48 52
232 990 307 45 46 50
233 990 306 43 44 48
233 991 306 49 51 55
233 991 307 50 51 55
234 991 304 43 45 48
232 988 308 53 52 54
232 988 309 54 54 56
232 989 308 50 51 53
232 989 309 52 52 54
232 988 310 54 54 56
232 988 311 53 53 57
232 989 310 51 51 54
232 989 311 52 52 55
233 988 311 53 54 58
233 989 311 51 52 55
232 990 308 46 47 50
232 990 309 48 49 52
233 990 309 49 49 52
233 991 308 52 53 56
233 991 309 53 54 57
232 990 310 50 50 54
233 990 310 51 51 55
233 990 311 52 53 57
233 991 310 53 54 57
234 991 310 53 53 57
234 991 311 53 54 57
235 991 311 56 56 60
232 984 312 52 52 55
232 985 312 55 55 59
233 984 312 53 53 56
233 984 313 53 54 57
233 985 312 56 56 60
233 985 313 53 54 58
232 986 312 55 55 59
233 986 312 54 55 59
233 986 313 54 55 59
233 987 312 54 55 59
233 987 313 54 55 59
234 984 313 51 52 56
234 985 313 53 54 57
235 984 313 52 53 57
235 984 314 54 55 58
235 985 314 54 55 58
234 986 313 54 54 58
234 987 313 52 52 56
235 987 313 52 53 56
234 986 314 53 54 57
234 987 314 53 53 56
235 986 314 54 55 59
235 987 314 53 54 57
233 988 312 52 53 58
233 989 312 51 52 57
233 990 312 52 53 58
234 988 313 47 48 52
234 989 312 50 50 55
234 989 313 51 51 56
235 988 313 51 52 55
235 989 313 53 54 57
235 988 314 54 54 57
234 990 312 51 53 58
234 991 312 51 53 57
235 990 312 52 54 57
235 990 313 54 55 58
235 991 312 56 56 59
236 984 314 54 54 58
236 985 314 55 55 59
237 984 314 58 58 61
237 985 314 59 60 63
236 986 314 56 56 60
236 987 314 57 57 60
237 986 314 59 59 63
237 987 314 60 60 63
238 984 314 62 62 65
238 985 314 61 61 64
238 985 315 59 59 61
239 984 314 61 61 63
239 984 315 59 59 62
239 985 315 58 58 60
238 986 314 58 59 62
238 986 315 57 57 60
238 987 314 56 56 58
239 986 315 56 56 59
239 987 314 53 53 56
239 987 315 53 53 56
236 989 313 58 57 60
236 988 314 58 58 61
236 989 314 59 58 61
237 988 314 57 56 59
237 989 314 55 54 56
236 990 313 59 59 62
236 991 312 58 57 60
236 991 313 58 58 61
237 990 313 49 48 51
237 991 312 48 47 50
237 991 313 46 45 47
237 990 314 48 47 49
238 988 314 55 54 57
238 989 314 51 50 52
239 988 314 53 53 55
239 988 315 52 51 54
239 989 314 48 48 50
238 990 313 42 42 45
238 991 313 41 41 43
239 991 313 41 40 43
238 990 314 47 46 48
239 990 314 43 42 45
239 991 314 40 39 42
240 969 319 204 166 153
240 971 317 191 153 140
240 970 318 199 161 149
240 970 319 202 163 151
240 971 318 196 158 146
240 971 319 199 160 148
241 970 319 204 165 153
241 971 318 196 157 146
241 971 319 200 160 149
242 971 319 199 160 149
243 971 319 201 162 150
240 973 315 157 120 112
240 974 315 143 108 101
240 975 314 113 87 83
240 975 315 121 91 87
241 974 315 137 103 96
241 975 315 121 91 87
240 972 316 180 143 130
240 972 317 188 149 138
240 973 316 167 130 120
241 972 317 186 147 136
241 973 316 168 130 121
241 973 317 177 139 129
241 972 318 193 154 143
241 974 316 147 110 103
241 975 316 124 91 86
242 973 317 176 136 127
242 972 318 191 152 142
242 972 319 197 159 148
243 972 318 192 154 144
243 972 319 196 157 148
243 973 318 183 144 135
243 973 319 192 153 144
242 974 316 147 109 102
242 974 317 154 115 109
242 975 316 126 93 88
243 974 317 152 113 107
243 975 316 122 91 86
243 975 317 130 96 91
243 974 318 162 123 116
244 973 318 178 138 130
244 973 319 186 146 138
245 973 319 181 140 133
244 975 317 128 93 89
244 974 318 157 117 111
244 975 318 137 99 96
245 974 318 151 111 106
245 974 319 161 120 115
245 975 318 129 93 90
245 975 319 133 96 94
246 975 319 129 93 91
240 976 314 97 78 75
240 977 314 82 68 66
240 977 315 84 69 67
241 976 315 101 79 76
241 977 315 85 70 69
240 978 314 67 60 59
240 978 315 66 59 59
240 979 314 59 56 57
240 979 315 61 58 60
241 978 315 69 62 62
241 979 315 63 61 63
242 976 315 96 76 74
242 977 315 86 70 69
242 978 315 70 64 64
242 976 316 104 80 77
242 977 316 81 69 67
243 976 316 102 79 76
243 977 316 80 68 66
242 978 316 71 65 65
242 979 316 65 63 64
243 978 316 70 64 64
243 979 316 66 63 65
240 980 314 57 57 60
240 980 315 58 58 62
240 981 315 59 59 61
241 980 315 60 60 63
241 981 315 61 60 63
240 982 315 60 59 61
240 983 315 59 58 61
241 982 315 58 57 60
241 983 315 55 54 56
241 980 316 62 61 65
241 981 316 59 58 61
241 982 316 56 56 59
242 980 316 63 63 65
242 981 316 58 58 61
243 980 316 62 60 63
243 981 316 55 55 58
242 982 316 55 54 58
242 983 316 53 53 56
243 982 316 53 53 57
243 983 316 53 53 55
243 983 317 52 52 55
244 976 317 101 77 75
244 977 317 78 67 66
245 976 317 95 73 71
245 977 317 80 67 65
245 976 318 109 80 78
245 977 318 83 70 68
244 978 317 69 64 65
244 979 317 65 62 64
245 979 317 60 58 61
245 978 318 69 64 66
245 979 318 62 60 63
246 976 318 100 77 74
246 976 319 105 80 78
246 977 318 83 72 70
246 977 319 83 72 70
247 976 319 98 76 74
247 977 319 82 71 70
246 978 318 70 66 68
246 978 319 71 66 69
246 979 318 63 61 64
246 979 319 63 61 64
247 978 319 69 65 67
247 979 319 61 59 62
244 980 317 58 57 60
244 981 317 55 55 58
245 980 317 56 55 58
245 981 317 53 53 56
245 980 318 57 56 59
245 981 318 52 51 54
244 982 317 53 53 57
244 983 317 50 51 54
245 982 317 50 50 54
245 983 317 48 47 51
245 982 318 47 47 50
246 980 318 56 55 59
246 981 318 51 51 54
247 980 319 56 55 59
247 981 318 50 50 55
247 981 319 51 51 56
246 982 318 47 47 50
246 983 318 46 45 48
247 982 318 46 45 50
247 982 319 46 46 50
247 983 318 43 43 46
247 983 319 44 44 48
240 984 315 56 56 58
240 985 315 55 55 58
241 984 315 54 53 56
241 985 315 53 53 56
240 986 315 55 55 58
240 987 315 51 51 54
241 986 315 51 51 54
241 987 315 46 46 50
242 987 315 45 45 48
242 984 316 53 53 56
242 985 316 50 50 54
243 984 316 51 52 55
243 984 317 51 52 56
243 985 316 52 53 56
243 985 317 53 54 57
242 986 316 48 48 51
242 987 316 49 50 53
243 986 316 55 56 58
243 987 316 55 55 58
240 988 315 46 46 48
240 989 314 44 44 46
240 989 315 44 44 46
241 988 315 46 46 48
241 989 315 43 43 45
240 991 313 39 38 40
240 990 314 41 41 44
240 991 314 38 38 41
241 990 314 40 40 42
241 990 315 41 40 43
241 991 314 37 38 41
242 988 315 46 46 49
242 989 315 45 45 48
242 990 315 42 42 45
242 991 314 40 41 43
242 991 315 42 43 45
243 990 315 45 46 49
243 991 315 49 50 53
242 988 316 50 50 53
242 989 316 46 46 49
243 988 316 53 54 57
243 989 316 51 51 54
243 990 316 50 51 54
243 991 316 52 52 55
244 984 317 49 50 53
244 985 317 53 53 56
245 984 317 45 46 50
245 985 317 48 49 53
244 986 317 55 56 59
244 987 316 58 59 62
244 987 317 58 58 61
245 986 317 48 49 52
245 987 317 49 51 54
246 984 318 45 45 48
246 985 318 45 45 48
247 984 318 43 43 47
247 985 318 42 43 47
246 987 317 45 46 49
246 986 318 46 46 49
246 987 318 45 46 49
247 986 318 43 45 48
247 987 318 43 45 48
244 988 316 58 58 61
244 988 317 59 60 63
244 989 316 58 58 61
245 988 317 54 55 58
245 989 317 58 58 62
244 990 316 56 56 59
244 991 316 53 53 56
245 990 316 58 58 61
245 990 317 56 56 59
245 991 316 57 57 60
246 988 317 48 49 52
246 989 317 51 52 56
247 989 317 50 51 55
246 988 318 45 47 50
247 988 318 44 45 49
247 989 318 48 49 53
246 990 317 51 52 55
246 991 316 55 55 57
246 991 317 52 52 56
247 990 317 46 48 52
247 991 317 47 48 51
248 979 319 58 57 60
248 980 319 55 55 59
248 981 319 52 52 56
249 981 319 54 55 58
248 982 319 49 49 53
248 983 319 47 48 51
249 982 319 54 53 57
249 983 319 51 52 55
248 984 319 47 49 52
248 985 319 45 47 50
249 984 319 49 51 55
249 985 319 46 48 52
248 986 319 45 46 50
248 987 318 49 50 53
248 987 319 47 49 53
249 986 319 47 48 53
249 987 319 51 52 55
250 985 319 50 52 56
250 986 319 50 52 55
250 987 319 52 53 57
251 987 319 55 56 60
248 988 318 51 52 55
248 989 318 50 51 55
249 988 318 52 53 56
249 988 319 53 53 57
249 989 318 54 55 58
248 990 317 47 48 51
248 991 317 46 46 49
249 991 317 51 51 53
248 990 318 48 49 53
249 990 318 54 55 58
249 991 318 54 54 57
250 988 319 54 56 59
250 989 318 55 56 60
250 989 319 56 57 61
251 988 319 56 57 61
251 989 319 57 59 63
250 991 317 53 54 56
250 990 318 56 57 60
250 990 319 58 59 63
250 991 318 55 55 59
251 990 318 57 59 63
251 990 319 58 59 63
251 991 318 59 60 64
252 988 319 55 57 61
252 989 319 56 58 62
253 988 319 58 59 64
253 989 319 58 59 63
252 990 319 56 58 62
252 991 318 61 63 67
252 991 319 58 59 63
253 990 319 57 58 62
253 991 318 57 58 63
253 991 319 56 57 61
254 989 319 58 59 62
255 989 319 55 55 58
254 990 319 58 59 63
254 991 318 62 64 68
254 991 319 61 62 66
255 990 319 56 56 60
255 991 318 62 62 66
255 991 319 58 59 62
239 992 286 65 66 71
239 992 287 65 67 71
241 992 281 62 65 70
241 992 282 62 64 69
241 992 283 62 63 68
242 992 280 58 61 66
242 992 281 61 63 69
243 992 280 58 61 66
243 992 281 62 64 69
243 993 280 61 63 67
243 993 281 64 66 71
242 992 282 63 65 70
242 992 283 62 64 69
242 993 283 62 64 69
243 993 282 65 66 71
243 993 283 63 65 70
240 992 284 63 65 70
240 992 285 62 64 68
241 992 284 63 65 70
241 992 285 62 63 68
241 993 285 62 63 68
240 992 286 61 63 67
240 992 287 62 63 68
240 993 287 59 61 66
241 992 286 60 62 67
241 993 286 60 62 66
241 993 287 59 61 65
242 992 284 62 64 69
242 993 284 64 65 70
242 993 285 64 66 70
243 993 284 65 66 71
243 993 285 65 67 72
242 993 286 61 63 68
242 993 287 59 60 65
243 994 284 66 67 72
243 994 285 65 66 71
242 994 287 59 61 65
243 994 286 60 62 67
243 994 287 60 61 66
243 995 287 58 60 64
244 993 280 62 64 69
244 993 281 64 66 71
245 993 280 63 64 69
244 993 282 65 66 71
244 994 281 64 66 71
245 994 280 63 65 70
245 994 281 63 65 70
244 994 282 63 65 70
244 994 283 63 65 70
245 994 282 63 64 69
245 994 283 63 64 69
246 994 280 61 63 68
246 994 281 62 64 69
247 994 281 61 63 68
247 995 280 58 60 65
247 995 281 58 61 65
246 994 282 62 63 68
246 995 282 60 62 67
246 995 283 61 63 67
247 995 282 59 62 67
247 995 283 61 63 68
244 994 284 64 66 71
244 994 285 64 66 70
244 995 285 63 65 69
245 994 284 64 66 70
245 995 284 65 66 71
245 995 285 65 66 70
244 994 286 60 62 67
244 995 286 60 62 66
244 995 287 58 60 64
245 995 286 61 62 67
245 995 287 58 60 64
246 995 284 63 65 69
246 995 285 65 67 71
246 995 286 62 64 68
247 996 283 60 62 67
245 996 287 58 59 64
246 996 284 63 65 69
246 996 285 63 65 70
247 996 284 62 63 68
247 996 285 63 64 69
246 996 286 60 62 66
246 996 287 58 60 64
247 996 286 61 63 68
247 996 287 59 60 64
247 997 287 58 59 64
248 995 281 56 59 63
249 995 281 57 58 63
248 995 282 58 61 66
249 996 281 58 60 64
248 996 282 60 61 66
248 996 283 61 63 68
249 996 282 62 64 68
249 996 283 61 63 67
249 997 283 57 59 64
250 996 281 59 61 66
251 996 281 54 56 61
251 997 281 54 56 61
250 996 282 64 66 70
250 996 283 63 65 70
250 997 282 63 65 70
250 997 283 58 60 65
251 997 282 58 60 65
251 997 283 56 58 63
248 996 284 60 62 66
248 996 285 61 63 67
248 997 285 60 61 66
249 996 284 56 58 63
249 997 284 56 58 63
249 997 285 59 60 65
248 996 286 61 63 67
248 997 286 61 63 67
248 997 287 61 62 66
249 997 286 61 63 67
249 997 287 62 64 68
250 997 284 54 56 61
250 997 285 56 58 63
251 997 284 54 56 60
251 997 285 56 58 62
250 997 286 59 60 64
250 997 287 62 63 67
251 998 285 56 58 62
250 998 287 61 62 66
251 998 286 58 59 63
251 998 287 60 61 66
252 997 281 54 56 60
253 997 281 54 55 59
252 997 282 56 58 63
252 997 283 57 59 64
253 997 282 57 58 62
253 997 283 59 60 65
253 998 283 59 61 65
254 997 281 54 56 59
254 997 282 56 57 61
254 998 281 56 57 60
255 998 281 57 57 61
254 998 282 56 57 61
254 998 283 57 58 62
255 998 282 60 60 64
255 998 283 60 60 64
252 997 284 55 57 62
252 998 284 57 59 64
252 998 285 57 59 64
253 998 284 59 61 66
253 998 285 59 61 66
252 998 286 58 60 64
252 998 287 59 60 65
253 998 286 60 62 67
253 998 287 61 63 68
254 998 284 58 60 64
254 998 285 60 61 66
255 998 284 58 60 64
255 998 285 58 59 64
254 998 286 62 64 69
254 998 287 64 66 71
255 998 286 59 61 65
255 998 287 60 61 66
239 992 288 64 65 70
239 992 289 63 65 70
238 992 290 60 62 67
238 992 291 57 60 65
239 992 290 60 62 68
239 992 291 56 59 65
239 993 290 60 62 68
239 993 291 57 59 65
238 992 292 56 58 64
238 992 293 55 57 63
239 992 292 56 59 65
239 992 293 56 59 65
239 993 292 55 58 64
239 993 293 55 58 64
238 992 294 53 55 61
238 992 295 52 54 60
239 992 294 54 56 62
239 992 295 52 55 61
239 993 294 54 57 63
239 993 295 55 58 64
234 992 303 46 48 53
235 992 302 48 50 53
235 992 303 45 47 50
235 993 303 48 49 53
237 992 297 50 53 58
237 992 298 48 51 56
237 992 299 48 50 55
237 993 299 51 53 57
238 992 296 52 55 61
238 992 297 53 56 61
238 993 297 56 58 64
239 992 296 57 60 66
239 993 296 63 65 71
239 993 297 61 63 68
238 992 298 52 54 60
238 993 298 53 55 60
238 993 299 54 55 59
239 993 298 56 57 62
239 994 298 58 59 63
239 994 299 56 57 61
239 995 299 55 56 59
236 992 300 46 49 54
236 992 301 47 49 53
236 993 301 51 52 56
237 992 300 50 51 56
237 993 300 51 52 56
237 993 301 52 53 57
236 992 302 48 50 54
236 993 302 51 52 55
236 993 303 51 52 55
237 993 302 53 54 57
236 994 303 51 52 55
237 994 302 53 53 56
237 994 303 52 52 55
238 993 300 53 54 57
238 994 300 53 53 56
238 994 301 51 52 55
239 994 300 56 56 59
239 995 300 56 56 59
239 995 301 53 53 56
238 994 302 52 52 54
238 995 302 50 50 53
238 995 303 53 53 55
239 995 302 51 51 53
239 995 303 56 56 58
233 992 305 50 52 56
233 992 306 55 56 60
233 992 307 55 56 59
234 992 304 48 50 54
234 992 305 53 54 58
234 993 305 58 59 62
235 992 304 48 49 53
235 993 304 52 53 56
235 993 305 53 54 57
234 992 306 59 60 64
234 992 307 56 57 61
234 993 306 61 61 65
234 993 307 59 60 63
235 993 306 55 56 59
235 993 307 56 55 57
235 994 305 51 52 55
235 994 306 53 53 55
235 994 307 54 54 56
233 992 308 54 54 57
233 992 309 53 54 57
234 992 308 56 57 60
234 992 309 56 56 60
234 993 308 59 59 62
234 993 309 59 59 62
235 992 309 59 59 61
235 993 308 57 56 58
235 993 309 58 57 59
234 992 310 56 57 60
235 992 310 59 58 61
235 992 311 58 58 61
236 994 304 51 51 54
236 994 305 50 50 52
237 994 304 54 54 57
237 994 305 56 56 58
237 995 304 55 55 57
237 995 305 58 58 60
236 994 306 55 54 57
236 994 307 57 56 59
237 994 306 58 58 60
237 994 307 58 58 61
237 995 306 60 60 63
238 995 304 56 55 57
238 995 305 58 58 61
239 995 304 60 59 62
239 995 305 62 61 64
238 994 307 59 58 61
238 995 306 59 59 61
238 995 307 59 59 62
239 995 306 61 61 64
239 995 307 57 56 59
236 993 309 57 56 57
237 993 309 56 56 58
236 992 310 57 56 58
236 992 311 56 55 57
236 993 310 55 54 56
237 992 311 52 52 54
237 993 310 54 54 56
237 993 311 52 51 53
236 994 308 57 56 58
236 994 309 56 56 58
237 994 308 58 58 60
237 994 309 57 57 59
238 992 311 46 46 49
238 993 310 46 47 49
238 993 311 45 46 48
239 993 310 43 43 46
239 993 311 44 44 47
238 994 308 58 57 60
238 994 309 52 52 54
239 994 308 47 47 50
239 994 309 42 42 45
239 995 308 47 47 50
239 994 310 40 41 44
236 992 312 58 57 59
237 992 312 49 49 51
238 992 312 43 42 45
239 992 312 43 42 45
239 992 313 43 41 43
239 993 312 42 43 45
240 992 288 61 63 67
240 993 288 60 62 66
240 993 289 59 61 66
241 993 288 57 59 64
241 993 289 56 58 63
240 993 290 58 60 66
240 993 291 57 60 65
241 993 290 55 57 63
241 993 291 57 59 64
241 994 289 53 55 60
241 994 290 53 55 60
241 994 291 57 58 63
242 994 288 57 59 63
242 994 289 56 58 62
243 994 288 58 60 64
243 994 289 59 60 64
243 995 288 58 59 63
243 995 289 58 59 64
242 994 290 53 55 59
242 994 291 54 55 59
243 994 290 57 58 62
243 994 291 55 56 60
243 995 290 58 59 63
243 995 291 55 56 60
240 993 292 58 61 66
240 993 293 56 59 65
240 993 294 55 57 63
240 993 295 56 59 65
241 994 292 60 61 66
241 994 293 60 61 66
240 994 295 57 60 66
241 994 294 59 61 66
241 994 295 61 63 67
242 994 292 58 60 64
242 994 293 61 62 66
242 995 293 61 62 66
243 995 292 57 58 62
243 995 293 59 60 64
242 994 294 62 63 68
242 995 294 64 65 69
242 995 295 65 66 70
243 995 294 62 63 67
243 995 295 63 64 68
243 996 293 58 59 62
243 996 294 59 60 64
243 996 295 60 61 66
244 995 288 58 59 63
244 995 289 56 57 61
245 995 288 56 57 61
244 995 290 57 58 62
244 995 291 55 56 61
245 996 288 54 56 60
245 996 289 52 53 57
244 996 290 55 56 60
244 996 291 53 54 59
245 996 290 54 54 58
245 996 291 52 53 58
246 996 288 54 56 60
246 996 289 50 52 56
247 996 288 56 57 62
247 997 288 54 56 60
247 997 289 49 51 55
246 996 290 50 51 55
246 996 291 51 52 56
246 997 290 49 50 55
246 997 291 50 51 56
247 997 290 47 48 53
247 997 291 52 53 57
244 996 292 56 57 61
244 996 293 58 59 62
245 996 292 53 54 57
245 996 293 56 57 60
245 997 293 56 56 59
244 996 294 59 60 64
244 996 295 55 56 60
244 997 294 57 58 62
244 997 295 55 56 60
245 997 294 57 58 61
245 997 295 57 58 62
246 997 292 51 52 55
246 997 293 53 54 57
247 997 292 50 52 56
247 997 293 50 52 56
246 997 294 55 55 58
246 997 295 56 57 61
247 997 294 54 54 57
247 998 293 51 51 55
246 998 295 56 57 60
247 998 294 53 54 58
247 998 295 56 57 61
240 993 297 65 68 73
240 994 296 64 67 72
240 994 297 63 64 69
240 995 297 62 63 67
241 994 296 64 65 70
241 995 296 65 66 70
241 995 297 65 65 70
240 994 298 59 60 64
240 995 298 61 61 65
240 995 299 60 60 63
241 995 298 64 65 69
242 995 296 67 67 71
242 995 297 66 67 70
240 995 300 58 59 62
240 995 301 57 57 60
240 995 302 53 53 56
240 995 303 55 55 58
241 996 298 65 65 69
241 996 299 63 62 66
242 996 296 66 67 71
242 996 297 66 66 70
243 996 296 60 61 65
243 996 297 61 61 65
243 997 297 58 59 63
242 996 298 64 64 68
242 996 299 61 61 65
243 996 298 62 62 66
243 996 299 59 59 62
243 997 298 60 60 64
243 997 299 58 58 61
240 996 300 61 61 64
240 996 301 59 60 63
241 996 300 64 63 66
241 996 301 62 61 64
240 996 302 54 54 57
240 996 303 56 56 59
241 996 302 55 55 58
241 996 303 56 55 58
242 996 300 63 63 66
242 996 301 60 60 62
243 997 300 58 58 61
243 997 301 56 56 59
242 996 302 54 53 56
242 996 303 55 55 58
243 996 303 55 55 58
243 997 302 52 53 56
243 997 303 53 53 56
244 997 296 55 57 61
244 997 297 57 58 62
245 997 296 56 57 62
245 997 297 56 58 62
244 997 298 59 59 62
244 997 299 58 58 60
245 997 298 57 58 62
245 997 299 57 57 60
246 997 296 57 58 62
246 997 297 57 59 64
246 998 296 56 58 62
246 998 297 58 60 64
247 998 296 57 59 63
247 998 297 57 59 64
246 998 298 58 60 64
246 998 299 57 58 61
247 998 298 58 60 64
247 998 299 58 60 64
244 997 300 55 55 58
244 997 301 52 52 55
245 997 300 53 54 56
245 997 301 52 52 55
244 997 302 51 52 55
244 997 303 51 51 54
245 997 302 50 51 55
245 997 303 46 48 51
246 998 300 55 55 59
246 998 301 54 55 58
247 998 300 58 60 64
247 998 301 58 59 63
246 998 302 51 52 56
246 998 303 46 48 52
247 998 302 56 57 61
247 998 303 54 56 59
248 997 288 57 59 63
248 997 289 51 53 57
249 997 288 59 60 65
249 997 289 53 54 58
248 997 290 49 51 54
248 997 291 51 52 56
249 998 289 51 53 57
248 998 291 51 52 56
249 998 290 50 51 55
249 998 291 51 52 57
250 997 288 60 61 65
250 998 288 60 61 65
250 998 289 54 55 59
251 998 288 60 62 66
251 998 289 55 56 61
250 998 290 48 51 55
250 998 291 51 52 56
251 998 290 49 51 56
251 998 291 50 52 56
248 997 292 50 52 57
248 998 292 51 51 56
248 998 293 51 51 56
249 998 292 51 52 56
249 998 293 49 50 53
248 998 294 53 54 59
248 998 295 54 56 61
249 998 294 51 52 55
249 998 295 54 55 59
250 998 292 50 52 55
250 998 293 47 48 51
251 998 292 49 51 55
251 998 293 46 48 52
251 999 293 45 48 52
250 998 294 49 49 53
250 998 295 52 53 56
250 999 294 51 52 55
250 999 295 53 53 57
251 998 294 46 48 51
251 999 294 48 50 54
251 999 295 51 53 57
252 998 288 60 62 67
252 998 289 56 58 64
253 998 288 61 63 68
253 998 289 57 59 65
252 998 290 52 55 60
252 998 291 51 53 58
253 998 290 51 54 60
253 998 291 49 52 58
253 999 291 48 52 57
254 998 288 66 68 73
254 998 289 62 64 69
254 999 289 64 66 71
255 998 288 65 67 72
255 999 288 62 64 69
255 999 289 65 67 73
254 998 290 54 56 62
254 999 290 56 59 64
254 999 291 48 51 56
255 999 290 60 63 68
255 999 291 50 53 58
252 998 292 51 53 58
252 999 292 51 53 58
252 999 293 48 51 55
253 999 292 52 54 59
253 999 293 50 53 57
252 999 294 48 50 54
252 999 295 51 53 58
253 999 294 46 48 52
253 999 295 53 55 59
254 999 292 48 50 55
254 999 293 49 51 56
255 999 292 44 47 51
255 999 293 48 51 56
254 999 294 45 47 51
254 999 295 47 49 53
255 999 294 46 48 53
255 999 295 39 42 47
248 998 296 55 57 62
248 998 297 56 59 63
249 998 296 54 56 60
249 998 297 57 59 64
249 999 296 54 56 60
249 999 297 58 60 64
248 998 298 57 59 64
248 998 299 59 61 66
248 999 298 58 60 65
248 999 299 60 62 67
249 999 298 59 61 66
249 999 299 61 63 68
250 999 296 53 54 58
250 999 297 55 57 60
251 999 296 52 54 57
251 999 297 53 54 58
250 999 298 57 59 63
250 999 299 58 60 64
251 999 298 54 55 58
251 999 299 55 56 60
248 998 300 60 62 66
248 999 300 62 64 68
248 999 301 62 63 68
249 999 300 62 65 69
249 999 301 63 65 70
248 998 303 55 57 61
248 999 302 60 62 66
248 999 303 57 59 63
249 999 302 63 66 70
249 999 303 59 61 66
250 999 300 59 61 66
250 999 301 62 65 70
251 999 300 58 59 63
251 999 301 61 62 67
250 999 302 65 67 73
250 999 303 62 65 70
251 999 302 66 67 72
251 999 303 66 67 72
252 999 296 53 55 59
252 999 297 54 56 60
253 999 296 58 60 64
253 999 297 61 63 67
252 999 298 54 55 59
252 999 299 54 55 60
253 999 298 60 62 66
253 999 299 57 59 64
254 999 296 53 55 59
254 999 297 59 61 65
255 999 296 41 44 48
255 999 297 51 54 59
254 999 298 59 61 65
254 999 299 55 58 62
255 999 298 58 60 65
255 999 299 56 59 64
252 999 300 55 56 61
252 999 301 58 59 64
253 999 300 56 58 63
253 999 301 59 61 66
252 999 302 63 64 69
252 999 303 65 67 71
253 999 302 62 64 69
253 999 303 62 64 69
254 999 300 54 56 61
254 999 301 53 55 60
255 999 300 52 55 60
255 999 301 50 53 59
254 999 302 57 60 65
254 999 303 62 64 70
255 999 302 55 58 63
255 999 303 64 67 72
240 995 304 62 61 64
240 995 305 60 59 63
240 995 306 58 58 61
240 995 307 54 55 58
241 995 307 53 54 58
240 993 311 39 40 43
241 993 311 37 39 43
240 994 309 44 44 48
240 995 308 49 49 53
241 994 309 53 53 57
241 995 308 51 52 56
241 995 309 53 53 58
240 994 310 39 40 43
240 994 311 37 39 43
241 994 310 50 50 54
241 994 311 44 45 49
242 995 308 45 46 49
242 995 309 46 47 51
242 994 310 56 56 60
242 994 311 54 54 58
242 995 310 51 52 56
243 994 311 52 53 57
243 995 310 43 45 49
243 995 311 45 47 51
240 996 304 60 59 62
240 996 305 59 60 63
241 996 304 58 58 61
241 996 305 61 61 64
241 996 306 59 60 63
241 996 307 56 57 60
242 996 304 58 58 61
242 996 305 61 62 65
243 996 304 57 57 61
243 996 305 59 59 63
243 997 304 55 55 59
243 997 305 57 58 61
242 996 306 61 61 65
242 996 307 55 56 59
243 996 306 60 61 64
243 996 307 57 58 61
243 997 306 59 60 63
243 997 307 60 61 64
242 996 308 48 49 53
242 996 309 44 45 49
243 996 308 54 55 58
243 996 309 45 46 50
243 996 310 42 44 47
244 995 310 42 44 49
244 995 311 42 44 49
245 995 311 46 49 54
244 997 304 52 52 55
244 997 305 53 54 57
245 997 304 43 44 47
245 997 305 41 42 45
244 997 306 57 58 61
244 997 307 60 61 64
245 997 306 46 47 49
245 997 307 55 55 58
246 997 304 40 42 46
246 997 305 36 37 41
246 997 306 37 38 41
246 997 307 42 43 46
246 998 304 43 44 48
246 998 305 37 39 43
247 998 304 49 51 55
247 998 305 42 44 48
246 998 306 36 38 41
247 998 306 41 43 48
247 998 307 44 46 51
244 996 308 58 58 61
244 996 309 51 52 56
244 997 308 60 61 64
245 996 309 57 58 62
245 997 308 60 60 63
245 997 309 61 62 65
244 996 310 43 45 49
245 996 310 54 56 60
245 996 311 52 54 59
246 997 308 47 48 51
246 997 309 53 54 58
247 997 308 50 52 56
247 997 309 52 54 58
246 996 310 60 61 65
246 996 311 59 60 65
246 997 310 58 59 63
247 996 311 54 55 59
247 997 310 53 54 58
247 997 311 51 52 56
247 998 308 45 48 52
240 992 312 43 43 46
240 992 313 40 40 42
240 993 312 39 41 44
241 992 313 38 38 41
241 993 312 38 41 45
241 993 313 37 40 43
241 992 314 38 38 40
242 992 313 41 42 45
242 993 312 43 45 49
242 993 313 42 44 47
243 993 313 41 43 47
242 992 314 42 43 46
243 992 314 43 44 47
243 992 315 47 48 52
243 993 314 41 43 47
242 994 312 47 49 53
242 994 313 44 46 49
243 994 312 44 46 51
243 994 313 41 44 48
243 995 312 41 44 48
244 992 315 53 54 57
244 993 314 47 50 54
244 993 315 54 56 60
245 992 315 52 53 57
245 993 314 54 56 60
245 993 315 52 54 58
244 994 313 44 47 52
244 995 312 41 44 49
244 995 313 46 49 53
245 994 313 52 54 59
245 995 312 51 53 58
245 995 313 52 54 59
244 994 314 49 51 56
245 994 314 53 55 60
246 993 315 57 58 61
247 993 315 58 59 62
246 995 312 55 57 61
246 995 313 57 58 63
247 995 313 55 57 62
246 994 314 57 59 63
246 994 315 56 57 61
246 995 314 59 60 65
247 994 315 57 58 62
247 995 314 56 58 63
244 992 316 52 53 56
245 992 316 53 54 57
246 992 316 55 56 59
246 993 316 58 58 62
247 992 316 52 52 55
247 992 317 49 50 53
247 993 316 56 57 60
246 996 312 56 58 62
247 996 312 52 54 58
247 996 313 54 56 60
248 998 304 50 52 57
248 998 305 46 47 52
248 999 304 52 54 58
249 998 305 50 51 54
249 999 304 53 55 59
249 999 305 48 50 54
248 998 306 43 45 49
248 998 307 40 42 47
249 998 306 52 53 57
249 998 307 53 55 59
250 999 304 58 61 66
250 999 305 50 52 57
251 999 304 61 63 67
251 999 305 53 55 60
250 998 306 51 52 57
250 998 307 54 56 60
250 999 306 47 49 54
251 998 307 54 57 62
251 999 306 49 52 57
248 997 309 39 42 47
248 997 310 40 43 47
248 997 311 47 49 54
249 997 310 56 59 65
249 997 311 61 63 68
248 998 308 38 41 45
248 998 309 39 42 46
249 998 308 52 53 59
249 998 309 52 54 60
250 997 310 61 63 68
250 997 311 60 62 67
251 997 310 59 62 68
251 997 311 54 58 64
250 998 308 58 59 64
250 998 309 60 62 67
251 998 308 57 60 66
251 998 309 59 62 69
250 998 310 64 66 71
252 999 304 64 66 70
252 999 305 58 60 65
253 999 304 63 64 70
253 999 305 60 62 67
252 998 306 51 53 58
252 998 307 55 57 62
252 999 306 52 54 59
253 998 306 54 56 61
253 998 307 52 53 58
253 999 306 54 56 60
254 999 304 62 65 71
254 999 305 59 62 68
255 998 305 60 64 69
255 999 304 67 69 75
255 999 305 64 67 73
254 998 306 60 62 68
254 998 307 60 61 67
255 998 306 60 63 69
255 998 307 60 63 69
252 997 310 69 72 79
252 997 311 64 68 74
253 997 310 68 70 76
253 997 311 67 69 75
252 998 308 64 65 71
252 998 309 70 72 78
253 998 308 56 57 62
253 998 309 64 66 71
254 997 310 64 67 72
254 997 311 66 69 74
255 997 310 66 68 74
255 997 311 65 68 74
254 998 308 59 60 65
254 998 309 61 62 67
255 998 308 64 66 72
255 998 309 66 68 74
248 995 313 63 65 70
248 994 315 58 59 63
248 995 314 64 66 71
248 995 315 59 61 66
249 994 315 44 46 50
249 995 314 61 63 68
249 995 315 49 51 56
250 995 314 51 52 57
250 995 315 45 47 51
251 995 314 52 54 58
251 995 315 55 56 60
248 992 316 44 45 48
248 992 317 43 43 46
248 993 316 49 50 54
249 992 317 48 49 51
249 993 316 44 44 48
249 993 317 52 53 56
248 994 316 52 53 57
249 994 316 43 44 48
250 992 317 54 55 58
250 993 316 54 54 58
250 993 317 57 58 61
251 992 317 59 60 64
251 993 317 59 61 65
251 992 318 60 61 65
250 994 316 50 51 55
251 994 316 59 60 65
248 996 312 54 56 61
248 996 313 60 62 67
249 996 312 65 66 71
249 996 313 67 69 74
249 997 312 66 68 73
250 996 312 62 63 68
250 996 313 59 60 64
250 997 312 60 62 67
251 996 312 51 54 60
251 996 313 49 51 57
251 997 312 53 57 64
251 996 314 51 53 57
252 995 314 62 64 69
252 995 315 60 62 68
253 995 314 62 64 70
253 995 315 62 65 71
254 995 314 66 69 74
254 995 315 67 69 75
255 995 314 69 71 78
255 995 315 69 72 78
252 992 317 63 64 69
252 993 317 63 64 69
253 993 317 64 67 72
252 992 318 62 63 68
253 992 318 60 62 68
252 994 316 62 64 70
252 995 316 62 65 70
253 994 316 65 67 73
253 995 316 64 67 72
254 993 317 65 67 73
255 993 317 69 71 77
254 992 318 60 62 67
255 992 318 65 66 70
254 994 316 68 71 76
254 994 317 68 71 77
254 995 316 68 70 76
255 994 316 71 73 79
255 994 317 71 74 79
255 995 316 72 74 80
252 996 312 61 64 70
252 996 313 60 63 68
252 997 312 64 67 74
253 996 312 65 67 72
253 996 313 64 65 70
253 997 312 66 69 74
252 996 314 62 64 69
253 996 314 62 64 69
254 996 312 65 67 72
254 996 313 63 66 71
254 997 312 67 70 75
255 996 312 66 69 74
255 996 313 67 70 76
255 997 312 67 69 75
254 996 314 64 67 73
255 996 314 68 71 77
232 960 320 193 154 138
233 960 320 192 154 137
233 960 321 195 156 139
233 961 320 189 151 133
234 960 321 195 155 139
234 961 320 190 151 133
234 961 321 192 153 136
235 961 321 191 151 135
234 960 322 197 158 142
235 960 322 198 158 142
235 960 323 201 160 145
235 961 322 195 155 139
234 962 320 187 148 130
234 962 321 188 149 132
235 962 320 188 150 133
235 962 321 189 150 133
235 963 320 189 151 134
236 960 323 201 160 145
236 961 322 196 156 141
236 961 323 198 158 142
237 961 323 199 159 143
236 962 321 191 152 135
236 963 320 192 154 137
236 963 321 192 154 137
236 962 322 192 153 137
237 962 322 194 155 139
237 962 323 197 158 142
237 963 322 196 158 141
238 962 323 199 160 145
238 963 322 198 159 143
238 963 323 199 161 145
239 962 323 200 161 146
239 963 323 201 162 147
236 960 324 204 163 148
237 960 324 203 162 147
237 961 324 201 160 145
238 960 324 203 162 148
238 960 325 205 164 150
238 961 324 202 162 147
239 960 325 206 165 151
239 961 324 203 163 148
239 961 325 205 165 150
239 960 326 208 168 154
238 962 324 201 161 147
239 962 324 202 163 148
239 962 325 204 165 151
239 963 324 202 163 148
236 964 320 193 155 138
236 964 321 194 156 139
236 965 320 197 159 142
237 964 321 197 160 144
237 965 320 200 163 146
237 965 321 199 162 145
237 964 322 199 161 145
237 966 320 202 165 149
238 965 321 204 166 150
239 965 321 206 168 153
238 964 322 201 163 148
238 965 322 203 166 150
239 964 322 203 164 149
239 964 323 203 164 149
239 965 322 205 167 152
238 966 320 205 168 152
238 966 321 206 169 154
238 967 320 204 168 152
239 966 321 207 170 155
239 967 320 207 171 156
239 967 321 208 171 157
239 968 320 205 167 152
240 961 325 206 167 153
240 960 326 209 169 155
240 960 327 210 169 156
240 961 326 207 167 153
241 960 327 209 168 154
241 961 326 205 165 151
241 961 327 206 165 151
240 962 324 203 163 148
240 962 325 204 164 149
240 963 324 203 163 148
240 963 325 202 162 147
241 962 325 203 163 148
241 963 325 202 162 147
241 962 326 203 164 148
242 961 327 204 163 149
242 963 325 202 162 147
242 962 326 202 162 147
242 962 327 203 162 148
242 963 326 202 162 147
243 962 327 203 163 147
243 963 326 203 163 147
243 963 327 203 163 147
240 964 323 204 165 150
240 965 322 206 168 154
240 965 323 206 167 153
241 965 323 208 168 154
240 966 321 208 171 157
240 967 321 208 170 157
240 966 322 208 170 156
240 967 322 209 170 157
241 966 323 210 171 157
241 967 322 209 170 157
241 967 323 210 171 157
242 966 323 210 172 158
242 967 323 209 170 156
243 967 323 208 168 155
240 964 324 204 165 150
241 964 324 205 165 150
241 964 325 203 163 148
241 965 324 208 168 153
242 964 325 204 164 148
242 965 324 208 168 154
242 965 325 206 166 151
243 965 325 207 166 152
243 964 326 204 164 149
243 964 327 204 163 148
243 965 326 207 165 151
242 966 324 209 170 156
243 966 324 208 167 153
243 966 325 208 167 154
243 967 324 208 168 155
244 963 327 203 163 146
244 964 327 205 164 148
244 965 326 208 166 151
244 965 327 208 166 150
245 964 327 206 164 147
245 965 326 209 168 152
245 965 327 208 167 150
244 966 325 209 168 154
244 967 324 208 168 155
244 967 325 209 169 155
245 967 325 209 168 154
244 966 326 209 168 152
245 966 326 209 168 153
245 967 326 208 167 152
246 965 327 207 166 149
246 966 326 208 167 151
246 966 327 207 165 149
246 967 326 207 165 150
247 966 327 206 164 147
247 967 327 205 164 148
241 960 328 209 167 153
242 960 328 207 166 152
242 960 329 209 166 153
242 961 328 204 163 148
243 960 329 207 164 151
243 961 328 205 163 148
243 962 328 203 163 148
244 960 329 207 165 150
244 961 328 205 163 147
244 961 329 205 164 148
245 961 329 205 164 148
244 960 330 208 165 149
245 960 330 207 165 149
245 961 330 207 165 149
244 962 328 204 164 147
244 963 328 203 163 146
245 962 328 204 163 146
245 962 329 205 164 148
245 963 328 204 163 145
246 960 330 207 165 150
246 960 331 207 164 148
246 961 330 206 164 149
247 960 331 207 164 149
247 961 330 205 163 147
247 961 331 205 163 147
246 962 329 204 162 146
246 963 328 204 163 145
246 963 329 204 162 145
247 962 329 202 160 143
247 963 329 203 161 145
246 962 330 204 162 147
247 962 330 203 161 145
245 964 328 205 164 146
246 964 328 205 164 146
246 965 328 205 164 146
247 964 328 204 161 144
247 964 329 203 161 144
247 965 328 205 163 145
247 966 328 205 164 146
240 968 320 206 168 154
240 968 321 207 169 155
240 969 320 206 167 154
241 968 321 208 169 156
241 969 320 207 168 155
241 969 321 207 168 155
241 968 322 208 170 157
241 970 320 205 166 154
242 969 321 206 167 153
242 968 322 208 169 156
242 968 323 209 170 157
242 969 322 206 167 153
243 968 322 207 167 153
243 968 323 207 167 154
243 969 322 206 166 153
243 969 323 205 165 152
242 970 320 204 164 153
242 970 321 205 165 153
242 971 320 204 164 152
243 970 321 205 165 153
243 971 320 202 163 152
243 971 321 204 165 153
243 970 322 204 165 153
243 968 324 207 167 154
243 972 320 199 161 150
244 968 323 205 165 152
244 969 323 204 164 151
245 969 323 204 163 150
244 971 321 202 163 151
244 970 322 204 164 152
244 970 323 203 163 151
244 971 322 203 163 150
245 970 323 202 162 150
245 971 322 201 162 150
245 971 323 201 162 150
246 970 323 201 161 148
246 971 322 200 161 148
246 971 323 199 159 147
247 971 323 197 157 145
244 968 324 207 167 153
245 968 324 206 165 151
245 968 325 208 167 153
245 969 324 204 164 150
246 968 325 205 164 150
246 969 324 203 163 148
246 969 325 203 161 147
247 968 325 203 162 148
247 969 325 201 160 146
246 968 326 206 165 150
247 968 326 204 163 148
247 968 327 204 163 147
247 969 326 202 160 146
246 970 324 201 160 147
247 970 324 199 158 145
247 970 325 200 158 146
247 971 324 199 158 146
244 972 320 197 157 147
244 972 321 200 161 149
244 973 320 190 150 142
245 972 320 193 153 143
245 972 321 197 158 146
245 973 320 187 147 138
245 972 322 199 160 148
246 972 321 193 153 143
246 973 320 183 143 134
246 973 321 186 146 136
247 973 321 178 138 129
246 972 322 195 156 144
246 972 323 196 157 144
247 972 322 190 151 140
247 972 323 195 155 141
247 973 322 186 146 135
246 974 320 163 124 118
246 975 320 136 98 96
247 974 320 150 111 108
247 974 321 158 119 113
247 975 320 127 92 91
248 967 327 205 164 148
248 960 331 206 164 148
248 961 331 205 163 146
249 960 331 206 164 147
249 961 331 205 163 146
248 963 329 203 162 145
248 962 330 203 162 145
248 962 331 203 162 145
248 963 330 203 162 145
249 962 330 203 162 145
249 962 331 204 162 145
249 963 330 204 163 146
250 961 331 205 163 146
250 962 331 205 163 145
250 963 330 206 164 147
250 963 331 206 164 146
251 962 331 206 164 145
251 963 331 206 164 146
248 960 332 206 164 148
249 960 332 206 163 147
250 960 332 205 164 146
250 961 332 205 164 146
251 960 332 204 161 143
251 960 333 203 160 142
251 961 332 203 162 142
250 962 332 205 164 145
251 962 332 204 163 143
248 964 329 204 162 145
248 965 328 204 162 145
248 965 329 204 162 145
249 964 329 204 162 146
249 965 329 205 163 146
249 964 330 205 163 146
248 966 328 205 164 146
248 967 328 205 164 148
249 966 328 205 164 147
249 966 329 205 164 146
249 967 328 205 165 148
250 965 329 206 164 147
250 964 330 206 164 147
250 965 330 207 164 148
251 964 330 208 166 149
251 964 331 207 165 148
251 965 330 208 166 150
250 966 329 206 164 147
250 967 328 206 165 149
250 967 329 207 165 150
251 966 329 209 167 150
251 967 328 208 167 152
251 967 329 209 168 152
252 963 331 205 163 145
253 963 331 204 161 142
254 963 331 204 160 142
252 960 333 202 159 140
252 961 332 202 160 140
253 960 333 200 158 139
253 961 332 201 158 138
253 961 333 200 158 138
252 962 332 204 161 142
252 963 332 205 162 144
253 962 332 202 159 139
253 963 332 204 160 141
254 960 333 198 156 136
254 961 332 200 157 137
254 961 333 199 156 136
255 960 333 196 154 134
255 961 333 196 154 133
254 962 332 201 158 138
254 963 332 203 160 141
255 962 332 200 157 137
255 963 332 202 159 139
252 964 331 207 165 147
252 965 330 209 168 149
253 964 331 206 164 145
253 965 330 209 168 149
252 966 329 210 169 152
252 967 329 210 169 153
253 966 329 211 170 152
253 967 329 211 170 153
252 966 330 210 169 151
253 966 330 211 170 152
254 964 331 205 163 144
254 965 330 210 169 149
254 965 331 208 166 147
255 964 331 204 162 143
255 965 330 208 166 146
255 965 331 207 164 145
254 967 329 212 170 154
255 967 329 212 170 154
254 966 330 212 171 152
255 966 330 211 168 149
255 967 330 212 170 153
248 968 327 204 163 148
248 969 326 202 160 146
249 968 327 204 163 147
249 969 326 203 161 146
249 969 327 204 162 147
248 970 325 200 158 145
248 971 324 197 156 143
248 971 325 198 157 143
249 970 325 201 158 144
249 971 324 196 156 142
249 971 325 198 157 144
249 970 326 203 160 145
250 968 327 205 164 148
250 969 326 204 162 147
250 969 327 205 163 148
251 968 327 206 165 149
251 969 327 206 164 148
250 971 325 199 157 143
251 971 325 200 158 145
250 970 326 203 161 146
250 971 326 201 159 145
251 970 326 205 163 148
251 970 327 206 164 148
251 971 326 202 161 147
248 972 323 192 153 140
248 973 322 176 136 129
248 973 323 186 147 136
249 973 322 169 130 124
249 973 323 180 140 131
248 974 321 153 115 111
248 975 320 119 87 87
248 975 321 128 93 92
249 975 321 123 89 90
248 974 322 160 122 117
249 974 322 151 113 110
249 975 322 120 88 88
250 973 323 170 131 125
250 974 322 140 104 102
250 974 323 147 111 108
250 975 322 115 86 86
250 975 323 121 90 90
251 974 323 136 101 101
251 975 323 109 81 82
248 972 324 195 154 141
249 972 324 193 153 140
250 972 324 191 150 138
250 972 325 195 153 141
250 973 324 183 143 133
251 972 325 194 152 141
251 973 324 172 132 126
251 973 325 184 143 135
251 974 324 145 108 107
252 969 327 207 164 150
253 969 327 206 163 150
252 970 326 205 164 149
252 970 327 205 164 148
252 971 326 203 161 148
253 970 327 204 162 148
253 971 326 201 159 147
254 969 327 207 164 151
254 970 327 206 163 150
254 971 326 201 160 149
254 971 327 204 161 149
255 970 327 208 164 152
255 971 327 205 163 151
252 974 323 126 94 95
252 975 323 105 81 82
253 975 323 98 78 79
252 972 325 193 152 140
252 973 324 164 125 120
252 973 325 180 139 132
253 972 325 190 149 138
253 973 324 158 122 118
253 973 325 172 134 127
252 972 326 197 156 144
253 972 326 194 153 143
252 974 324 137 103 102
253 974 324 134 103 102
253 975 324 106 83 85
254 973 325 167 131 124
255 973 325 166 131 124
254 972 326 193 153 143
254 973 326 181 143 134
255 972 326 196 156 145
255 973 326 184 146 137
254 974 324 125 96 96
254 974 325 141 109 106
254 975 324 104 82 84
255 974 325 136 106 103
255 975 324 106 84 85
250 968 328 206 165 150
251 968 328 207 165 150
252 968 328 208 166 152
253 968 328 209 167 153
253 968 329 210 169 154
253 969 328 207 164 151
254 968 328 209 167 153
254 968 329 211 169 154
254 969 328 208 165 153
255 968 328 211 168 154
255 968 329 211 169 153
255 969 328 209 166 152
247 976 320 104 78 76
247 977 320 80 71 69
248 976 320 92 73 72
248 976 321 104 77 78
248 977 320 75 68 68
249 976 321 90 71 71
249 977 320 70 66 68
249 977 321 72 67 68
248 978 320 66 63 65
248 979 320 59 58 60
249 978 320 63 60 63
249 978 321 65 62 65
249 979 320 57 56 58
250 976 321 83 70 70
250 977 321 71 66 69
250 976 322 88 72 72
250 977 322 69 66 69
251 976 322 81 70 71
251 976 323 90 72 73
251 977 322 68 66 69
250 978 321 62 61 64
250 979 320 56 56 58
250 979 321 59 58 61
251 979 321 59 59 63
251 978 322 61 60 64
251 979 322 57 58 62
248 980 320 56 55 59
249 980 320 55 55 58
249 981 320 55 55 59
249 982 320 54 54 58
249 983 320 52 53 57
250 980 320 56 57 61
250 980 321 57 58 62
250 981 320 55 56 60
250 981 321 56 56 61
251 980 321 56 57 62
251 981 321 55 57 61
250 982 320 53 54 58
250 983 320 52 53 57
251 982 321 52 54 59
251 983 320 50 51 55
251 983 321 49 50 55
252 976 323 81 72 72
252 977 322 70 68 71
252 977 323 71 69 72
253 976 323 78 70 71
