ply
format ascii 1.0
comment PCL generated
element vertex 2251
property float x
property float y
property float z
property uchar red
property uchar green
property uchar blue
element camera 0
property float view_px
property float view_py
property float view_pz
property float x_axisx
property float x_axisy
property float x_axisz
property float y_axisx
property float y_axisy
property float y_axisz
property float z_axisx
property float z_axisy
property float z_axisz
property float focal
property float scalex
property float scaley
property float centerx
property float centery
property int viewportx
property int viewporty
property float k1
property float k2
end_header
316 286 195 40 50 59
316 287 194 40 49 58
316 287 195 41 50 59
316 284 196 44 53 63
316 284 197 43 52 62
316 285 196 44 54 64
316 284 198 40 50 60
316 284 199 41 50 60
315 284 200 40 50 59
315 284 201 42 51 60
315 285 200 41 50 59
315 285 201 42 50 59
315 284 202 44 53 62
315 284 203 44 53 62
315 285 202 42 51 60
315 285 203 41 50 60
315 286 200 42 51 60
315 286 201 43 51 59
315 287 200 43 52 60
315 287 201 44 52 60
315 286 202 42 50 59
315 286 203 41 50 59
315 287 202 42 51 59
315 287 203 43 51 60
315 284 204 42 51 61
315 284 205 41 51 61
315 285 204 40 50 60
315 285 205 41 51 61
315 285 206 42 52 62
315 285 207 43 53 64
315 286 204 39 49 59
315 286 205 41 51 61
315 287 204 41 50 60
315 287 205 40 50 60
315 286 206 44 54 64
315 286 207 44 54 64
315 287 206 42 52 62
315 287 207 42 53 63
316 281 200 45 54 63
316 281 201 45 54 63
317 280 200 43 52 62
317 280 201 41 51 61
317 281 200 45 54 63
317 281 201 43 52 61
316 281 202 43 51 60
316 281 203 42 50 59
317 280 202 39 49 59
317 280 203 39 48 59
317 281 202 42 50 60
317 281 203 40 49 59
316 282 200 45 53 63
316 282 201 45 53 63
316 283 200 43 52 62
316 283 201 45 53 62
316 282 202 43 52 61
316 282 203 42 51 60
316 283 202 44 53 62
316 283 203 43 52 61
318 280 201 40 50 60
318 280 202 41 51 61
318 280 203 43 52 62
317 280 204 40 50 61
317 280 205 42 52 63
317 281 204 41 50 60
317 281 205 42 51 61
316 281 207 43 53 63
317 280 206 44 54 64
317 280 207 43 53 64
317 281 206 43 53 63
317 281 207 44 54 64
316 282 204 42 51 60
316 282 205 43 51 60
316 283 204 43 52 61
316 283 205 43 52 61
316 282 206 43 52 62
316 282 207 43 53 63
316 283 206 44 53 63
316 283 207 44 54 64
318 280 204 44 53 63
318 280 205 45 54 64
318 280 206 45 54 64
316 284 200 41 51 60
316 284 202 45 53 62
316 284 203 44 53 62
316 284 204 44 53 62
316 284 205 42 51 61
316 284 206 43 52 62
316 284 207 44 53 63
316 285 207 42 52 63
309 272 215 45 56 68
311 272 213 45 55 65
310 272 214 41 54 65
310 272 215 40 53 64
310 273 215 38 51 62
311 272 214 43 54 64
311 273 214 40 52 62
311 273 215 38 51 62
311 274 215 41 51 61
311 275 215 43 52 62
311 276 215 47 56 65
305 272 219 51 64 77
306 272 219 48 61 73
306 273 219 50 62 74
307 272 218 46 58 70
307 273 218 45 58 69
307 273 219 47 59 72
307 274 219 46 58 69
304 272 221 60 72 85
304 273 221 62 73 85
305 272 220 55 68 80
305 272 221 60 72 85
305 273 220 54 67 79
305 273 221 57 70 82
304 272 222 56 68 81
304 273 222 59 71 83
304 273 223 56 68 81
305 274 221 55 68 80
304 274 222 58 70 82
304 274 223 58 69 82
304 275 223 58 70 82
305 274 222 59 71 83
305 275 222 58 70 82
305 275 223 60 71 83
306 273 220 52 64 76
306 274 220 52 64 76
306 274 221 54 67 79
306 275 221 54 67 79
307 274 220 49 61 73
307 275 220 48 60 71
307 275 221 51 63 75
305 276 222 58 69 81
305 276 223 59 70 82
305 277 223 57 69 81
306 276 221 54 66 79
307 276 221 50 62 74
307 277 221 50 62 74
306 276 222 56 68 80
306 276 223 58 69 81
306 277 222 53 65 78
306 277 223 55 67 79
307 276 222 53 65 77
307 277 222 52 64 76
306 278 223 54 67 79
307 278 222 50 63 76
307 278 223 51 64 77
307 279 223 53 66 78
308 272 216 50 61 72
308 272 217 46 58 70
308 273 217 47 59 71
309 272 216 46 57 68
309 272 217 46 57 69
309 273 216 41 53 64
309 273 217 44 56 67
308 272 218 45 57 68
308 273 218 44 56 68
309 274 217 41 53 64
308 274 218 45 56 67
308 274 219 44 56 67
308 275 219 44 56 68
309 274 218 45 56 68
309 275 218 45 56 67
309 275 219 46 56 67
310 272 216 42 54 65
310 273 216 38 51 62
310 274 216 39 50 61
310 274 217 39 51 62
310 275 216 40 50 61
310 275 217 41 52 62
311 274 216 41 51 61
311 275 216 42 52 62
308 275 220 46 58 69
309 276 218 49 58 68
309 276 219 49 58 69
309 277 219 49 59 68
309 278 219 48 58 68
310 276 217 42 52 62
310 277 217 43 52 62
311 276 216 46 55 64
311 277 216 45 55 64
311 277 217 44 53 63
310 276 218 46 55 65
310 277 218 45 54 64
310 278 217 43 53 62
311 278 216 45 55 65
311 278 217 45 54 64
311 279 217 45 55 65
310 278 218 43 53 62
310 278 219 48 58 67
310 279 218 44 53 63
310 279 219 48 57 66
311 279 218 43 53 63
308 276 220 46 58 69
308 276 221 48 60 72
308 277 221 46 58 70
309 277 220 44 56 67
308 278 221 49 61 73
309 278 220 46 57 68
309 278 221 47 58 70
309 279 220 49 60 70
309 279 221 49 60 72
308 278 222 51 63 75
308 279 222 51 63 75
308 279 223 52 64 77
309 279 222 51 62 74
310 278 220 48 59 69
310 279 220 48 59 69
307 280 223 54 67 79
311 280 217 46 56 66
310 280 219 49 58 68
311 280 218 44 54 65
311 280 219 48 57 67
311 281 218 44 55 65
311 281 219 49 58 68
309 280 221 50 62 73
308 280 223 53 65 77
308 281 223 54 66 78
309 280 222 51 63 75
309 281 222 53 65 77
309 281 223 54 66 78
309 282 222 52 64 76
309 282 223 54 66 79
309 283 223 53 66 79
310 280 220 49 60 71
310 280 221 50 61 73
310 281 220 51 62 73
310 281 221 52 63 74
311 281 220 51 61 71
310 281 222 52 64 76
310 282 221 54 65 77
311 282 220 53 63 73
311 282 221 54 65 77
311 283 221 55 67 79
310 282 222 52 64 77
310 283 222 53 66 79
310 283 223 52 65 78
311 283 222 56 68 80
309 284 223 55 68 81
311 284 221 55 67 80
310 284 222 54 68 81
310 284 223 54 68 81
310 285 223 55 69 82
311 284 222 55 69 82
311 285 222 56 70 83
311 285 223 56 69 83
310 286 223 56 69 83
311 286 222 60 73 86
311 286 223 57 70 84
311 287 222 60 73 86
311 287 223 56 70 83
313 272 211 42 50 59
315 272 209 38 46 55
314 272 210 44 51 59
314 272 211 42 50 58
314 273 211 41 49 57
315 272 210 41 48 56
315 273 210 41 48 56
315 273 211 40 48 56
314 274 211 40 49 57
315 274 211 39 48 56
315 275 211 41 49 58
312 272 212 43 52 62
312 272 213 43 53 63
312 273 213 42 51 61
313 272 212 41 50 60
313 273 212 42 51 60
313 273 213 42 51 60
312 273 214 42 52 62
312 274 213 41 50 59
313 274 212 40 50 59
313 274 213 40 49 59
313 275 213 40 50 59
312 274 214 41 51 60
312 275 214 42 51 60
312 275 215 41 50 60
313 275 214 42 51 60
314 273 212 42 51 60
314 274 212 40 49 58
314 275 212 40 50 59
315 275 212 41 49 58
315 276 211 43 51 60
315 277 211 44 52 61
313 276 213 40 50 60
313 277 213 41 51 61
312 276 214 45 53 62
312 276 215 46 55 64
312 277 214 44 53 62
312 277 215 45 54 63
313 276 214 42 51 61
313 277 214 43 52 62
312 278 215 44 54 64
313 278 214 42 52 62
313 278 215 43 53 63
313 279 214 44 54 64
313 279 215 41 52 63
314 276 212 40 50 59
314 276 213 40 50 60
314 277 212 42 51 61
314 277 213 42 52 61
315 276 212 41 50 59
315 277 212 43 52 61
314 278 213 42 52 62
314 279 213 42 53 63
315 278 212 42 52 62
315 278 213 41 52 62
315 279 212 44 54 64
315 279 213 44 54 65
314 278 214 42 53 63
314 279 214 43 54 64
316 272 209 39 47 55
316 273 209 42 49 57
317 272 208 43 50 57
317 272 209 41 48 56
317 273 208 42 49 57
317 273 209 42 49 57
316 273 210 42 49 57
316 274 209 44 50 58
317 274 209 44 51 58
317 275 209 42 49 57
316 274 210 43 50 58
316 275 210 42 50 57
316 275 211 42 49 57
318 273 208 41 49 57
318 274 208 44 51 59
318 275 208 43 50 59
317 276 208 42 49 58
317 276 209 41 48 57
317 277 208 43 51 60
317 277 209 43 51 60
316 276 210 41 49 57
316 276 211 42 50 58
316 277 210 42 50 59
316 277 211 43 51 59
317 277 210 42 50 59
317 278 208 43 52 61
317 278 209 44 52 61
317 279 208 42 52 62
317 279 209 43 53 63
316 278 210 41 50 59
316 278 211 44 52 61
316 279 210 42 52 62
316 279 211 45 54 63
317 278 210 42 50 60
317 279 210 43 52 62
318 276 208 42 50 58
318 277 208 43 51 60
318 278 208 42 52 61
316 279 212 44 54 64
312 278 216 44 54 64
312 279 216 44 55 65
312 279 217 44 55 66
315 283 211 45 57 68
313 280 215 40 52 63
313 281 215 41 53 64
315 280 212 44 54 64
315 280 213 44 55 65
315 281 212 44 55 66
315 281 213 43 55 66
314 280 214 43 54 65
314 280 215 43 54 65
314 281 214 44 55 67
314 281 215 43 55 66
315 280 214 42 54 65
315 281 214 45 56 68
315 282 212 46 57 68
315 282 213 45 57 69
315 283 212 49 60 72
315 283 213 50 61 72
314 282 215 44 56 68
314 283 215 46 58 70
315 282 214 47 58 70
315 282 215 46 58 70
315 283 214 48 59 71
315 283 215 46 58 70
315 284 209 43 53 64
315 285 208 43 53 64
315 285 209 41 52 63
315 284 210 43 54 65
315 284 211 43 55 67
315 285 210 41 52 63
315 285 211 42 54 65
315 286 208 43 54 64
315 286 209 41 51 63
315 287 208 43 53 64
315 287 209 41 51 63
315 286 210 41 52 63
315 286 211 42 54 65
315 287 210 43 53 65
315 287 211 43 54 65
315 284 212 44 56 69
315 284 213 47 59 71
315 285 212 42 54 66
315 285 213 45 57 69
314 284 215 46 58 71
314 285 215 46 59 71
315 284 214 46 58 71
315 284 215 46 58 71
315 285 214 46 58 70
315 285 215 45 58 70
314 287 212 41 53 65
314 287 213 42 54 66
315 286 212 43 55 66
315 286 213 44 56 68
315 287 212 43 54 66
315 287 213 44 56 68
314 286 215 43 57 70
314 287 214 43 55 67
314 287 215 42 56 69
315 286 214 44 56 68
315 286 215 43 56 69
316 280 209 43 54 65
316 281 208 43 53 64
316 281 209 44 54 65
317 280 208 43 53 64
317 280 209 43 53 64
317 281 208 44 54 64
316 280 210 44 54 65
316 280 211 44 54 64
316 281 210 44 55 66
316 281 211 44 55 66
317 280 210 44 54 64
316 282 208 42 53 64
316 282 209 45 55 66
316 283 208 44 54 65
316 283 209 43 54 65
316 282 210 44 55 66
316 282 211 44 55 66
316 283 210 44 55 66
316 283 211 45 56 67
316 280 212 42 53 63
316 281 212 44 55 66
316 282 212 46 57 69
316 284 208 44 54 64
316 284 209 43 53 64
316 285 208 43 53 63
316 284 210 42 53 65
312 280 216 43 54 66
312 280 217 44 55 66
312 281 217 44 55 67
313 280 216 42 54 65
313 281 216 43 55 67
313 281 217 43 56 68
312 281 218 47 58 69
312 281 219 45 57 68
313 282 216 45 57 69
313 282 217 43 56 69
313 283 217 44 58 71
312 282 218 50 61 73
312 282 219 49 60 71
312 283 219 50 62 74
313 282 218 47 59 71
313 283 218 48 61 74
313 283 219 53 65 77
314 282 216 46 57 70
314 283 216 46 58 71
314 283 217 45 58 71
312 282 220 51 61 72
312 283 220 52 63 76
312 283 221 55 66 78
313 284 218 49 62 75
313 284 219 53 65 78
313 285 218 50 64 77
313 285 219 52 66 79
313 286 218 50 65 79
313 286 219 52 67 81
313 287 218 48 63 78
313 287 219 50 67 82
314 284 216 47 59 72
314 284 217 47 61 74
314 285 216 48 61 73
314 285 217 48 62 75
314 284 218 49 62 76
314 285 218 48 63 76
314 286 216 45 59 72
314 286 217 47 61 74
314 287 216 45 58 71
314 287 217 46 60 73
314 286 218 48 63 77
314 287 218 47 61 75
312 284 220 53 65 78
312 284 221 53 66 79
312 285 220 53 66 80
312 285 221 53 66 80
313 284 220 50 64 77
313 285 220 51 65 78
312 285 222 56 70 84
312 286 220 50 65 79
312 286 221 53 67 81
312 287 221 52 68 83
313 286 220 50 65 80
313 287 220 50 67 83
312 286 222 58 71 85
312 287 222 59 72 86
288 256 227 58 70 83
288 257 227 61 74 87
289 256 226 57 69 82
289 256 227 60 71 84
289 257 226 60 72 85
289 257 227 61 74 87
288 258 227 61 75 89
289 258 227 61 75 89
289 259 227 61 75 90
290 256 225 57 70 82
291 256 225 57 69 82
291 257 225 60 71 84
290 256 226 58 70 82
290 257 226 59 72 85
291 257 226 59 72 84
290 258 226 59 73 87
290 258 227 60 74 88
290 259 227 61 75 90
291 258 226 61 73 87
291 259 226 64 76 90
291 259 227 63 77 91
288 256 228 58 70 83
288 257 228 61 74 87
288 258 228 62 75 88
288 259 228 64 77 91
288 259 229 65 78 92
289 259 228 61 76 90
290 260 227 62 77 92
291 260 227 62 77 92
291 261 227 63 78 93
288 260 229 66 79 93
288 261 229 66 79 93
289 260 228 65 79 93
289 260 229 68 81 95
289 261 229 67 80 94
288 261 230 66 79 93
289 262 229 65 78 92
288 262 230 66 79 93
288 263 230 66 79 93
288 263 231 65 78 92
289 262 230 67 80 93
289 263 230 67 80 94
290 260 228 63 78 93
290 261 228 63 78 92
290 261 229 65 79 93
291 261 228 63 77 92
290 262 228 62 77 92
290 262 229 64 78 92
290 263 229 64 78 92
291 262 228 63 78 93
291 263 228 63 78 93
291 263 229 64 78 93
290 263 230 65 78 92
292 256 224 59 71 83
292 256 225 59 71 83
292 257 225 61 72 85
293 256 224 58 70 83
293 257 224 59 71 84
293 257 225 60 72 84
292 258 225 61 73 85
293 258 225 61 73 85
293 259 225 66 78 90
292 258 226 62 74 87
292 259 226 67 79 92
293 259 226 69 81 94
294 256 224 57 70 83
294 257 224 57 70 83
295 257 224 56 70 83
294 258 224 57 70 84
294 258 225 58 71 84
294 259 225 64 76 90
295 258 224 57 70 84
295 259 224 59 74 88
295 259 225 64 77 91
292 260 226 68 81 96
292 260 227 67 81 95
292 261 227 67 80 95
293 260 226 69 82 96
293 261 226 71 84 98
293 261 227 70 84 98
292 262 227 66 80 95
293 262 227 67 81 96
293 263 227 65 80 95
294 260 225 68 81 96
295 260 225 66 81 96
295 261 225 66 81 97
294 260 226 68 82 97
294 261 226 68 82 97
295 261 226 67 82 97
294 262 226 67 82 97
294 262 227 66 81 96
294 263 227 67 81 96
295 262 226 67 82 97
295 263 226 64 79 95
295 263 227 65 81 96
292 262 228 65 79 94
292 263 228 63 78 93
293 263 228 63 78 93
288 264 231 64 78 92
288 265 231 63 78 92
289 264 230 66 79 93
289 264 231 65 78 92
289 265 231 65 78 92
289 266 231 67 80 93
290 264 229 64 78 92
291 264 229 63 77 92
291 265 229 62 76 90
290 264 230 66 79 93
290 265 230 66 78 92
290 265 231 64 77 91
291 265 230 65 78 92
290 266 230 63 76 90
290 266 231 65 77 91
290 267 231 65 78 92
291 266 230 62 76 89
291 267 230 61 75 88
291 267 231 62 75 88
290 268 231 64 77 91
290 269 231 62 76 90
291 268 230 61 74 88
291 268 231 63 76 89
291 269 231 62 75 89
291 270 231 61 74 88
291 271 231 60 74 87
294 264 227 67 81 97
294 265 227 65 80 95
295 264 226 62 78 94
295 264 227 65 80 96
295 265 227 64 80 95
295 266 227 64 79 94
295 267 227 64 78 93
292 264 228 63 78 93
292 264 229 62 77 92
292 265 229 63 78 92
293 264 228 63 78 93
293 265 228 63 78 93
293 265 229 62 77 92
292 266 229 63 77 91
292 267 229 61 75 89
293 266 228 63 78 93
293 266 229 63 78 93
293 267 229 61 76 91
292 266 230 60 74 88
292 267 230 59 73 87
294 265 228 63 79 94
294 266 228 63 78 93
294 267 228 62 77 92
295 266 228 64 79 94
295 267 228 62 77 92
293 268 229 60 75 89
293 269 229 62 76 90
292 268 230 60 74 87
292 269 230 61 75 88
293 268 230 61 75 89
293 269 230 62 76 90
293 270 229 61 75 89
292 270 230 59 73 87
292 270 231 60 73 87
292 271 231 60 73 87
293 270 230 60 74 88
293 271 230 60 73 87
294 268 228 62 76 91
294 268 229 61 76 91
294 269 228 63 77 92
294 269 229 63 77 91
295 268 228 61 76 91
295 269 228 63 77 91
294 270 229 60 75 89
294 271 229 59 74 88
295 270 228 61 75 89
295 270 229 59 74 89
295 271 228 59 74 88
295 271 229 59 74 88
288 265 232 64 78 92
288 266 232 65 79 93
288 267 232 65 79 93
289 266 232 66 79 93
289 267 232 66 79 93
290 267 232 67 80 93
288 268 232 64 78 92
288 268 233 65 78 92
288 269 233 63 77 91
289 268 232 63 77 91
289 269 232 61 76 90
289 269 233 60 75 89
288 270 233 61 76 91
288 271 233 62 76 90
289 270 232 61 75 89
289 270 233 60 74 88
289 271 233 61 74 88
288 271 234 61 76 91
290 268 232 65 78 92
290 269 232 62 76 90
290 270 232 61 75 89
290 271 232 61 74 87
291 271 232 60 73 87
296 258 224 58 72 86
296 259 224 61 76 91
297 259 224 62 76 91
296 260 224 64 79 95
296 260 225 66 81 97
296 261 225 68 83 99
297 260 224 66 81 96
297 261 224 70 85 100
297 261 225 70 85 101
296 262 225 68 84 100
297 262 224 71 86 102
297 262 225 71 86 102
297 263 225 69 84 100
296 262 226 67 82 98
296 263 226 64 80 96
298 260 224 63 78 93
298 261 224 68 82 97
298 262 224 70 84 100
298 263 224 67 82 98
298 263 225 68 84 100
299 262 224 67 81 96
299 263 224 63 78 94
297 264 225 66 82 98
297 265 225 66 82 98
296 264 226 62 78 94
296 265 226 63 79 94
296 265 227 59 76 92
297 264 226 63 80 96
297 265 226 65 80 96
296 266 226 62 77 93
296 266 227 61 77 93
296 267 227 63 77 92
297 266 226 64 79 94
297 267 226 61 77 92
297 267 227 63 77 92
298 264 224 65 81 97
298 264 225 65 81 98
298 265 225 64 80 96
299 264 224 62 78 94
299 265 224 61 77 93
298 266 225 65 80 96
298 267 225 62 77 92
299 266 224 61 77 92
299 266 225 61 77 93
299 267 225 60 75 91
298 267 226 62 77 93
296 268 227 60 75 89
296 269 227 58 73 87
297 268 226 60 75 90
297 268 227 60 74 89
297 269 226 59 74 88
297 269 227 58 73 87
297 270 227 60 73 87
297 271 227 60 73 86
298 268 225 57 74 89
299 268 225 57 73 89
299 269 225 54 71 86
298 268 226 57 73 89
298 269 226 57 73 88
299 269 226 53 69 84
299 270 225 51 68 83
298 270 226 59 73 87
298 270 227 60 73 87
298 271 226 58 72 86
298 271 227 59 73 86
299 270 226 53 69 84
299 271 226 55 70 84
296 269 228 61 75 89
296 270 228 61 74 88
296 271 228 60 73 87
297 270 228 59 73 86
297 271 228 60 72 86
300 264 224 59 76 92
300 265 224 59 76 92
300 266 224 59 75 91
300 267 224 58 74 89
300 268 224 57 72 87
300 269 224 54 70 85
300 269 225 55 70 85
301 268 224 59 74 88
301 269 224 57 71 86
300 270 225 51 67 82
300 271 225 53 68 82
301 270 224 56 70 84
301 270 225 52 67 81
301 271 225 55 69 82
300 271 226 55 69 83
302 270 224 56 69 83
302 271 224 56 69 82
303 271 224 58 70 82
291 272 231 60 73 86
292 272 231 59 73 86
292 273 231 59 72 85
293 272 230 58 72 86
293 272 231 57 71 85
293 273 230 59 73 86
293 273 231 58 72 85
292 274 231 60 73 87
293 274 231 59 72 86
293 275 231 59 73 87
294 272 229 59 73 87
295 272 229 59 73 87
295 273 229 59 73 87
294 272 230 60 74 88
294 273 230 60 74 87
295 273 230 61 74 88
294 274 230 60 73 87
294 274 231 59 73 86
294 275 231 59 72 86
295 274 230 60 74 87
295 275 230 58 72 86
293 276 231 59 73 87
294 276 231 59 73 87
294 277 231 59 72 86
295 276 230 59 72 86
295 276 231 60 73 87
295 277 231 60 73 87
295 278 231 59 73 86
288 272 233 61 76 90
289 272 233 63 76 89
289 273 233 61 74 88
288 272 234 61 76 90
288 273 234 62 76 91
289 273 234 61 75 90
289 274 233 60 74 88
288 274 234 62 76 91
288 275 234 62 77 91
289 274 234 59 74 89
289 275 234 58 73 88
290 272 232 64 76 88
290 272 233 65 77 89
290 273 232 63 75 89
290 273 233 61 74 87
291 272 232 61 74 86
291 273 232 60 73 87
290 274 233 60 74 88
290 275 233 60 74 88
291 274 232 58 72 86
291 274 233 59 73 87
291 275 232 60 74 88
291 275 233 62 76 90
288 276 234 63 77 92
288 276 235 65 79 93
288 277 235 67 81 95
289 276 234 60 75 90
289 277 234 63 77 92
289 277 235 65 79 94
288 278 235 68 82 97
288 279 235 67 82 97
289 278 234 63 77 92
289 278 235 64 79 93
289 279 235 65 79 94
290 276 233 59 74 88
291 276 233 61 75 90
291 277 233 63 76 90
290 276 234 60 74 89
290 277 234 61 75 90
291 277 234 62 76 91
290 278 234 64 77 92
290 279 234 65 78 93
290 279 235 63 78 92
291 278 234 64 78 92
291 279 234 65 79 93
292 273 232 59 73 86
292 274 232 60 73 87
292 275 232 58 73 87
293 275 232 58 73 87
292 276 232 61 75 89
292 276 233 63 76 90
292 277 232 61 75 89
292 277 233 63 77 91
293 276 232 59 73 87
293 277 232 59 74 88
293 277 233 59 74 89
292 278 233 66 79 93
292 279 233 68 80 94
293 278 232 60 74 88
293 278 233 61 75 89
293 279 233 64 77 91
292 278 234 68 80 94
292 279 234 69 81 95
294 277 232 58 73 87
295 277 232 59 72 86
294 278 232 59 73 87
294 279 232 61 74 88
294 279 233 62 75 89
295 278 232 60 73 87
295 279 232 63 75 89
288 280 235 67 81 97
289 280 235 63 78 94
289 281 235 59 75 91
290 280 235 61 76 92
290 281 235 58 74 90
291 280 234 65 78 93
291 280 235 64 78 93
291 281 235 61 76 91
290 282 235 56 73 89
291 282 235 60 76 92
291 283 235 60 76 92
288 280 236 65 81 96
288 281 236 62 79 95
289 280 236 63 78 94
289 281 236 60 76 92
288 282 236 62 79 95
288 283 236 66 82 98
289 282 236 62 78 94
289 283 236 63 78 94
290 282 236 57 74 90
290 283 236 57 75 91
291 283 236 59 76 92
288 284 236 67 83 99
288 285 236 66 83 99
289 284 236 65 81 97
289 285 236 65 82 98
288 286 237 64 82 99
288 287 237 68 85 102
289 286 236 63 80 97
289 286 237 65 82 98
289 287 237 65 82 99
290 284 236 59 77 93
290 285 236 59 77 94
291 284 236 61 78 94
291 285 236 62 79 95
290 286 236 57 76 93
290 287 236 55 74 92
290 287 237 60 78 94
291 286 236 59 77 95
291 287 236 57 76 93
291 287 237 57 76 93
293 280 233 63 77 91
292 280 234 67 80 94
292 281 234 67 80 94
292 281 235 65 78 93
293 280 234 65 78 92
293 281 234 63 76 91
292 282 235 64 79 94
292 283 235 66 80 95
293 282 234 62 76 91
293 282 235 66 79 94
293 283 234 61 76 90
293 283 235 65 79 94
294 280 233 63 77 91
294 281 233 63 77 91
295 280 232 65 77 90
295 280 233 65 77 91
295 281 232 65 77 90
295 281 233 63 76 89
294 281 234 63 76 90
295 282 233 65 78 92
295 283 233 65 78 92
294 282 234 64 78 92
294 283 234 64 78 92
295 283 234 66 80 93
292 284 235 66 81 96
293 284 235 66 80 95
293 285 235 69 83 98
293 286 235 69 83 98
294 284 234 65 79 93
294 284 235 64 79 94
294 285 235 66 80 95
295 284 234 67 80 94
295 285 234 66 80 95
294 286 235 66 81 97
294 287 235 66 81 97
295 286 234 68 82 97
295 286 235 67 82 97
295 287 235 67 81 97
292 284 236 66 81 97
292 285 236 67 83 98
293 285 236 68 83 98
292 286 236 66 82 98
292 287 236 65 81 97
293 286 236 68 83 98
293 287 236 67 82 97
294 287 236 65 81 96
297 272 227 60 73 86
298 272 227 60 73 87
298 273 227 60 74 88
299 272 226 56 70 84
299 272 227 57 71 85
299 273 226 55 70 83
299 273 227 57 71 86
299 274 227 57 72 87
296 272 228 59 72 86
296 272 229 58 72 86
296 273 228 59 72 85
296 273 229 59 73 86
297 272 228 59 72 86
297 273 228 59 72 86
296 274 229 58 72 85
296 275 229 58 71 84
297 274 228 61 73 86
297 274 229 58 71 84
297 275 229 58 71 84
296 274 230 59 73 86
296 275 230 59 73 86
298 273 228 59 73 87
298 274 228 61 74 88
298 275 228 61 74 87
298 275 229 61 73 86
299 274 228 61 75 89
299 275 228 60 74 87
297 276 229 57 70 83
296 276 230 60 73 86
296 277 230 62 74 86
296 277 231 62 74 87
297 276 230 57 70 83
297 277 230 59 72 84
296 278 231 61 73 86
296 279 231 61 73 86
297 278 230 60 72 85
297 278 231 59 72 85
297 279 230 60 72 85
297 279 231 59 71 84
298 276 229 60 73 85
298 277 229 60 72 84
299 276 228 59 73 86
299 277 228 60 73 86
299 277 229 61 74 86
298 277 230 60 71 84
299 278 229 62 74 86
299 279 229 62 74 87
298 278 230 61 73 85
298 279 230 61 73 86
299 279 230 61 73 85
301 272 225 55 69 82
301 273 225 58 71 84
300 272 226 55 69 83
300 273 226 56 70 83
300 273 227 56 70 84
301 272 226 55 69 82
301 273 226 57 70 83
300 274 226 56 70 83
300 274 227 56 70 84
300 275 227 57 71 85
301 274 226 57 70 83
301 275 226 58 71 84
301 275 227 56 70 83
302 272 224 56 69 82
302 272 225 57 70 83
302 273 224 57 69 82
302 273 225 59 71 84
303 272 224 57 69 81
303 273 224 57 69 82
302 274 225 61 73 85
302 275 225 62 74 86
303 274 224 60 71 83
303 274 225 59 71 84
303 275 224 60 71 83
303 275 225 60 72 84
302 275 226 64 75 87
300 276 227 57 71 85
300 277 227 57 71 84
301 276 226 59 72 84
301 276 227 57 70 83
301 277 227 58 71 83
301 278 227 60 72 84
303 276 225 61 72 85
302 276 226 63 74 87
302 277 226 62 74 86
302 277 227 59 71 83
303 276 226 60 72 84
303 277 226 59 71 83
302 278 227 58 70 82
302 279 227 58 71 83
303 278 226 57 69 82
303 278 227 59 71 83
303 279 226 56 69 81
303 279 227 57 70 82
300 276 228 56 71 84
300 277 228 59 72 86
301 277 228 60 72 85
300 278 228 61 74 86
300 278 229 62 74 87
300 279 228 62 74 87
300 279 229 61 73 86
301 278 228 61 73 86
301 279 228 61 73 86
302 279 228 60 72 84
296 279 232 61 74 87
296 280 231 62 74 87
297 280 231 60 72 85
297 281 231 59 72 85
297 282 231 59 72 85
298 280 230 61 73 85
298 280 231 60 72 85
298 281 230 62 74 86
298 281 231 61 73 86
299 280 230 62 73 86
299 281 230 63 75 88
298 282 231 61 74 87
298 283 231 63 76 89
299 282 230 64 76 89
299 282 231 65 77 90
299 283 231 65 78 91
299 284 231 67 79 93
299 285 231 65 78 92
303 280 227 58 70 82
303 281 227 57 70 83
300 280 229 60 72 85
300 281 229 60 72 85
301 280 228 60 73 85
301 280 229 59 71 84
301 281 229 58 71 84
300 281 230 62 74 86
301 282 229 60 73 86
301 283 229 64 76 89
300 282 230 62 74 87
300 283 230 64 77 90
300 283 231 63 76 90
301 283 230 64 76 89
302 280 228 60 72 84
302 281 228 59 71 84
302 281 229 58 71 84
303 280 228 59 71 84
303 281 228 58 71 84
302 282 229 60 73 86
302 283 229 63 75 88
303 282 228 60 72 86
303 282 229 62 74 87
303 283 228 63 76 89
303 283 229 63 76 89
300 284 230 65 78 91
300 284 231 65 78 92
300 285 231 64 78 92
301 284 230 66 78 91
301 285 230 67 79 93
300 286 231 64 78 93
300 287 231 65 78 93
301 286 230 64 78 91
301 286 231 65 78 92
301 287 231 62 77 91
302 284 229 66 78 91
302 285 229 67 80 93
303 284 228 64 77 91
303 284 229 66 78 92
303 285 229 66 79 93
302 284 230 67 79 92
302 285 230 67 80 93
303 286 229 65 79 93
303 287 229 65 79 94
302 286 230 64 78 92
302 287 230 63 77 92
302 287 231 62 77 91
303 286 230 62 76 91
303 287 230 61 77 92
296 280 232 64 76 89
296 281 232 62 75 88
296 281 233 62 74 88
297 281 232 57 70 84
296 282 232 64 77 90
296 282 233 65 77 91
296 283 232 66 78 92
296 283 233 65 78 91
297 282 232 60 73 86
297 283 232 62 75 88
298 283 232 62 75 89
296 284 233 64 77 91
296 285 233 62 76 90
297 284 232 61 74 88
297 284 233 63 76 90
297 285 233 61 76 90
296 284 234 65 78 92
296 285 234 64 78 92
297 286 233 63 77 91
297 287 233 63 76 90
296 286 234 65 79 93
296 287 234 66 80 94
296 287 235 68 82 97
297 287 234 62 76 90
298 284 232 62 76 90
298 285 232 59 74 88
298 285 233 59 73 88
299 284 232 65 78 92
299 285 232 62 76 90
298 286 232 61 75 90
298 286 233 62 76 90
298 287 233 62 76 90
299 286 232 63 77 91
299 287 232 62 76 90
299 287 233 62 75 89
300 286 232 66 79 94
300 287 232 64 78 92
304 275 224 59 70 82
304 276 224 60 71 83
304 276 225 61 72 84
304 277 225 59 71 83
305 276 224 59 70 82
305 277 224 58 70 82
304 277 226 58 70 83
304 278 225 57 69 81
305 278 224 56 68 80
305 278 225 55 68 80
305 279 225 55 67 79
304 278 226 58 70 82
304 279 226 56 68 81
305 279 226 55 67 80
306 278 224 57 69 81
306 279 224 55 67 80
306 279 225 55 67 80
307 279 224 55 67 80
305 280 225 54 67 79
304 280 226 54 67 80
304 280 227 56 69 81
304 281 227 56 69 82
305 280 226 54 67 80
305 281 226 55 67 80
305 281 227 55 68 81
304 282 227 57 70 83
305 282 226 55 68 81
305 282 227 56 69 82
305 283 227 58 71 84
306 280 224 54 67 79
306 280 225 54 67 80
306 281 225 55 68 81
307 280 224 56 68 80
307 281 224 56 69 81
307 281 225 56 68 81
306 281 226 55 68 81
306 282 225 56 69 82
307 282 225 56 69 82
307 283 225 56 70 83
306 282 226 56 69 82
306 283 226 58 71 84
306 283 227 60 72 85
307 283 226 57 71 85
304 282 228 57 70 84
304 283 228 59 72 86
305 284 227 61 74 87
305 285 227 64 77 90
307 284 225 58 72 86
306 284 226 62 74 87
306 284 227 62 74 87
306 285 227 61 74 88
307 284 226 60 74 87
307 285 226 62 75 90
307 285 227 63 76 89
306 286 227 59 73 87
306 287 227 56 72 87
307 286 226 62 76 90
307 286 227 63 76 89
307 287 226 61 75 89
307 287 227 58 73 88
304 284 228 62 75 89
304 285 228 62 76 91
305 284 228 62 75 89
305 285 228 62 75 89
304 286 228 61 76 90
304 286 229 62 76 91
304 287 228 57 73 88
304 287 229 61 76 91
305 286 228 61 75 90
305 287 228 59 74 89
306 287 228 58 74 88
308 281 224 57 69 81
308 282 224 57 69 82
308 283 224 57 69 82
308 283 225 56 69 83
309 283 224 56 68 81
308 284 225 57 71 85
308 285 225 59 73 87
309 284 224 57 70 83
309 284 225 56 69 82
309 285 224 58 71 84
309 285 225 57 71 84
308 285 226 58 74 88
308 286 225 57 72 87
309 286 225 57 71 85
309 287 225 58 71 85
308 286 226 59 74 89
308 287 226 60 74 87
309 287 226 58 71 84
310 285 224 57 71 84
310 286 224 56 70 84
310 287 224 56 70 83
310 287 225 60 73 86
315 288 195 46 55 64
315 289 195 46 55 64
315 288 196 48 57 66
315 288 197 44 53 63
315 289 196 48 56 66
315 289 197 47 55 65
315 288 198 40 50 59
315 288 199 42 51 60
315 289 198 43 52 61
315 289 199 42 51 60
315 290 196 44 53 62
315 290 197 43 52 62
315 291 197 40 50 59
315 290 198 42 52 61
315 290 199 42 50 59
315 291 198 40 49 58
315 291 199 41 49 57
315 292 198 37 46 55
315 292 199 38 46 54
315 293 199 37 45 53
316 288 193 42 50 58
316 289 193 41 49 57
316 288 194 42 50 59
316 288 195 43 52 61
316 289 194 42 50 58
316 289 195 43 52 61
316 290 193 41 49 57
316 291 193 40 48 56
316 290 194 41 49 58
316 290 195 42 51 60
316 291 194 40 48 56
316 291 195 42 50 59
316 290 196 43 52 62
316 291 196 42 51 61
316 291 197 41 50 60
316 292 193 38 46 54
317 292 193 38 45 53
317 293 193 39 46 54
316 292 194 39 47 55
316 292 195 41 49 58
316 293 195 40 48 56
317 293 194 38 46 54
317 293 195 39 47 55
317 294 193 40 47 55
316 294 195 41 48 56
317 294 194 40 48 55
317 294 195 41 48 56
317 295 194 42 49 57
317 295 195 44 51 59
318 294 193 41 48 56
318 295 193 42 49 57
318 295 194 42 49 57
318 295 195 45 52 60
316 292 196 42 50 59
316 292 197 38 47 57
316 293 196 41 49 58
316 293 197 37 47 56
316 292 198 36 46 55
316 293 198 35 45 54
316 293 199 36 45 53
316 294 196 42 50 58
316 294 197 40 48 57
316 295 196 42 50 58
316 295 197 42 49 57
317 295 196 44 51 58
317 295 197 43 50 58
316 294 198 36 45 54
316 294 199 38 46 54
316 295 198 40 48 56
316 295 199 40 47 55
317 295 198 42 49 57
315 288 200 43 51 60
315 288 201 43 51 60
315 289 200 43 51 60
315 289 201 42 51 59
314 289 203 40 50 59
315 288 202 41 49 58
315 288 203 41 50 59
315 289 202 41 49 59
315 289 203 40 49 59
315 290 200 43 51 59
315 290 201 43 51 60
315 291 200 43 50 58
315 291 201 44 51 59
314 290 203 42 50 59
314 291 203 43 51 59
315 290 202 42 50 58
315 291 202 44 51 59
315 291 203 42 50 59
314 288 204 41 50 59
314 288 205 40 50 60
314 289 204 41 50 60
314 289 205 42 51 61
315 288 204 41 50 60
315 288 205 39 50 60
314 288 206 41 51 61
314 288 207 42 52 62
314 289 206 43 52 62
314 289 207 43 53 62
315 288 206 41 51 61
314 290 204 40 49 59
314 290 205 41 50 59
314 291 204 41 50 59
314 291 205 40 49 58
314 290 206 43 52 61
314 290 207 45 53 63
314 291 206 42 50 60
314 291 207 44 52 61
315 292 200 41 48 56
315 292 201 42 49 57
315 293 200 38 45 54
315 293 201 39 47 55
314 292 203 41 49 58
315 292 202 42 49 58
315 292 203 41 49 57
315 293 202 37 46 55
315 293 203 38 47 55
315 294 201 38 46 54
315 294 202 37 46 54
315 294 203 37 46 55
315 295 202 39 47 55
315 295 203 38 47 55
314 292 204 42 50 59
314 292 205 42 50 59
314 293 204 42 49 58
314 293 205 43 51 59
314 292 206 42 50 59
314 292 207 44 52 60
314 293 206 43 51 60
314 293 207 44 51 60
314 294 204 41 49 57
314 294 205 43 50 58
314 295 205 40 48 56
315 294 204 40 48 56
315 295 204 39 47 55
315 295 205 39 46 54
314 294 206 43 50 59
314 294 207 43 50 59
314 295 206 41 49 57
314 295 207 42 50 58
316 293 200 37 45 53
316 294 200 40 47 55
316 294 201 39 47 55
316 295 200 41 48 55
316 295 201 41 48 55
316 295 202 40 47 55
318 296 193 42 50 58
319 296 193 43 50 58
319 297 193 43 50 58
318 296 194 42 50 58
318 296 195 46 52 60
318 297 195 46 52 60
319 296 194 43 50 58
319 297 194 43 50 58
319 297 195 44 51 59
319 298 193 43 50 59
319 298 194 43 51 59
319 298 195 44 52 60
319 299 195 43 51 60
317 296 196 46 53 60
317 296 197 45 51 59
317 297 197 44 51 58
316 296 198 42 50 57
316 296 199 43 50 57
317 296 198 43 50 58
317 297 198 43 50 58
317 297 199 43 50 58
317 298 198 42 49 57
317 298 199 41 48 56
318 296 196 48 54 61
318 297 196 48 54 61
318 297 197 45 52 59
318 297 198 43 50 57
318 298 196 46 53 61
318 298 197 44 51 59
319 298 196 46 53 61
319 298 197 45 52 60
319 299 196 44 52 60
319 299 197 44 52 60
318 298 198 42 49 57
318 298 199 41 48 56
318 299 198 41 48 56
318 299 199 40 48 55
319 299 198 42 49 57
319 300 197 43 51 60
319 301 197 43 51 60
318 300 199 41 48 56
319 300 198 42 50 58
319 300 199 41 48 56
319 301 198 43 51 59
319 301 199 42 50 57
319 302 199 44 51 60
315 296 202 40 48 56
315 296 203 40 48 55
315 297 203 41 48 56
315 296 204 39 46 54
315 296 205 39 47 55
315 297 204 40 47 55
315 297 205 39 47 55
314 296 206 40 47 55
314 296 207 41 49 56
314 297 207 41 48 56
315 296 206 40 48 56
315 297 206 40 48 56
315 297 207 40 48 56
315 298 205 40 48 56
315 298 206 41 48 56
315 298 207 40 47 55
315 299 206 42 49 57
315 299 207 42 49 57
315 300 207 42 50 58
316 296 200 43 49 57
316 296 201 43 49 57
316 297 200 43 49 57
316 297 201 42 49 56
317 297 200 43 50 57
316 296 202 40 47 55
316 297 202 41 48 55
316 297 203 41 49 57
316 298 201 42 49 57
317 298 200 41 48 56
317 298 201 41 48 56
317 299 200 41 48 56
317 299 201 41 49 56
316 298 202 42 49 57
316 298 203 42 49 57
316 299 203 44 51 58
317 299 202 43 50 58
317 299 203 44 51 59
318 299 200 40 47 55
318 299 201 41 48 56
316 298 204 43 50 58
316 298 205 43 50 58
316 299 204 43 50 58
316 299 205 43 50 58
316 299 206 42 50 58
317 300 201 42 49 57
317 300 202 42 49 57
317 300 203 44 51 59
317 301 203 42 49 57
318 300 200 39 47 55
318 300 201 41 48 57
318 301 200 40 47 55
318 301 201 41 49 57
319 301 200 41 48 56
319 301 201 42 49 57
318 301 202 42 50 58
318 301 203 41 49 57
318 302 201 43 51 59
319 302 200 43 50 58
319 302 201 44 51 59
319 303 201 45 52 61
318 302 202 43 50 59
318 302 203 41 49 58
319 302 202 44 51 60
319 303 202 45 52 61
319 303 203 42 50 59
316 300 204 43 50 58
316 300 205 42 50 58
316 301 205 42 50 58
317 300 204 44 51 59
317 300 205 44 51 59
317 301 204 43 50 58
317 301 205 43 51 59
316 300 206 42 50 58
316 300 207 42 50 58
316 301 206 42 50 58
316 301 207 42 50 59
317 301 206 41 49 58
317 302 205 44 51 59
316 302 207 42 50 59
317 302 206 42 50 59
317 302 207 41 50 58
317 303 206 41 50 59
317 303 207 39 49 58
318 301 204 42 49 57
318 302 204 42 49 57
318 302 205 44 51 58
318 303 204 40 48 57
318 303 205 43 50 58
319 303 204 40 48 57
318 303 206 42 50 59
311 288 222 59 73 86
311 288 223 57 71 85
311 289 223 59 72 86
311 290 223 58 72 87
311 291 223 58 73 87
314 288 208 42 52 63
314 288 209 42 52 63
314 289 208 42 52 62
314 289 209 38 50 60
314 288 210 43 53 64
314 288 211 42 53 63
314 289 210 41 51 62
314 289 211 41 51 62
314 290 208 43 52 62
314 290 209 40 50 60
314 291 208 44 52 61
314 291 209 42 51 60
314 290 210 39 49 60
314 290 211 40 50 61
314 291 210 42 51 61
314 291 211 42 52 62
313 291 213 41 53 64
313 291 214 44 56 67
313 291 215 44 56 68
314 288 212 40 52 63
314 288 213 39 52 64
314 289 212 40 51 62
314 289 213 41 53 65
314 288 214 39 53 66
314 288 215 42 56 69
314 289 214 42 55 67
314 289 215 44 57 69
314 290 212 39 50 62
314 290 213 38 51 63
314 291 212 40 51 62
314 291 213 40 52 64
314 290 214 41 53 65
314 290 215 42 55 67
314 291 214 42 55 66
314 291 215 42 55 67
314 292 208 45 52 61
314 292 209 45 53 61
314 293 208 45 52 61
314 293 209 44 52 60
314 292 210 44 53 62
314 292 211 44 52 62
314 293 210 42 52 61
314 293 211 41 51 61
314 294 208 44 51 59
314 294 209 42 50 59
314 295 208 43 50 58
314 295 209 41 49 58
314 294 210 41 50 59
314 294 211 40 50 59
314 295 210 39 48 57
314 295 211 41 50 59
313 292 212 41 52 62
313 292 213 42 53 64
313 293 212 41 51 61
313 293 213 42 52 63
313 292 214 45 56 67
313 292 215 43 55 67
313 293 214 43 54 65
313 293 215 42 54 65
313 294 212 39 49 59
313 294 213 40 51 61
313 295 212 41 50 59
313 295 213 42 51 60
313 294 214 42 53 64
313 294 215 41 53 64
313 295 214 42 52 62
313 295 215 42 53 64
314 292 212 43 52 62
314 295 212 42 50 59
313 289 217 48 62 75
313 288 218 48 63 77
313 288 219 52 67 82
313 289 218 49 63 78
313 289 219 51 67 82
313 290 217 48 61 74
313 291 216 44 57 69
313 291 217 46 60 72
313 290 218 50 64 78
313 290 219 51 66 81
313 291 218 48 62 76
313 291 219 52 66 80
314 288 216 45 58 71
314 288 217 47 60 74
314 289 216 46 59 71
314 289 217 47 61 73
314 288 218 48 62 76
314 290 216 45 58 70
314 290 217 48 61 73
312 288 221 51 67 82
312 289 221 51 67 82
313 288 220 52 69 84
313 289 220 52 68 83
312 288 222 58 71 86
312 289 222 59 73 86
312 289 223 60 73 87
312 290 220 52 67 82
312 290 221 52 67 81
312 291 220 54 68 82
312 291 221 53 67 81
313 290 220 53 68 83
313 291 220 56 69 83
312 290 222 58 71 85
312 290 223 60 74 87
312 291 222 57 70 84
312 291 223 60 74 88
313 292 216 42 55 67
313 292 217 44 58 71
313 293 216 41 54 67
313 293 217 45 58 70
312 293 219 49 62 76
313 292 218 46 61 74
313 292 219 50 64 78
313 293 218 47 60 74
313 293 219 48 62 75
313 294 216 42 54 66
313 294 217 46 59 71
313 295 216 42 54 65
313 295 217 45 57 69
312 294 219 48 61 74
313 294 218 49 62 74
313 294 219 48 61 74
313 295 218 50 62 74
313 295 219 49 62 74
312 292 220 54 67 81
312 292 221 54 67 81
312 293 220 52 65 78
312 293 221 54 67 80
313 292 220 54 67 80
312 292 222 57 70 84
312 292 223 61 75 89
312 293 222 55 69 83
312 293 223 59 73 88
312 294 220 51 64 76
312 294 221 52 65 78
312 295 220 49 62 75
312 295 221 50 63 76
313 295 220 49 62 74
312 294 222 52 66 80
312 294 223 55 71 85
312 295 222 50 65 78
312 295 223 53 68 83
314 296 208 42 49 57
314 296 209 43 50 58
314 297 208 41 48 56
314 297 209 41 48 56
314 296 210 43 51 60
314 296 211 40 48 57
314 297 210 45 52 60
314 297 211 41 50 59
314 298 208 40 47 55
314 298 209 40 47 55
314 299 209 41 48 56
315 298 208 40 47 55
315 298 209 41 48 56
315 299 208 40 48 55
315 299 209 41 48 55
314 298 210 42 50 58
314 298 211 43 51 59
314 299 210 41 49 56
314 299 211 41 49 58
313 296 213 43 51 60
313 296 214 43 51 61
313 296 215 42 51 61
313 297 214 43 52 61
313 297 215 43 52 62
313 298 215 44 53 62
314 296 212 42 50 58
314 296 213 43 51 59
314 297 212 43 51 59
314 297 213 43 50 59
314 297 214 42 50 59
314 298 212 44 51 59
314 298 213 44 51 59
314 299 212 43 51 59
314 299 213 44 52 60
314 298 214 43 51 60
314 298 215 43 52 62
314 299 214 44 52 61
314 299 215 43 52 62
315 300 208 42 49 57
315 300 209 41 48 55
315 301 208 41 49 56
315 301 209 42 49 56
314 300 211 41 49 57
315 300 210 42 49 56
315 300 211 41 49 57
315 301 210 42 49 57
315 301 211 43 50 58
315 302 210 43 49 57
315 302 211 42 49 58
315 303 211 43 50 58
314 300 212 43 51 59
314 300 213 43 51 60
314 301 212 42 50 58
314 301 213 42 50 59
315 301 212 42 50 59
315 301 213 41 49 58
314 300 214 43 51 60
314 300 215 41 51 61
314 301 214 43 51 60
314 301 215 41 51 61
315 302 212 43 51 59
315 302 213 42 50 58
315 303 212 44 51 59
315 303 213 41 50 58
314 302 214 42 51 60
314 302 215 42 52 62
314 303 215 43 53 63
315 302 214 41 50 59
315 303 214 42 51 60
315 303 215 44 53 62
316 300 208 42 49 57
316 301 208 41 49 57
316 301 209 40 48 56
316 302 208 42 50 58
316 302 209 41 49 56
316 303 208 42 50 58
316 303 209 41 49 57
317 303 208 42 50 59
316 302 210 43 49 57
316 303 210 42 49 57
316 303 211 42 49 57
313 296 216 41 53 64
313 296 217 44 56 69
313 297 216 41 52 63
313 297 217 42 55 67
313 296 218 48 60 72
313 296 219 48 61 73
313 297 218 44 57 70
313 297 219 45 58 71
313 298 216 43 53 64
313 298 217 43 55 67
313 299 216 42 53 63
313 299 217 42 54 65
313 298 218 45 57 70
313 298 219 44 58 71
313 299 218 44 57 69
313 299 219 45 58 71
314 298 216 44 53 63
314 299 216 42 53 63
312 296 221 51 64 77
313 296 220 49 62 74
313 296 221 52 64 76
313 297 220 49 61 74
313 297 221 51 64 76
312 296 222 50 64 78
312 296 223 52 67 82
312 297 223 52 67 82
313 296 222 51 64 78
313 297 222 51 65 78
313 297 223 52 66 80
313 298 220 48 61 74
313 298 221 52 64 77
313 299 220 47 61 74
313 299 221 51 64 77
312 298 223 50 66 80
312 299 223 54 69 83
313 298 222 49 63 76
313 298 223 51 66 80
313 299 222 52 65 78
313 299 223 55 69 82
313 300 217 42 54 66
313 300 218 44 56 68
313 300 219 42 56 69
313 301 218 46 57 67
313 301 219 45 57 69
313 302 219 46 58 69
314 300 216 41 51 62
314 300 217 43 54 65
314 301 216 40 51 61
314 301 217 43 54 64
314 301 218 46 56 66
314 302 216 40 51 62
314 302 217 43 54 65
314 303 216 42 53 64
314 303 217 45 56 67
314 302 218 45 56 67
314 302 219 44 56 68
314 303 218 44 56 67
314 303 219 44 56 68
313 300 220 47 61 74
313 300 221 52 65 78
313 301 220 49 61 74
313 301 221 54 66 79
313 300 222 51 65 77
313 300 223 56 70 83
313 301 222 51 65 78
313 301 223 54 68 82
313 302 220 48 61 72
313 302 221 51 64 76
313 303 221 52 65 77
313 302 222 50 63 77
313 302 223 53 67 81
313 303 222 50 63 77
313 303 223 51 65 79
314 302 220 44 57 69
314 303 220 49 61 73
319 304 202 45 53 61
319 304 203 42 50 59
319 305 203 42 50 59
317 304 207 40 49 58
318 304 205 42 50 58
319 304 204 40 49 58
319 304 205 40 49 57
319 305 204 42 50 59
319 305 205 42 50 59
318 304 206 41 50 58
318 304 207 40 49 58
318 305 206 43 50 58
318 305 207 41 49 57
319 305 206 44 51 59
319 306 205 43 51 60
319 307 205 42 51 60
318 306 207 43 51 59
318 307 207 43 51 59
319 306 206 43 51 59
319 307 206 42 51 60
319 307 207 42 51 60
319 308 206 42 51 61
319 308 207 42 51 60
319 309 207 41 50 60
315 304 212 44 52 60
315 304 213 42 51 59
315 305 212 44 52 61
315 305 213 44 52 61
315 304 214 42 51 60
315 304 215 44 54 63
315 305 214 43 52 61
315 305 215 44 53 63
315 306 213 43 52 61
315 306 214 44 53 62
315 306 215 44 54 64
315 307 214 43 53 62
315 307 215 44 54 64
315 308 215 46 55 65
315 309 215 46 55 65
316 304 208 42 50 59
316 304 209 42 49 58
316 305 209 42 50 58
317 304 208 42 51 59
317 305 208 42 50 58
317 305 209 41 50 58
316 304 210 42 49 57
316 304 211 42 50 58
316 305 210 43 50 58
316 305 211 42 49 58
317 306 208 40 48 57
317 306 209 40 48 57
317 307 209 41 49 58
316 306 210 43 50 58
316 306 211 42 50 59
316 307 210 44 51 60
316 307 211 42 50 59
317 306 210 43 50 59
317 307 210 43 51 59
318 305 208 40 48 57
318 306 208 40 48 57
318 307 208 41 50 58
318 307 209 42 50 59
316 304 212 44 51 60
316 305 212 42 51 59
316 305 213 42 51 60
316 306 212 41 50 59
316 306 213 41 50 59
316 307 212 41 50 59
316 307 213 41 50 59
316 307 214 42 52 61
317 308 209 42 51 60
317 308 210 42 50 60
317 308 211 42 51 60
317 309 210 41 50 59
317 309 211 43 51 61
317 310 211 43 51 61
318 308 208 42 50 59
318 308 209 42 51 60
318 309 209 42 50 60
319 308 208 42 50 59
319 309 208 41 50 59
319 309 209 41 50 59
318 309 210 41 50 59
318 310 209 41 50 59
319 310 208 41 50 60
319 310 209 42 51 61
319 311 208 43 52 62
319 311 209 43 52 62
318 310 210 41 50 59
318 310 211 42 51 60
318 311 210 40 50 59
318 311 211 41 50 59
319 311 210 41 51 60
316 308 212 40 49 59
316 308 213 41 50 59
316 309 213 41 50 59
317 308 212 41 50 60
317 309 212 42 51 61
317 309 213 41 50 60
316 308 214 44 53 62
316 308 215 47 55 64
316 309 214 44 53 62
316 309 215 47 55 64
316 310 213 40 49 59
317 310 212 42 51 61
317 310 213 41 50 60
317 311 212 41 51 60
317 311 213 42 51 60
316 310 214 43 52 61
316 310 215 46 54 64
316 311 214 45 53 62
316 311 215 46 54 63
317 311 214 43 52 61
318 311 212 41 51 60
314 304 216 43 54 65
314 304 217 46 57 68
314 305 216 43 54 65
314 305 217 46 57 68
315 304 216 44 55 65
315 305 216 43 54 65
314 304 218 47 59 70
314 304 219 45 57 69
314 305 218 50 61 72
314 305 219 47 59 71
314 306 217 46 58 69
315 306 216 42 53 64
315 306 217 44 56 67
315 307 216 44 55 65
315 307 217 45 57 68
314 306 218 48 60 72
314 306 219 47 60 72
314 307 218 47 60 72
314 307 219 47 61 74
315 307 218 48 60 72
313 304 221 56 68 80
313 305 221 57 69 82
313 304 222 53 66 79
313 304 223 52 67 80
313 305 222 56 68 81
313 305 223 54 68 81
313 306 222 54 67 80
313 306 223 52 67 80
313 307 222 55 68 81
313 307 223 53 67 81
314 304 220 51 62 74
314 304 221 56 68 80
314 305 220 50 62 74
314 305 221 57 68 80
314 306 220 49 62 74
314 306 221 54 67 79
314 307 220 52 65 77
314 307 221 57 69 82
315 308 216 45 55 66
315 308 217 47 58 70
315 309 216 45 55 65
315 309 217 45 57 69
314 308 218 51 63 76
314 308 219 51 64 76
314 309 219 48 62 75
315 308 218 51 62 74
315 309 218 50 62 74
315 310 216 42 53 64
315 310 217 43 55 67
315 311 216 42 53 64
315 311 217 43 55 66
314 310 219 48 62 75
314 311 219 47 60 74
315 310 218 48 61 73
315 311 218 47 59 72
315 311 219 47 60 74
313 308 222 56 69 82
313 308 223 57 70 83
313 309 222 50 64 77
313 309 223 53 67 81
313 310 222 50 63 76
313 310 223 54 68 82
313 311 222 48 62 75
313 311 223 53 66 80
314 308 220 55 67 80
314 308 221 59 71 84
314 309 220 53 66 79
314 309 221 56 68 81
314 310 220 49 63 76
314 310 221 52 65 78
314 311 220 45 60 74
314 311 221 50 63 76
316 310 216 44 54 64
316 311 216 43 53 63
319 312 209 44 53 63
318 312 211 41 51 60
319 312 210 41 50 60
319 312 211 39 49 59
319 313 210 41 51 61
319 313 211 40 50 60
319 314 210 39 50 60
319 314 211 39 49 60
319 315 211 40 50 60
317 312 213 42 52 61
316 312 215 46 54 63
317 312 214 43 52 61
317 312 215 45 53 62
317 313 214 42 51 61
317 313 215 45 54 63
317 314 215 43 52 62
317 315 215 43 53 63
318 312 212 42 51 61
318 312 213 43 52 61
318 313 213 43 53 63
319 312 212 41 50 60
319 313 212 42 52 62
318 313 214 42 52 61
318 314 213 45 54 64
319 314 212 43 52 62
319 314 213 45 54 64
319 315 212 42 52 61
319 315 213 44 53 63
318 314 214 44 53 63
318 314 215 43 52 62
318 315 214 46 55 64
318 315 215 45 54 64
319 315 214 45 54 64
319 316 211 40 50 60
317 316 215 45 55 65
319 316 212 42 51 61
319 316 213 44 54 63
319 317 212 44 53 63
319 317 213 45 54 64
318 316 214 47 55 65
318 316 215 45 55 64
318 317 214 47 56 66
318 317 215 48 57 67
319 316 214 45 54 64
319 317 214 45 54 64
319 318 212 44 53 63
319 318 213 45 54 64
318 318 215 48 57 67
319 318 214 46 55 64
315 312 217 44 55 67
315 313 217 45 56 67
314 312 219 45 59 72
315 312 218 46 58 70
315 312 219 45 59 71
315 313 218 46 57 69
315 313 219 45 59 71
315 314 218 46 57 69
315 314 219 48 60 72
315 315 218 45 56 68
315 315 219 47 59 71
313 312 222 49 63 76
313 312 223 51 65 79
313 313 222 48 62 75
313 313 223 51 65 78
313 314 223 49 64 77
313 315 223 50 64 77
314 312 220 47 61 75
314 312 221 49 63 76
314 313 220 49 62 76
314 313 221 50 63 76
315 313 220 46 60 72
314 312 222 50 63 76
314 313 222 48 62 75
314 314 220 49 63 76
314 314 221 51 65 78
314 315 221 51 65 78
315 314 220 49 61 74
315 315 220 51 64 77
314 314 222 48 62 75
314 315 222 49 63 76
314 315 223 48 62 76
315 316 219 47 59 71
313 316 223 49 63 77
313 317 223 50 64 78
313 318 223 51 66 80
314 316 221 51 65 78
315 316 220 52 64 76
315 316 221 53 66 79
315 317 220 51 63 75
315 317 221 54 67 80
314 316 222 51 64 78
314 316 223 50 64 77
314 317 222 53 66 79
314 317 223 51 65 78
315 318 220 50 63 76
315 318 221 52 66 80
314 318 222 53 67 80
314 318 223 51 66 80
315 318 222 53 67 80
316 312 216 44 53 63
316 312 217 44 55 65
316 313 216 45 55 64
316 313 217 44 55 66
317 313 216 46 54 64
316 314 216 44 54 65
316 314 217 44 55 66
316 315 216 44 55 65
316 315 217 46 57 68
317 314 216 44 54 64
317 315 216 43 53 64
316 314 218 44 56 67
316 315 218 44 56 68
316 316 217 46 57 68
316 317 217 44 56 68
317 316 216 42 54 64
317 316 217 43 54 66
317 317 216 45 56 67
317 317 217 42 55 66
316 316 218 47 58 70
316 316 219 47 59 71
316 317 218 48 59 71
316 317 219 47 59 71
317 318 216 44 56 67
317 318 217 43 56 67
316 318 218 49 60 72
316 318 219 49 61 73
318 318 216 47 58 68
316 317 220 46 59 72
316 318 220 48 61 73
288 288 237 70 86 104
288 289 237 68 86 103
289 288 237 67 83 100
289 289 237 68 84 101
288 290 237 69 86 103
288 291 237 68 85 102
289 290 237 69 86 102
289 291 237 70 87 104
290 288 237 63 80 97
290 289 237 66 82 99
291 288 237 61 78 95
291 289 237 64 81 97
290 290 237 67 84 100
290 291 237 69 85 102
291 290 237 65 82 98
291 291 237 66 82 99
288 292 237 68 85 101
288 293 237 68 84 100
289 292 237 72 89 105
289 293 237 70 86 103
288 294 237 67 82 98
288 295 237 67 82 97
289 294 237 68 85 101
289 295 237 67 83 100
290 292 237 71 87 104
290 293 237 70 87 104
291 292 237 67 84 101
291 293 237 67 85 102
290 294 237 69 86 104
290 295 237 70 86 103
291 294 237 68 85 103
291 295 237 70 87 104
294 288 235 64 80 95
295 288 235 64 80 95
295 289 235 62 78 93
292 288 236 69 84 100
292 288 237 65 82 98
292 289 236 71 85 100
292 289 237 69 84 99
293 288 236 68 83 98
293 289 236 69 83 98
292 290 237 68 84 99
292 291 237 66 82 98
293 290 236 66 81 96
293 290 237 70 84 99
293 291 237 68 83 98
294 288 236 64 80 95
294 289 236 64 79 94
295 289 236 61 77 93
294 290 236 63 78 93
294 291 236 63 79 94
294 291 237 65 80 95
295 290 236 61 77 93
295 291 236 62 78 93
292 292 237 65 82 98
292 293 237 65 82 99
293 292 237 68 82 98
293 293 237 67 82 98
292 294 237 66 83 100
292 295 237 66 83 101
293 294 237 67 83 99
293 295 237 66 83 99
294 292 236 65 80 95
294 292 237 66 81 96
294 293 237 67 82 97
295 292 236 64 79 94
295 293 236 66 81 97
294 294 237 67 82 97
294 295 237 65 81 97
295 294 236 69 84 99
295 294 237 68 83 98
295 295 237 67 82 98
288 296 237 66 80 96
288 297 237 66 80 95
289 296 237 66 82 98
289 297 237 67 82 98
288 298 237 67 81 96
288 299 237 66 80 94
289 298 237 69 83 99
289 299 237 67 82 97
290 296 237 69 86 103
290 297 237 70 87 103
291 296 237 71 88 105
291 297 237 72 88 105
291 297 238 72 88 105
290 298 237 72 88 105
