ply
format ascii 1.0
comment PCL generated
element vertex 2186
property float x
property float y
property float z
property uchar red
property uchar green
property uchar blue
element camera 0
property float view_px
property float view_py
property float view_pz
property float x_axisx
property float x_axisy
property float x_axisz
property float y_axisx
property float y_axisy
property float y_axisz
property float z_axisx
property float z_axisy
property float z_axisz
property float focal
property float scalex
property float scaley
property float centerx
property float centery
property int viewportx
property int viewporty
property float k1
property float k2
end_header
289 530 120 99 105 115
289 531 120 101 107 118
289 531 121 99 106 117
290 528 120 87 93 103
290 528 121 88 94 103
290 529 120 85 91 101
290 529 121 85 91 101
291 528 121 87 93 102
291 529 121 85 91 101
291 529 122 85 91 100
290 530 120 89 95 105
290 530 121 91 98 108
290 531 121 94 102 113
290 530 122 92 100 110
290 531 122 93 100 111
291 530 122 85 92 102
291 531 122 88 94 104
288 532 120 97 104 114
288 533 120 84 91 102
289 532 121 94 102 112
289 533 121 85 92 102
288 534 120 78 84 93
288 535 120 77 83 92
289 534 121 80 86 95
289 535 121 77 84 92
290 532 121 92 99 110
290 533 121 83 90 100
290 532 122 90 97 107
290 533 122 82 89 98
291 532 122 85 93 103
291 532 123 81 89 98
291 533 122 80 86 96
291 533 123 79 86 95
290 534 121 79 85 94
290 535 121 78 84 93
290 534 122 77 84 92
290 535 122 78 84 92
291 534 122 77 84 93
291 534 123 78 84 93
291 535 122 78 84 93
291 535 123 78 84 92
292 528 122 86 92 101
292 529 122 84 90 99
292 529 123 84 90 99
293 528 123 87 92 101
293 529 123 85 91 99
292 530 122 83 89 99
292 530 123 81 87 97
292 531 123 79 86 95
293 530 123 81 87 96
293 531 123 78 84 93
293 528 124 87 92 101
293 529 124 85 90 99
293 530 124 81 87 96
293 531 124 78 84 93
294 528 124 86 91 100
294 529 124 83 89 97
294 529 125 81 87 96
295 528 125 83 89 98
295 529 125 80 86 95
294 530 124 81 87 96
294 530 125 79 86 95
294 531 124 78 84 93
294 531 125 78 85 94
295 530 125 79 85 94
295 531 125 80 87 96
295 530 126 80 87 96
295 531 126 84 91 100
292 532 123 78 85 94
292 533 123 78 84 93
292 534 123 78 84 93
292 535 123 79 85 93
293 532 124 76 83 91
293 533 124 79 85 94
293 534 124 85 90 99
293 535 124 85 90 99
294 532 124 77 83 92
294 532 125 79 85 93
294 533 124 81 87 96
294 533 125 84 90 99
295 532 125 83 89 98
295 533 125 84 90 99
295 532 126 87 94 103
295 533 126 86 93 102
294 534 124 90 96 104
294 534 125 88 94 103
294 535 124 89 95 104
294 535 125 89 95 104
295 534 125 88 94 104
295 535 125 89 96 105
295 534 126 87 94 104
295 535 126 87 94 103
288 536 120 78 84 92
288 537 120 85 91 99
289 536 121 76 82 91
289 537 121 79 86 95
288 538 120 93 99 108
288 539 120 93 100 110
289 538 120 86 92 102
289 538 121 82 88 97
289 539 120 89 95 105
289 539 121 85 91 100
290 536 121 77 83 92
290 537 121 78 84 92
290 536 122 78 84 92
290 537 122 79 85 93
291 536 122 79 85 93
291 536 123 80 85 94
291 537 122 78 84 92
291 537 123 78 84 93
290 538 121 80 86 95
290 539 121 83 89 98
290 538 122 80 86 94
290 539 122 81 87 96
291 538 122 78 84 93
291 538 123 77 84 92
291 539 122 80 86 94
291 539 123 79 85 93
288 540 120 97 103 113
288 541 120 87 93 103
289 540 121 93 99 108
289 541 121 84 91 100
288 542 120 80 86 95
288 543 120 78 84 93
288 543 121 79 85 94
289 542 121 81 88 96
289 543 121 81 87 96
290 540 121 84 90 99
290 541 121 81 87 96
290 540 122 80 86 95
290 541 122 81 87 96
291 540 122 80 86 94
291 541 122 81 87 96
290 542 121 83 89 98
290 543 121 82 88 97
290 542 122 82 88 98
290 543 122 86 92 101
291 542 122 83 89 98
291 543 122 92 98 107
292 536 123 81 86 94
292 537 123 79 85 93
292 538 123 79 85 93
292 539 123 80 86 95
293 536 124 81 87 96
293 537 124 81 87 95
293 538 124 81 87 95
293 539 124 82 87 96
294 536 124 82 88 97
294 536 125 84 91 100
294 537 124 80 87 96
294 537 125 82 89 98
295 536 125 88 95 104
295 537 125 86 93 102
295 536 126 89 95 104
295 537 126 90 96 105
294 538 124 80 87 95
294 538 125 81 88 97
294 539 124 82 88 96
294 539 125 81 87 96
295 538 125 84 91 100
295 539 125 82 88 97
295 538 126 88 94 103
295 539 126 84 90 98
292 540 123 81 87 95
292 541 123 82 87 96
293 540 123 83 88 96
293 541 123 82 88 96
292 542 123 83 89 98
292 543 123 91 97 107
293 542 123 82 88 97
293 543 123 86 92 102
293 540 124 83 89 97
293 541 124 82 89 98
293 542 124 82 88 98
293 543 124 84 91 100
294 540 125 83 89 97
294 541 124 83 89 98
294 541 125 83 89 98
295 540 125 82 88 97
295 541 125 88 94 103
295 540 126 83 90 99
294 542 124 84 90 100
294 542 125 86 92 101
294 543 124 86 92 101
294 543 125 86 92 102
295 542 125 92 98 108
295 543 125 89 96 106
296 528 126 81 87 95
296 528 127 80 86 95
296 529 126 79 86 95
296 529 127 79 85 94
297 528 127 80 86 95
297 529 127 79 85 94
296 530 126 86 92 101
296 531 126 92 98 107
297 530 127 86 92 102
297 531 127 95 101 110
296 532 126 91 97 107
296 533 126 88 95 104
296 533 127 88 95 104
297 532 127 90 97 106
297 533 127 87 94 103
296 534 126 89 95 105
296 535 126 85 92 101
297 534 127 86 93 102
297 535 127 82 89 99
296 536 126 87 93 102
296 537 126 90 96 104
297 536 127 81 87 97
297 537 127 83 89 98
296 538 126 89 94 103
296 539 126 84 90 99
297 538 127 85 91 100
297 539 127 84 90 99
296 540 126 87 93 103
296 541 126 99 104 114
297 540 127 87 93 102
297 541 126 106 111 121
297 541 127 96 101 111
296 542 126 103 109 119
296 543 126 90 96 106
297 542 126 101 107 117
297 542 127 94 100 110
297 543 127 88 95 104
298 543 127 87 94 103
288 544 120 79 84 93
288 544 121 79 85 94
288 545 120 81 87 96
288 545 121 81 87 96
289 544 121 81 87 95
289 545 121 82 87 96
288 546 120 81 87 96
288 546 121 82 88 98
288 547 120 80 87 96
288 547 121 81 87 97
289 546 121 84 89 98
289 547 121 83 89 97
290 544 121 83 89 98
290 544 122 88 94 103
290 545 122 85 91 100
291 544 122 99 104 113
291 545 122 91 96 105
291 545 123 90 95 105
290 546 122 85 91 99
290 547 122 84 90 98
291 546 122 89 94 103
291 546 123 88 93 102
291 547 122 88 93 102
291 547 123 86 92 101
288 548 121 81 87 96
288 549 121 80 86 95
289 548 121 80 86 95
289 549 121 78 85 94
289 548 122 80 86 95
289 549 122 78 85 94
288 550 120 84 91 100
288 550 121 80 87 96
288 551 120 80 87 96
288 551 121 78 84 93
289 550 121 78 84 93
289 551 121 77 83 92
289 550 122 78 84 93
289 551 122 76 83 92
290 548 122 81 87 96
290 549 122 80 87 96
290 549 123 89 95 104
291 548 123 89 95 104
291 549 123 97 103 112
290 550 122 79 86 95
290 550 123 88 94 103
290 551 122 77 84 92
290 551 123 78 85 94
291 550 123 95 100 110
291 551 123 83 89 98
292 544 123 95 101 111
292 545 123 87 93 103
293 544 123 90 96 105
293 545 123 87 93 103
292 546 123 86 92 102
292 547 123 87 92 101
293 546 123 86 92 102
293 547 123 87 93 102
293 544 124 89 95 104
293 545 124 87 93 103
293 546 124 85 92 101
293 547 124 86 92 101
294 544 124 88 94 103
294 545 124 85 91 100
295 544 125 86 92 101
295 545 125 84 90 99
294 546 124 84 90 99
294 546 125 84 89 98
294 547 124 85 91 100
294 547 125 84 89 99
295 546 125 83 89 98
295 547 125 82 88 97
295 547 126 81 87 96
292 548 123 91 96 106
292 549 123 101 106 115
292 548 124 94 99 109
292 549 124 100 105 115
293 548 124 88 94 104
293 548 125 90 96 106
293 549 124 95 101 110
293 549 125 91 97 107
292 550 124 98 103 113
292 551 124 85 91 100
293 550 124 93 99 109
293 550 125 91 97 106
293 551 124 84 90 100
293 551 125 85 91 100
294 548 125 84 90 100
294 549 125 85 91 101
295 548 125 81 87 96
295 548 126 80 86 95
295 549 126 79 85 94
294 550 125 89 95 105
294 551 125 83 89 98
294 550 126 85 91 100
294 551 126 78 85 94
295 550 126 79 85 94
295 551 126 77 83 92
288 552 120 79 86 95
288 552 121 78 84 93
288 553 120 80 86 95
288 553 121 80 86 94
289 552 121 79 84 92
289 553 121 80 86 94
289 552 122 78 83 91
289 553 122 80 86 94
288 554 120 81 86 95
288 554 121 81 86 95
288 555 120 85 91 100
288 555 121 85 91 101
289 554 121 82 87 95
289 555 121 85 91 100
289 554 122 82 88 96
289 555 122 88 94 103
290 552 122 77 83 91
290 553 122 79 85 93
291 552 123 77 83 91
291 553 123 79 84 92
290 554 122 82 88 96
290 555 122 91 97 106
291 554 123 83 89 97
291 555 123 93 98 107
288 556 120 85 92 102
288 556 121 85 93 103
288 557 121 92 98 109
289 556 121 89 96 107
289 557 121 93 101 113
289 556 122 95 102 113
289 557 122 103 111 123
288 558 121 93 100 110
288 558 122 96 103 114
288 559 122 92 98 109
289 558 122 110 117 129
289 558 123 118 125 138
289 559 122 96 104 116
289 559 123 99 107 120
290 556 122 103 109 120
290 557 122 111 118 130
290 557 123 109 117 128
291 556 123 107 112 122
291 557 123 108 115 126
290 558 123 121 128 141
290 559 123 117 124 137
291 558 123 120 127 139
290 559 124 104 112 124
291 558 124 118 125 136
291 559 124 100 108 120
292 553 123 78 83 92
292 554 123 82 88 96
292 555 123 90 95 104
292 552 124 76 82 91
292 553 124 77 83 92
293 552 124 76 83 92
293 552 125 78 84 93
293 553 124 77 84 92
293 553 125 78 84 92
292 554 124 82 88 97
292 555 124 90 96 104
293 554 124 80 86 94
293 554 125 79 85 93
293 555 124 83 89 98
293 555 125 83 89 97
294 552 125 78 84 93
294 553 125 79 84 92
294 552 126 77 84 92
294 553 126 79 84 92
295 552 126 78 83 92
295 553 126 78 83 92
294 554 125 79 84 93
294 555 125 82 87 96
294 554 126 79 84 92
294 555 126 81 87 95
295 554 126 78 84 92
295 555 126 80 86 95
292 556 123 101 107 116
292 556 124 93 99 109
292 557 124 102 109 119
293 556 124 87 93 103
293 556 125 86 92 101
293 557 124 92 99 109
293 557 125 89 95 105
292 558 124 115 122 133
292 558 125 111 117 129
292 559 125 96 103 114
293 558 125 97 103 113
293 559 125 92 99 109
293 558 126 92 98 107
293 559 126 90 96 106
294 556 125 85 90 99
294 557 125 88 93 102
294 556 126 84 89 98
294 557 126 88 94 103
295 556 126 83 89 98
295 556 127 83 89 98
295 557 126 87 92 101
295 557 127 87 92 101
294 558 126 90 95 105
294 559 126 90 96 105
294 559 127 88 94 103
295 558 126 90 95 104
295 558 127 91 96 105
295 559 127 89 94 104
296 545 125 82 88 97
296 544 126 84 91 101
296 545 126 82 88 97
297 544 127 85 91 101
297 545 127 83 89 98
296 546 126 81 87 96
296 546 127 81 87 96
296 547 126 80 86 95
296 547 127 80 86 95
297 546 127 82 88 97
297 547 127 81 86 95
298 544 127 85 91 100
298 545 127 83 89 98
296 548 126 80 86 95
296 548 127 80 85 94
296 549 126 79 85 93
296 549 127 78 84 92
297 548 127 80 85 94
297 549 127 78 83 92
296 550 127 77 83 91
296 551 127 78 84 92
297 551 127 80 85 93
296 552 127 80 86 94
296 553 127 81 86 95
297 552 127 85 90 98
297 553 127 88 93 102
296 554 127 77 84 92
296 555 127 79 85 94
297 554 127 80 87 96
297 555 127 79 85 95
296 556 127 83 88 97
296 557 127 87 93 102
296 558 127 90 95 105
288 560 122 91 96 106
288 560 123 89 96 105
288 561 123 87 93 102
289 560 123 90 97 108
289 561 123 88 95 104
288 562 123 84 89 99
289 560 124 90 96 107
289 561 124 89 95 105
288 562 124 81 87 96
288 563 124 80 86 96
289 562 124 84 90 99
289 562 125 83 89 97
289 563 124 79 84 93
289 563 125 80 86 95
290 560 124 90 97 108
290 561 124 88 95 105
290 561 125 86 92 102
291 560 124 89 96 107
291 560 125 86 93 104
291 561 125 83 90 100
290 562 125 85 91 100
290 563 125 81 87 96
291 562 125 84 90 98
291 562 126 84 90 99
291 563 126 83 88 97
288 564 124 84 89 98
288 565 124 82 88 97
289 564 124 80 86 95
289 564 125 77 84 93
289 565 125 76 83 92
290 564 125 77 83 93
290 565 125 75 82 91
290 564 126 78 83 92
290 565 126 75 82 91
291 564 126 78 84 92
291 565 126 76 82 91
291 565 127 76 82 91
292 560 125 86 93 103
292 560 126 84 91 101
292 561 126 82 89 99
293 560 126 84 91 101
293 560 127 86 93 103
293 561 126 84 91 101
293 561 127 94 99 110
292 562 126 82 88 98
292 562 127 82 88 98
292 563 126 82 88 97
292 563 127 80 86 95
293 562 127 93 99 109
293 563 127 81 88 97
294 560 127 86 92 102
294 561 127 93 99 109
295 560 127 86 93 102
292 564 127 77 83 92
292 565 127 75 81 90
293 564 127 78 85 94
295 512 128 78 84 92
295 513 128 81 87 95
295 514 128 81 87 95
296 512 128 76 81 89
296 512 129 73 78 86
296 513 128 81 87 95
296 513 129 82 88 96
297 512 129 71 76 84
297 513 129 82 87 95
297 512 130 63 70 78
297 513 130 79 85 92
296 514 128 80 86 95
296 514 129 81 87 95
296 515 128 79 84 93
296 515 129 80 86 94
297 514 129 81 87 95
297 515 129 80 86 95
297 514 130 82 87 95
297 515 130 82 87 95
298 512 131 58 65 74
298 513 131 79 84 92
298 514 131 86 91 99
298 515 130 85 91 99
298 515 131 88 94 102
299 514 131 88 94 102
299 515 131 91 97 105
299 512 132 53 61 70
299 513 132 76 81 89
299 514 132 86 92 100
299 515 132 90 95 104
296 516 128 78 84 92
296 516 129 78 84 92
296 517 128 78 83 91
297 516 129 79 85 93
297 517 129 79 85 93
297 516 130 82 88 96
297 517 130 83 88 96
296 518 128 77 83 91
296 519 128 78 83 91
297 518 129 79 84 92
297 519 128 78 83 91
297 519 129 78 84 91
298 516 130 86 92 100
298 516 131 92 97 105
298 517 130 87 92 101
298 517 131 92 97 106
299 516 131 92 98 106
299 517 131 92 97 105
298 519 129 78 84 93
298 518 130 82 88 96
298 519 130 80 85 93
299 518 131 87 93 101
299 519 130 82 87 95
299 519 131 81 87 95
299 516 132 88 94 103
299 517 132 90 96 104
300 512 133 48 56 65
300 513 133 64 70 79
300 512 134 48 57 66
300 513 134 59 66 75
301 512 134 48 56 65
301 512 135 48 56 64
301 513 134 56 63 72
301 513 135 56 63 72
300 514 133 80 86 95
300 515 133 82 89 98
300 514 134 75 81 90
300 515 134 80 86 95
301 514 134 74 80 88
301 514 135 74 80 87
301 515 134 80 86 94
301 515 135 81 86 94
302 512 135 48 55 64
302 513 135 57 64 72
302 514 135 73 79 86
302 515 135 79 84 92
300 516 132 88 94 103
300 516 133 85 92 101
300 517 132 90 96 105
300 517 133 90 96 104
300 516 134 81 88 96
301 516 134 83 89 97
301 516 135 82 87 95
301 517 134 82 88 97
300 518 132 85 91 100
300 518 133 84 90 98
300 519 132 78 85 93
300 519 133 77 84 92
301 518 133 82 89 97
301 519 133 77 84 92
301 518 134 79 86 95
302 516 135 80 85 93
302 517 134 80 86 94
302 517 135 82 87 96
302 518 134 81 87 96
302 518 135 84 90 98
302 519 134 83 90 99
302 519 135 89 95 104
303 518 135 87 93 101
303 519 135 90 95 104
302 512 136 48 55 64
302 512 137 47 55 64
302 513 136 54 61 69
302 513 137 49 56 65
303 512 137 48 56 65
303 513 137 50 58 66
303 512 138 47 55 63
303 513 138 47 56 64
302 514 136 69 74 82
302 515 136 76 81 89
303 514 137 66 72 80
303 515 136 77 82 90
303 515 137 77 83 91
303 514 138 64 70 78
303 515 138 79 84 92
302 516 136 78 84 92
303 516 136 79 84 92
303 516 137 81 86 93
303 517 136 82 87 95
303 517 137 82 87 95
303 518 136 84 89 98
303 519 136 86 91 99
297 520 128 81 86 94
297 520 129 82 87 95
297 521 128 87 92 100
297 522 128 92 97 106
297 523 128 99 104 113
298 520 129 82 88 96
298 521 129 86 92 101
298 520 130 81 87 96
298 521 130 85 91 100
299 520 130 81 87 95
299 520 131 80 86 94
299 521 130 84 90 99
299 521 131 81 87 96
298 522 129 94 99 108
298 523 128 99 104 114
298 523 129 99 104 114
298 522 130 90 96 105
299 522 130 88 94 103
299 523 130 92 97 107
297 524 128 100 105 115
297 525 128 86 92 102
297 526 128 83 89 98
298 524 128 98 103 112
298 524 129 99 105 114
298 525 128 89 95 104
298 525 129 90 95 104
299 524 129 94 100 109
299 525 129 87 93 102
299 524 130 89 94 104
299 525 130 81 88 97
298 526 128 82 88 97
298 527 128 79 85 94
299 526 129 82 88 97
299 527 129 78 85 95
299 526 130 84 90 99
299 527 130 84 91 100
300 520 131 79 85 93
300 521 131 81 87 95
300 522 131 83 89 98
300 523 130 87 93 102
300 523 131 84 89 98
300 520 132 77 84 92
300 521 132 79 85 93
301 520 132 78 84 92
301 520 133 78 85 93
301 521 132 79 85 94
301 521 133 81 88 96
300 522 132 82 88 96
301 522 132 81 87 95
301 522 133 84 90 99
301 523 132 82 88 97
301 523 133 84 90 99
302 520 133 85 91 100
302 521 133 87 93 102
302 520 134 94 99 108
302 520 135 94 99 108
302 521 134 97 103 112
303 520 135 99 104 113
303 521 134 104 109 118
303 521 135 103 109 118
302 522 133 87 93 102
302 523 133 86 92 102
302 522 134 95 101 110
302 523 134 95 100 110
303 522 134 102 107 116
303 522 135 100 106 115
303 523 134 98 104 113
303 523 135 96 102 111
300 524 130 85 91 100
300 524 131 81 87 96
300 525 131 80 87 96
301 525 131 80 87 96
300 526 130 87 92 101
300 526 131 87 93 102
300 527 130 88 95 103
300 527 131 88 93 102
301 526 131 85 91 100
301 527 131 83 89 97
301 524 132 81 87 96
301 525 132 80 87 96
301 526 132 81 87 96
301 527 132 80 87 95
302 524 133 87 93 102
302 525 133 87 93 102
302 524 134 94 99 109
302 525 134 95 101 110
303 524 134 97 102 112
303 524 135 95 101 110
303 525 134 102 107 116
303 525 135 103 108 118
302 526 133 85 91 100
302 527 132 80 86 95
302 527 133 81 87 97
303 526 134 100 106 116
303 527 134 92 98 108
303 520 136 92 97 105
303 521 136 101 105 114
297 530 128 82 88 97
297 531 128 89 95 105
298 528 128 77 83 93
298 529 128 77 84 93
299 528 129 78 85 94
299 529 129 78 85 94
299 528 130 81 88 97
299 529 130 81 87 96
298 530 128 80 87 96
298 531 128 80 87 96
299 530 129 78 85 94
299 531 129 75 82 92
299 530 130 78 85 94
297 532 128 88 95 104
297 533 128 87 94 103
298 532 128 83 90 100
298 533 128 87 93 103
299 532 129 78 85 94
299 533 128 86 92 102
299 533 129 83 89 99
298 534 128 89 95 104
298 535 128 86 92 101
299 534 128 90 97 106
299 534 129 89 95 104
299 535 128 90 96 105
299 535 129 91 96 106
300 528 130 83 90 99
300 528 131 84 90 99
300 529 130 82 88 97
300 529 131 82 88 97
301 528 131 81 87 96
301 529 131 81 87 95
300 531 129 77 83 92
300 530 130 80 86 95
300 530 131 80 86 95
300 531 130 79 85 94
301 530 131 81 87 95
301 531 131 81 87 96
302 531 131 81 87 96
301 528 132 79 85 94
301 530 132 81 87 96
302 528 132 79 85 93
302 528 133 79 86 94
302 529 132 81 87 95
302 529 133 81 87 96
303 528 133 80 87 96
303 529 133 82 88 97
303 528 134 83 90 100
303 529 134 83 89 98
302 530 132 82 87 96
302 530 133 82 87 96
302 531 132 81 88 97
303 530 133 80 87 96
303 531 133 81 88 97
303 530 134 80 86 95
303 531 134 80 87 97
300 532 129 78 85 94
300 533 129 80 87 96
300 532 130 79 85 94
300 533 130 80 86 95
301 532 131 80 86 95
301 533 130 82 88 96
301 533 131 83 89 97
300 534 129 84 90 100
300 535 129 86 92 101
300 534 130 82 88 96
300 535 130 82 88 96
301 534 130 82 87 95
301 534 131 83 89 97
301 535 130 82 88 96
301 535 131 84 90 98
302 532 131 81 87 96
302 533 131 84 91 100
302 534 131 86 93 102
302 535 131 88 94 103
302 532 132 84 90 100
302 533 132 90 96 106
303 532 133 88 96 105
303 533 133 97 104 114
303 532 134 89 96 106
302 534 132 91 97 107
302 535 132 92 99 108
303 534 132 98 104 114
303 534 133 103 110 120
303 535 132 96 103 112
303 535 133 102 109 120
298 536 128 79 86 95
298 537 128 81 87 96
299 536 128 83 89 98
299 536 129 84 90 99
299 537 128 79 85 94
299 537 129 78 84 93
298 538 128 84 90 98
298 539 128 82 88 97
299 538 128 82 88 97
299 538 129 82 88 97
299 539 128 82 88 97
299 539 129 85 91 100
298 540 128 84 90 100
298 541 128 87 94 103
299 540 128 85 91 100
299 540 129 88 94 103
299 541 129 87 93 103
298 542 128 87 94 104
298 543 128 87 93 103
299 542 128 86 93 103
299 542 129 85 92 102
299 543 128 86 92 102
299 543 129 85 92 102
300 536 129 80 86 95
300 537 129 78 84 93
300 536 130 78 85 93
300 537 130 80 86 95
301 536 130 81 86 95
301 536 131 83 89 97
301 537 130 81 87 96
301 537 131 82 88 97
300 538 129 83 89 98
300 539 129 84 90 99
300 538 130 84 90 100
300 539 130 87 93 103
301 538 130 86 91 101
301 538 131 86 93 102
301 539 130 84 91 101
301 539 131 86 93 104
302 536 131 84 90 99
302 537 131 82 88 97
302 538 131 85 92 101
302 539 131 87 94 104
302 536 132 87 93 103
302 537 132 81 88 97
303 536 133 93 100 111
303 537 132 81 87 96
303 537 133 83 89 99
302 538 132 82 89 98
302 539 132 84 91 100
303 538 133 81 88 97
303 539 133 82 88 98
300 540 130 92 98 108
300 541 130 89 96 107
301 540 130 98 104 114
301 540 131 96 103 113
301 541 130 99 106 116
301 541 131 104 110 121
300 542 130 87 94 105
300 543 130 86 93 103
301 542 130 95 102 112
301 542 131 103 109 119
301 543 130 88 95 105
301 543 131 93 100 110
302 540 131 96 103 113
302 541 131 101 108 119
302 542 131 104 111 122
302 540 132 90 97 107
302 541 132 96 103 113
303 540 133 83 90 100
303 541 133 87 94 104
302 542 132 101 107 118
302 543 132 95 102 113
303 542 133 92 99 109
303 543 133 90 97 107
304 512 139 47 55 63
304 513 138 48 56 64
304 513 139 47 55 64
304 514 138 66 71 79
304 514 139 61 68 75
304 515 138 79 84 92
304 515 139 77 82 90
305 515 139 79 84 92
304 512 140 47 54 63
304 513 140 46 54 62
305 512 141 46 54 62
305 513 140 45 54 62
305 513 141 45 53 61
304 514 140 53 60 68
305 514 140 60 66 74
305 514 141 57 64 71
305 515 140 80 85 93
305 515 141 79 84 91
306 513 141 44 52 60
306 512 142 45 53 62
306 512 143 45 53 61
306 513 142 43 51 60
307 512 143 45 53 61
307 513 143 42 50 58
306 514 141 53 59 67
306 515 141 75 80 87
306 514 142 50 57 65
306 515 142 73 78 86
307 514 143 46 53 62
307 515 142 72 77 85
307 515 143 69 74 82
304 516 137 81 86 94
304 517 137 84 88 96
304 516 138 80 85 93
304 516 139 78 84 92
304 517 138 83 88 96
305 516 139 81 86 94
305 517 138 83 88 96
305 517 139 84 89 97
304 518 137 84 89 96
304 519 137 82 87 95
304 518 138 83 88 96
305 518 138 84 89 96
305 518 139 88 93 100
305 519 138 82 87 95
305 519 139 87 92 100
305 516 140 83 88 96
305 517 140 85 90 98
305 518 140 90 95 103
306 516 141 81 86 94
306 517 140 85 90 98
306 517 141 83 89 97
306 516 142 83 88 96
307 516 142 85 89 96
307 516 143 81 86 94
307 517 142 86 90 97
307 517 143 83 87 95
306 518 140 90 94 102
306 518 141 85 90 99
306 519 140 89 94 102
306 519 141 85 90 98
307 518 141 85 90 97
307 519 141 82 87 95
307 518 142 84 88 96
307 518 143 82 87 95
307 519 142 83 87 94
308 515 143 66 72 80
308 516 143 79 84 92
308 517 143 81 86 94
308 518 143 83 88 96
308 519 143 83 88 96
304 523 135 91 97 107
304 524 135 92 97 107
304 525 135 98 103 113
304 526 135 104 110 120
304 527 134 94 101 112
304 527 135 97 105 115
304 520 136 90 95 103
304 520 137 84 89 97
304 521 136 94 100 108
304 521 137 84 90 98
305 521 137 79 85 94
305 520 138 77 83 91
305 520 139 75 81 90
305 521 138 76 82 91
305 521 139 73 79 88
304 522 136 95 100 110
304 522 137 84 90 99
304 523 136 89 95 105
304 523 137 82 89 98
305 522 137 80 86 94
305 523 137 80 86 95
305 522 138 75 81 90
305 522 139 73 79 88
305 523 138 76 82 91
305 523 139 74 80 88
306 522 139 72 79 87
306 523 139 72 79 87
306 520 140 77 83 91
306 520 141 80 86 94
306 521 140 74 80 89
306 521 141 77 83 91
307 520 141 82 87 95
307 521 141 80 85 93
307 520 142 82 87 94
307 521 142 81 86 94
306 522 140 73 79 88
306 522 141 75 81 90
306 523 140 72 78 87
306 523 141 72 78 87
307 522 141 78 84 92
307 523 141 74 80 88
307 522 142 80 85 93
307 523 142 77 83 91
304 524 136 86 93 102
304 524 137 83 89 98
304 525 136 89 95 104
305 524 137 80 86 95
305 525 137 82 89 98
305 524 138 76 82 90
305 524 139 75 80 89
305 525 138 77 83 92
304 526 136 96 102 112
304 527 136 96 102 113
305 526 136 94 101 110
305 526 137 87 94 104
305 527 136 93 100 110
305 527 137 92 98 108
305 526 138 80 86 96
306 524 139 75 80 88
306 525 138 77 83 91
306 525 139 76 81 89
306 527 137 89 95 105
306 526 138 81 87 96
306 526 139 77 83 91
306 527 138 84 91 100
306 527 139 79 85 93
307 527 139 80 86 94
306 524 140 75 80 88
306 524 141 73 79 87
306 525 140 75 80 88
307 524 141 74 79 87
307 525 140 75 80 88
307 525 141 75 80 88
307 524 142 75 81 90
306 526 140 76 81 90
307 526 140 76 82 90
307 526 141 75 80 88
307 527 140 78 84 92
307 527 141 76 81 89
308 520 143 80 86 93
308 521 142 80 85 93
308 521 143 78 84 91
308 522 142 80 85 93
308 522 143 81 86 94
308 523 142 80 86 94
308 523 143 83 88 96
308 524 142 77 82 91
308 524 143 80 85 94
308 525 142 75 81 89
308 525 143 77 83 91
308 527 141 77 82 90
308 526 142 76 82 90
308 526 143 80 86 94
308 527 142 79 84 92
308 527 143 84 89 97
309 526 143 81 87 96
309 527 143 85 91 99
307 512 144 43 51 60
307 513 144 41 49 58
308 512 144 43 51 60
308 512 145 42 51 59
308 513 144 41 49 58
308 513 145 41 49 57
309 513 145 41 49 57
309 512 146 43 51 60
309 512 147 44 52 61
309 513 146 42 49 58
309 513 147 42 50 58
308 514 144 43 51 59
308 514 145 44 52 60
308 515 144 67 73 80
309 514 145 44 51 60
309 515 145 67 73 81
309 514 146 42 50 58
309 514 147 40 48 56
309 515 146 62 68 77
310 512 147 45 53 62
310 513 147 43 50 59
310 514 147 41 48 56
310 515 146 75 81 89
310 515 147 56 63 71
310 512 148 43 51 60
310 513 148 42 50 58
311 512 149 45 54 62
311 513 148 41 48 57
311 513 149 42 50 58
311 512 150 46 54 63
311 513 150 44 51 60
310 514 148 40 48 56
310 515 148 55 61 69
311 514 148 40 47 55
311 514 149 40 47 55
311 515 148 48 55 63
311 515 149 43 50 58
308 516 144 83 88 96
308 517 144 85 90 99
309 516 145 86 91 100
309 517 144 91 96 104
309 517 145 91 96 105
309 516 146 85 91 99
309 517 146 88 93 102
308 518 144 86 91 100
308 519 144 85 91 99
309 518 144 91 97 105
309 518 145 93 98 107
309 519 144 88 94 102
309 519 145 91 97 105
310 516 146 83 88 97
310 516 147 79 84 92
310 517 146 86 92 100
310 517 147 79 85 94
311 517 147 77 83 91
310 519 145 90 96 105
310 518 146 87 92 101
310 518 147 80 86 94
310 519 146 87 93 102
310 519 147 82 88 97
311 518 147 77 83 91
311 519 147 82 88 96
310 516 148 74 79 87
311 516 148 69 74 82
311 516 149 56 62 70
311 517 148 76 81 88
311 518 148 76 81 89
311 519 148 78 84 92
308 520 144 82 87 96
309 520 144 81 87 95
309 520 145 84 90 99
309 521 144 78 84 93
309 521 145 80 86 94
309 522 144 82 87 94
309 522 145 82 88 96
309 523 144 84 89 97
309 523 145 83 89 97
310 520 145 88 94 103
310 521 145 83 89 97
310 520 146 85 92 100
310 521 146 86 92 101
311 520 147 81 87 96
311 521 146 87 93 101
311 521 147 84 90 98
310 522 145 85 90 99
310 523 145 85 90 98
310 522 146 89 94 103
310 523 146 90 95 103
311 522 146 92 97 105
311 522 147 93 98 106
311 523 146 94 98 107
311 523 147 96 101 109
311 520 148 80 85 93
311 521 148 79 85 93
309 524 144 81 87 95
309 524 145 82 87 96
309 525 144 79 85 93
309 526 144 81 87 95
309 527 144 86 92 101
310 524 145 82 88 96
310 525 145 79 85 94
311 524 146 88 93 101
311 524 147 91 96 104
311 525 146 83 88 97
311 525 147 86 91 99
310 526 144 78 84 93
310 526 145 77 83 92
310 527 144 81 88 97
310 527 145 77 84 93
311 526 146 78 84 93
311 526 147 81 86 95
311 527 146 74 80 89
311 527 147 77 82 91
312 512 150 47 54 63
312 512 151 45 53 62
312 513 150 41 49 57
312 513 151 41 48 57
313 512 151 45 53 62
313 513 151 39 47 55
312 515 149 45 52 60
312 514 150 40 47 55
312 514 151 39 46 54
312 515 150 42 49 57
313 514 151 38 45 53
313 515 151 43 50 58
312 516 149 63 68 75
312 517 148 73 78 86
312 517 149 69 75 82
312 516 150 60 66 74
313 516 150 63 69 77
313 516 151 66 71 78
313 517 150 71 77 84
313 517 151 79 84 92
312 518 148 74 79 87
312 518 149 72 77 84
312 519 148 77 82 90
312 519 149 77 82 89
313 518 149 73 78 85
313 519 149 76 81 88
313 518 150 74 80 87
313 519 150 77 82 89
314 516 151 71 76 83
314 517 151 86 91 98
314 518 151 83 88 96
314 519 150 78 83 90
314 519 151 84 88 96
313 512 152 46 53 62
313 513 152 41 48 56
313 514 152 37 45 52
314 512 153 46 54 62
314 513 152 41 48 57
314 513 153 40 48 56
314 512 154 47 54 62
315 512 154 46 52 59
315 512 155 44 50 58
315 513 154 40 47 54
314 514 152 37 44 52
314 514 153 37 45 53
314 515 152 43 49 57
314 515 153 38 46 53
315 514 153 37 44 52
315 515 153 42 50 57
315 514 154 37 44 51
315 515 154 40 47 54
314 516 152 71 76 83
314 517 152 90 95 103
315 516 152 78 83 90
315 516 153 68 74 81
315 517 152 87 93 101
315 517 153 86 91 99
315 516 154 61 66 74
314 518 152 89 94 102
314 519 152 91 95 103
315 518 152 90 95 103
315 518 153 90 95 103
315 519 152 91 96 103
315 519 153 91 96 104
316 512 155 43 50 58
316 513 155 39 46 53
316 514 154 38 45 52
316 514 155 39 45 52
316 515 154 47 52 59
316 515 155 45 51 58
317 515 155 45 50 56
316 512 156 46 52 59
316 512 157 49 55 63
316 513 156 39 46 53
317 512 157 44 50 58
317 513 156 37 44 51
317 513 157 41 47 54
317 512 158 36 44 52
317 514 156 36 42 49
317 514 157 38 45 53
317 515 156 46 52 59
318 513 157 36 43 51
318 512 158 35 42 50
318 512 159 36 42 50
318 513 158 32 40 48
318 513 159 35 41 50
319 513 159 41 47 55
318 514 157 37 45 54
318 515 157 53 60 68
318 514 158 38 45 54
318 515 158 58 65 73
319 514 158 54 60 68
319 514 159 64 69 76
319 515 158 72 77 85
319 515 159 82 87 95
316 516 154 69 74 81
316 517 154 82 86 94
316 517 155 81 86 93
317 516 155 72 76 82
317 517 155 84 88 95
316 518 153 89 94 102
316 519 153 89 94 102
316 518 154 88 93 100
316 518 155 87 91 99
316 519 154 88 92 100
317 518 155 87 91 99
317 519 154 84 89 97
317 519 155 87 91 99
317 516 156 73 77 84
317 517 156 85 89 96
317 518 156 86 90 97
318 516 156 72 77 84
318 516 157 75 80 88
318 517 156 82 87 94
318 517 157 82 87 95
318 516 158 76 82 90
319 516 158 83 89 97
319 516 159 94 99 107
319 517 158 86 92 100
319 517 159 93 97 106
318 518 156 82 87 94
318 518 157 81 86 94
318 519 156 83 88 95
318 519 157 73 79 87
319 518 158 85 90 98
319 518 159 81 87 96
319 519 158 75 81 90
319 519 159 77 83 92
312 523 147 94 99 108
312 520 148 78 83 91
312 520 149 77 82 90
312 521 148 78 83 91
313 520 149 76 81 88
313 521 149 73 79 87
313 520 150 75 80 88
313 521 150 73 78 86
312 522 148 84 89 97
312 523 148 90 95 104
313 522 149 73 79 87
313 523 148 87 92 101
313 523 149 80 86 94
313 522 150 74 80 88
313 523 150 75 81 90
314 520 150 76 82 89
314 520 151 80 85 93
314 521 150 74 79 87
314 521 151 82 87 95
314 522 150 76 82 90
314 522 151 83 89 97
314 523 150 77 83 91
314 523 151 81 86 94
315 523 151 83 88 96
312 524 147 91 96 104
312 525 147 86 92 100
312 526 147 81 87 96
312 527 147 78 84 92
312 524 148 89 94 102
312 525 148 86 91 100
313 524 148 87 93 101
313 524 149 86 91 100
313 525 148 86 92 100
313 525 149 88 93 101
312 526 148 81 86 95
312 527 148 78 84 93
313 526 148 81 87 96
313 526 149 84 90 98
313 527 148 79 85 94
313 527 149 83 88 97
314 525 149 85 91 99
314 524 150 79 85 93
314 524 151 75 81 90
314 525 150 79 85 93
314 525 151 74 80 89
315 524 151 77 83 91
315 525 151 74 80 88
314 526 149 85 90 98
314 527 149 87 92 101
314 526 150 82 87 96
314 527 150 87 93 101
315 526 151 77 83 92
315 527 151 82 88 96
315 520 152 87 91 99
315 521 152 89 94 102
315 522 152 91 96 104
315 523 152 90 95 103
315 524 152 82 87 95
315 525 152 78 84 93
315 526 152 80 85 94
315 527 152 81 87 96
316 520 153 84 89 98
316 521 153 80 86 95
316 520 154 81 86 95
316 521 154 79 85 94
317 520 154 80 85 94
317 520 155 82 87 95
317 521 154 79 85 94
317 521 155 78 83 92
316 522 153 87 93 102
316 523 152 91 96 105
316 523 153 92 98 107
316 522 154 85 92 102
316 523 154 92 98 107
317 522 154 86 93 103
317 522 155 83 89 98
317 523 154 89 95 104
317 523 155 83 90 99
318 522 155 77 84 93
318 523 155 78 85 94
318 520 156 78 83 90
318 520 157 70 76 84
318 521 156 78 82 90
318 521 157 71 76 84
319 520 157 72 78 86
319 521 157 72 78 87
319 520 158 78 84 92
319 520 159 79 85 94
319 521 158 79 85 93
319 521 159 80 86 94
318 522 156 77 83 91
318 522 157 71 77 86
318 523 156 76 82 91
318 523 157 74 80 89
319 522 157 72 78 87
319 523 157 76 82 91
319 522 158 78 85 93
319 522 159 79 85 94
319 523 158 82 87 95
319 523 159 80 86 95
316 524 152 85 91 99
316 524 153 86 92 101
316 525 152 81 86 95
316 525 153 77 83 92
316 524 154 87 93 102
317 524 154 80 87 96
317 524 155 78 85 94
317 525 154 75 82 90
317 525 155 76 82 91
316 526 152 80 86 94
316 526 153 78 83 91
316 527 152 83 89 97
316 527 153 80 85 93
317 526 154 78 83 90
317 526 155 80 84 91
317 527 154 78 83 90
317 527 155 81 85 92
318 524 155 79 84 93
318 525 155 79 84 93
318 526 155 80 85 93
318 527 155 80 85 92
318 524 156 77 83 91
318 525 156 80 85 92
319 524 157 75 81 89
319 525 157 75 80 88
319 524 158 76 82 90
319 525 158 72 78 86
318 526 156 80 85 93
318 527 156 80 85 93
319 526 156 81 85 92
319 526 157 79 83 91
319 527 156 80 85 92
319 527 157 77 82 89
319 526 158 75 80 87
319 527 158 75 80 88
304 528 134 86 94 104
304 528 135 88 95 106
304 529 134 84 91 100
304 529 135 86 93 103
305 529 135 91 97 106
304 530 134 81 87 96
304 530 135 85 91 100
304 531 134 82 89 98
304 531 135 85 91 101
305 530 135 91 97 106
305 531 135 87 94 103
304 532 134 89 96 106
304 532 135 90 96 106
304 533 134 99 106 116
304 533 135 96 103 112
305 532 135 88 94 104
305 533 135 91 98 107
304 534 134 104 111 121
304 535 134 104 111 121
305 534 135 95 101 110
305 535 135 98 105 115
305 528 136 89 96 106
305 528 137 90 97 106
305 529 136 93 99 109
305 529 137 92 98 108
305 530 136 95 101 110
305 531 136 88 95 104
306 528 137 88 95 104
306 529 137 92 99 108
306 528 138 84 90 100
306 529 138 86 93 102
307 528 138 84 90 100
307 528 139 81 88 97
307 529 138 86 92 101
307 529 139 82 89 98
306 530 136 93 99 108
306 530 137 95 101 110
306 531 136 91 97 107
306 531 137 93 99 108
306 530 138 93 98 108
307 530 138 89 95 105
307 530 139 86 93 102
307 531 138 90 96 106
307 531 139 87 93 103
307 528 140 80 86 95
307 529 140 82 88 97
305 532 136 89 96 105
305 533 136 90 96 106
305 534 136 89 95 104
305 535 136 91 97 106
306 532 136 92 98 107
306 532 137 95 101 110
306 533 136 92 98 107
306 533 137 94 99 108
307 532 138 93 99 108
307 533 138 92 98 107
306 534 136 88 94 103
306 534 137 88 94 103
306 535 136 86 92 101
306 535 137 84 90 99
307 535 137 85 91 100
307 534 138 88 95 104
307 535 138 87 93 102
308 530 139 87 93 103
308 531 139 88 94 103
308 528 140 80 86 94
308 528 141 79 85 94
308 529 140 83 90 99
308 529 141 82 89 98
309 529 141 86 93 102
308 528 142 80 85 94
309 528 142 80 86 94
309 528 143 82 88 96
309 529 142 83 90 99
309 529 143 84 90 98
308 530 140 88 94 103
308 530 141 86 92 102
308 531 140 88 94 103
309 530 141 86 93 103
309 531 141 88 94 103
309 530 142 84 91 101
309 530 143 86 92 100
309 531 142 82 89 99
310 530 143 84 90 99
310 531 142 82 88 98
310 531 143 80 86 95
308 532 139 89 95 104
308 533 139 89 95 105
308 534 139 89 96 105
308 535 139 91 96 105
308 532 140 87 93 103
308 533 140 87 93 103
309 532 140 88 95 104
309 532 141 89 95 104
309 533 140 87 93 102
309 533 141 87 93 103
308 534 140 88 95 104
308 535 140 91 97 106
309 534 140 87 94 103
309 534 141 86 93 102
309 535 140 89 95 104
309 535 141 88 95 105
310 532 141 89 95 104
310 533 141 88 94 103
310 532 142 84 91 100
310 532 143 79 86 95
310 533 142 87 92 101
310 533 143 81 88 97
311 532 143 77 84 94
311 533 143 80 87 96
310 534 141 86 92 102
310 535 141 87 94 104
310 534 142 85 91 100
310 535 142 86 93 102
311 534 143 82 88 97
311 535 143 83 90 99
304 536 133 98 105 115
304 537 133 89 96 106
304 536 134 93 101 111
304 537 134 84 91 100
304 537 135 83 89 98
305 536 135 90 97 106
305 537 135 83 89 99
304 538 134 83 89 98
304 538 135 83 89 98
304 539 134 83 88 97
304 539 135 83 89 97
305 538 135 82 88 97
305 539 135 82 88 97
304 540 133 83 89 99
304 541 133 84 91 100
304 540 134 82 88 98
304 541 134 83 89 99
305 540 135 82 88 97
305 541 135 82 88 98
304 542 133 87 94 103
304 543 133 89 96 106
304 542 134 86 92 101
304 543 134 88 94 104
305 542 135 84 90 100
305 543 135 87 93 103
305 536 136 87 94 104
305 537 136 82 88 98
305 538 136 82 89 98
305 539 136 82 88 97
306 536 136 85 91 101
306 536 137 86 92 101
306 537 136 84 90 99
306 537 137 86 92 102
307 536 137 87 93 102
307 537 137 87 93 102
307 536 138 88 94 103
307 537 138 88 94 103
306 538 136 85 91 100
306 538 137 92 97 107
306 539 136 84 90 99
306 539 137 90 96 105
307 538 137 94 100 109
307 539 137 93 99 108
307 538 138 94 100 109
307 539 138 93 99 108
305 540 136 81 88 97
305 541 136 81 87 96
305 542 136 85 91 100
305 543 136 89 94 103
306 540 136 81 88 97
306 540 137 83 90 99
306 541 136 81 88 97
306 541 137 82 89 98
307 540 137 85 92 101
307 541 137 83 90 100
307 540 138 86 92 102
307 541 138 84 91 101
306 542 136 85 92 101
306 542 137 85 92 102
306 543 136 90 96 106
307 542 137 87 94 104
307 543 137 95 101 111
307 542 138 89 96 106
307 543 138 103 109 119
308 536 139 91 97 106
308 537 139 88 95 104
308 538 139 89 95 104
308 539 139 89 96 105
309 539 139 89 95 104
308 536 140 92 98 107
308 537 140 90 97 106
309 536 140 89 96 105
309 537 140 90 96 106
309 538 140 90 97 106
309 539 140 90 96 105
310 536 141 93 99 108
310 537 141 94 100 110
310 536 142 95 100 110
310 537 142 99 104 114
311 536 142 94 100 109
311 536 143 88 94 103
311 537 142 98 104 113
311 537 143 93 99 108
310 538 141 91 98 108
310 539 141 91 97 106
310 538 142 93 99 109
310 539 142 93 99 108
311 538 142 92 98 108
311 538 143 90 96 105
311 539 142 92 97 107
311 539 143 91 96 105
308 540 139 86 93 102
308 541 138 85 91 101
308 541 139 85 91 101
308 542 138 89 96 106
308 542 139 88 95 105
308 543 138 104 110 119
308 543 139 100 106 115
309 540 140 88 94 103
309 541 140 85 91 100
309 542 140 86 92 102
309 543 140 94 100 109
310 540 141 89 94 103
310 541 141 85 91 100
311 540 142 91 96 105
311 540 143 90 95 104
311 541 142 89 94 102
310 542 141 85 91 99
310 543 141 87 93 102
311 542 142 85 91 99
311 543 142 84 90 99
311 543 143 85 90 99
312 538 143 89 95 104
312 539 143 87 93 101
312 540 143 86 91 100
312 541 143 87 92 100
312 542 143 86 91 99
312 543 143 85 91 99
309 528 144 83 89 98
309 529 144 83 89 98
310 528 144 82 88 98
310 528 145 79 85 94
310 529 144 82 89 98
310 529 145 81 87 97
311 529 145 80 87 95
311 528 146 74 81 90
311 529 146 77 83 92
310 530 144 83 90 99
310 531 144 80 87 96
311 530 144 84 91 100
311 530 145 83 89 98
311 531 144 82 89 97
311 531 145 84 90 98
311 530 146 78 84 93
311 531 146 81 87 95
311 532 144 76 83 91
311 532 145 78 84 92
311 533 144 74 81 90
311 534 144 77 84 93
311 535 144 81 88 97
311 536 144 84 90 99
312 528 147 75 81 90
312 529 147 75 81 89
312 530 146 78 84 93
312 530 147 75 81 89
312 531 146 79 85 93
312 531 147 75 80 89
312 528 148 77 83 92
312 529 148 75 81 90
313 528 148 79 85 94
313 528 149 83 89 97
313 529 148 79 84 92
313 529 149 82 88 96
312 530 148 75 81 89
313 530 148 78 83 91
313 530 149 83 88 96
313 531 148 77 82 90
313 531 149 83 88 96
314 528 149 87 93 101
314 529 149 86 92 101
314 528 150 93 98 107
314 529 150 93 99 108
315 528 151 88 94 103
315 529 151 96 102 111
314 530 149 88 94 103
314 531 149 87 93 101
314 530 150 97 103 112
314 531 150 96 101 111
315 530 151 96 103 113
315 531 151 97 103 113
312 532 145 76 82 90
312 533 145 73 79 88
312 532 146 77 82 90
312 532 147 74 79 87
312 533 146 73 78 86
312 533 147 74 79 87
313 532 147 74 79 86
313 533 147 72 78 85
312 534 144 76 82 91
312 534 145 74 81 89
312 535 144 79 85 94
312 535 145 76 82 91
312 534 146 73 79 87
312 535 146 76 82 90
313 534 146 73 79 87
313 534 147 72 78 86
313 535 146 75 81 89
313 535 147 75 81 89
313 532 148 75 80 88
313 533 148 72 77 85
313 534 148 73 78 86
313 535 148 73 78 86
314 532 149 77 82 90
314 533 148 73 78 85
314 533 149 72 78 86
314 532 150 85 91 100
314 533 150 72 78 87
315 532 151 91 98 107
315 533 150 74 81 89
315 533 151 77 84 92
314 534 148 73 78 85
314 534 149 71 77 84
314 535 148 74 80 87
314 535 149 72 78 85
315 535 149 71 77 84
315 534 150 70 75 83
315 534 151 69 75 83
315 535 150 69 75 83
315 535 151 69 74 82
316 534 151 70 76 83
316 535 151 69 74 82
315 528 152 83 89 98
315 529 152 92 98 108
315 530 152 95 102 113
315 531 152 96 103 113
315 532 152 88 95 105
316 528 152 83 89 98
316 528 153 79 85 94
316 529 152 84 91 101
316 529 153 77 85 94
317 528 153 78 84 93
317 529 153 75 83 92
317 528 154 77 82 90
317 529 154 71 79 87
316 530 152 89 96 107
316 530 153 78 86 96
316 531 152 95 102 112
316 531 153 87 94 103
317 530 153 75 83 93
317 531 153 80 87 96
317 530 154 77 84 92
317 531 154 78 84 93
318 528 155 78 83 90
318 529 155 72 78 86
318 530 155 83 87 95
318 531 154 79 85 93
318 531 155 80 84 92
319 531 155 76 80 87
318 528 156 79 84 91
319 528 156 80 84 92
319 528 157 76 81 88
319 529 156 79 83 91
319 529 157 79 83 91
319 528 158 76 80 88
319 529 158 76 81 88
319 530 156 80 84 92
319 530 157 76 81 89
319 531 156 76 80 88
319 531 157 73 78 86
319 530 158 72 77 84
319 531 158 69 75 82
316 532 152 87 94 103
316 533 152 78 84 93
317 532 153 81 88 97
317 533 153 75 81 90
317 532 154 74 81 90
317 533 154 73 79 87
316 534 152 73 78 85
316 535 152 71 76 84
317 534 152 75 80 88
317 534 153 76 81 89
317 535 152 73 78 85
317 535 153 76 81 89
318 532 154 73 79 87
318 532 155 73 77 85
318 533 154 75 80 88
318 533 155 77 82 89
319 532 155 75 79 86
319 533 155 78 82 89
318 535 153 78 83 91
318 534 154 90 94 101
318 534 155 98 101 108
318 535 154 89 93 101
318 535 155 100 103 111
319 534 155 98 102 109
319 535 155 91 95 104
319 532 156 75 80 87
319 532 157 71 77 85
319 533 156 80 85 93
319 533 157 76 82 90
319 534 156 87 92 100
319 534 157 80 86 94
319 535 156 82 88 97
312 536 144 82 88 97
312 536 145 79 85 94
312 537 144 84 90 99
312 537 145 81 87 96
313 536 145 79 85 93
313 537 145 80 86 95
313 536 146 77 83 91
313 536 147 78 84 92
313 537 146 79 85 93
312 538 144 84 91 100
312 539 144 85 91 100
313 538 145 80 86 95
313 539 144 83 89 98
313 539 145 81 87 96
313 538 146 79 85 94
314 536 147 81 87 95
314 537 146 81 86 95
314 537 147 83 89 97
314 538 146 80 86 94
314 538 147 80 86 94
314 539 146 80 86 94
314 539 147 79 85 93
315 538 147 84 89 97
315 539 147 79 85 93
314 536 148 79 85 93
314 537 148 83 89 97
315 536 149 75 81 89
315 537 148 84 89 97
315 537 149 79 84 92
315 536 150 71 77 84
315 538 148 84 89 97
315 538 149 81 87 95
315 539 148 81 86 95
312 540 144 83 89 97
313 540 144 83 88 97
313 540 145 82 87 95
313 541 144 84 89 97
313 541 145 83 88 96
312 542 144 85 90 99
312 543 144 84 90 99
313 542 144 85 90 98
313 542 145 84 89 98
313 543 144 83 89 97
313 543 145 84 90 98
314 541 145 83 88 96
314 540 146 80 86 94
314 540 147 79 84 92
314 541 146 81 86 94
315 540 147 79 84 92
315 541 147 79 84 92
314 542 145 84 89 98
314 543 145 86 92 101
314 542 146 81 87 95
314 543 146 87 93 102
315 542 147 79 85 93
315 543 147 82 88 97
315 540 148 81 86 94
316 537 149 80 85 94
316 536 150 70 76 84
316 536 151 69 75 82
316 537 150 74 80 88
316 537 151 70 76 83
317 537 151 69 75 82
316 538 149 79 85 94
316 539 148 82 87 95
316 539 149 79 85 93
316 538 150 77 83 91
316 539 150 79 85 94
317 538 151 73 78 86
317 539 150 81 86 95
317 539 151 78 84 91
318 539 151 77 83 90
316 540 148 82 88 96
316 540 149 85 90 99
316 541 148 80 85 93
316 541 149 84 89 97
317 541 149 85 90 98
317 540 150 87 92 101
317 540 151 86 91 99
317 541 150 87 93 101
317 541 151 87 93 101
316 542 148 77 83 91
316 542 149 79 85 93
316 543 148 77 83 92
316 543 149 77 82 90
317 542 149 80 86 94
317 543 149 75 81 89
317 542 150 79 85 93
317 543 150 74 81 89
318 540 151 82 87 95
318 541 151 82 88 96
318 542 151 74 80 88
318 543 151 72 78 86
316 536 152 69 74 81
317 536 152 70 76 83
317 536 153 74 79 87
317 537 152 69 75 82
317 538 152 69 75 82
318 536 153 76 81 89
318 537 152 70 76 83
318 537 153 72 78 86
318 536 154 78 83 91
318 537 154 75 81 89
319 536 155 77 83 91
319 537 154 77 83 91
319 537 155 79 84 92
318 538 152 70 76 83
318 538 153 73 78 86
318 539 152 72 77 85
318 539 153 72 78 85
319 539 153 75 80 88
319 538 154 77 82 90
319 538 155 78 83 91
319 539 154 76 82 90
319 539 155 78 84 92
319 536 156 75 82 91
319 537 156 79 85 94
318 540 152 75 80 87
318 540 153 73 78 85
318 541 152 76 81 88
319 540 153 75 80 87
319 541 152 74 79 86
319 541 153 77 81 88
319 540 154 81 86 94
319 540 155 82 88 96
319 541 154 83 88 95
318 542 152 71 76 84
318 543 152 73 78 85
319 542 152 72 77 84
319 542 153 75 80 86
319 543 152 75 80 87
319 543 153 77 81 88
319 542 154 74 79 86
318 512 160 34 41 49
319 512 160 35 43 51
319 512 161 35 44 52
319 513 160 55 62 70
319 513 161 64 70 78
319 512 162 34 42 50
319 514 160 85 90 98
319 514 161 89 94 103
319 515 160 96 101 110
319 516 160 103 108 117
319 530 170 95 101 112
319 530 171 97 103 113
319 531 170 97 104 115
319 531 171 95 102 113
319 530 172 95 102 112
319 531 172 95 102 112
319 531 173 97 102 110
319 532 170 102 110 122
319 532 171 97 106 117
319 533 170 117 125 137
319 533 171 107 116 128
319 534 169 108 115 127
319 535 169 98 105 116
319 534 170 108 115 127
319 534 171 101 109 121
319 535 170 97 105 116
319 535 171 98 106 117
319 532 172 94 100 111
319 532 173 99 103 112
319 533 172 95 102 113
319 533 173 97 101 110
319 532 174 105 108 115
319 533 174 106 109 116
319 534 172 96 102 113
319 534 173 98 102 111
319 535 172 97 102 113
319 535 173 97 102 111
319 534 174 117 120 128
319 534 175 126 130 140
319 535 174 111 116 125
319 535 175 121 126 137
319 543 167 94 98 108
319 536 169 100 105 115
319 537 169 101 106 115
319 536 170 98 104 115
319 536 171 98 104 115
319 537 170 101 106 115
319 537 171 99 104 114
319 538 169 99 103 112
319 539 169 99 103 111
318 539 171 103 107 116
319 538 170 100 105 114
319 538 171 99 104 113
319 539 170 100 105 114
319 539 171 99 104 113
319 536 172 99 104 114
319 536 173 97 102 111
319 537 172 98 103 113
319 537 173 98 103 112
319 536 174 100 104 114
319 536 175 107 112 123
319 537 174 98 103 113
319 537 175 102 108 119
318 538 173 97 102 111
318 539 172 100 104 113
318 539 173 97 101 110
319 538 172 99 104 113
319 538 173 98 102 111
318 539 174 97 102 111
318 539 175 106 111 121
319 538 174 97 103 112
319 538 175 106 112 123
319 539 174 98 103 112
319 539 175 108 114 124
317 543 171 116 126 140
319 540 169 98 102 110
319 541 168 95 98 106
319 541 169 99 103 111
318 540 170 98 102 111
318 540 171 100 105 114
318 541 170 105 109 118
318 541 171 116 120 130
319 540 170 100 104 112
319 541 170 103 107 115
318 542 169 99 104 112
318 543 169 108 114 127
319 542 168 94 99 108
319 542 169 97 101 109
319 543 168 108 112 125
318 542 170 113 118 128
318 542 171 133 138 150
318 543 170 117 124 136
318 543 171 120 128 141
317 543 172 115 124 139
317 543 173 104 111 123
317 543 174 103 108 118
317 543 175 102 106 115
318 540 172 101 105 114
318 540 173 97 101 109
318 541 172 112 117 128
318 541 173 99 104 114
318 540 174 100 105 114
318 540 175 115 120 129
318 541 174 102 107 116
318 541 175 108 113 123
318 542 172 127 133 146
318 542 173 102 109 120
318 543 172 121 129 143
318 542 174 99 104 114
318 542 175 99 105 114
318 543 175 98 103 112
319 535 188 101 106 117
319 535 189 99 105 115
319 534 190 114 120 132
319 534 191 121 127 139
319 535 190 101 107 116
319 535 191 104 109 120
319 536 176 105 111 121
319 537 176 103 110 121
319 537 177 105 112 123
319 537 178 105 112 123
319 538 176 118 123 134
319 538 177 120 127 139
319 539 176 124 129 140
319 539 177 126 133 146
319 538 178 108 116 129
319 538 179 103 110 122
319 539 178 108 117 130
319 539 179 102 109 122
319 537 180 100 105 115
319 537 181 100 106 117
319 537 182 101 108 119
319 537 183 101 108 119
319 538 180 102 107 118
319 538 181 103 111 123
319 539 180 101 108 120
319 539 181 116 125 138
319 538 182 108 117 131
319 538 183 118 128 142
319 539 182 127 138 154
319 539 183 140 151 168
317 543 176 101 106 116
318 540 176 121 126 136
318 540 177 114 120 131
318 541 176 113 118 128
318 541 177 109 113 123
319 540 176 123 129 140
319 540 177 113 120 132
318 541 178 104 109 119
318 541 179 105 109 119
319 540 178 103 111 123
319 540 179 100 107 118
319 541 178 102 108 118
319 541 179 102 108 118
318 542 176 100 105 115
318 542 177 100 106 116
318 543 176 97 103 114
318 543 177 96 103 114
318 542 178 101 107 116
318 542 179 101 106 115
318 543 178 99 105 115
318 543 179 101 106 115
318 541 180 100 106 116
318 541 181 104 111 123
319 540 180 100 107 118
319 540 181 119 127 141
318 540 183 144 154 170
318 541 182 116 125 139
318 541 183 124 133 148
319 540 182 137 147 163
319 540 183 142 153 170
318 542 180 100 105 115
318 542 181 98 104 115
318 543 180 100 105 114
318 543 181 100 106 116
318 542 182 96 103 115
318 542 183 94 102 115
318 543 182 96 103 115
318 543 183 94 101 113
319 537 184 98 104 115
319 537 185 99 105 115
319 536 186 99 105 115
319 536 187 95 101 111
319 537 186 100 106 116
319 537 187 96 102 112
319 538 184 108 117 131
319 538 185 102 109 121
319 539 184 131 141 156
319 539 185 114 122 134
318 538 187 97 103 114
318 539 186 113 120 132
318 539 187 99 104 114
319 538 186 102 108 119
319 538 187 98 104 115
319 539 186 109 114 125
319 536 188 97 102 112
319 536 189 99 104 113
319 537 188 97 103 113
319 537 189 99 104 114
318 537 190 99 105 116
318 537 191 100 105 115
319 536 190 101 105 115
319 536 191 99 104 113
319 537 190 99 104 114
319 537 191 99 104 113
318 538 188 100 105 114
318 538 189 99 105 115
318 539 188 103 107 117
318 539 189 105 110 120
319 538 188 97 103 114
318 538 190 100 107 119
318 538 191 102 107 118
318 539 190 103 109 120
318 539 191 102 107 117
317 541 187 97 105 118
