ply
format ascii 1.0
comment PCL generated
element vertex 2253
property float x
property float y
property float z
property uchar red
property uchar green
property uchar blue
element camera 0
property float view_px
property float view_py
property float view_pz
property float x_axisx
property float x_axisy
property float x_axisz
property float y_axisx
property float y_axisy
property float y_axisz
property float z_axisx
property float z_axisy
property float z_axisz
property float focal
property float scalex
property float scaley
property float centerx
property float centery
property int viewportx
property int viewporty
property float k1
property float k2
end_header
167 346 180 38 43 49
164 348 176 35 43 51
164 349 176 37 43 50
165 348 176 36 42 50
165 349 176 38 44 50
166 348 176 37 43 49
166 348 177 38 43 50
166 349 176 39 44 50
167 348 177 37 43 50
167 349 177 38 44 51
167 348 178 37 43 50
166 350 176 38 44 50
166 351 176 38 44 50
167 350 176 38 44 50
167 350 177 38 44 51
167 351 176 37 43 50
167 351 177 37 44 51
168 339 183 41 46 53
168 340 183 41 47 53
168 341 182 41 46 52
168 341 183 43 48 54
169 341 183 44 49 55
168 343 181 39 45 52
168 342 182 41 47 53
168 342 183 44 49 55
168 343 182 41 46 53
169 342 183 44 49 55
169 343 182 43 47 53
169 343 183 44 48 54
170 343 183 43 47 53
168 336 184 49 55 62
168 336 185 50 56 64
168 337 184 47 53 60
168 337 185 49 56 63
168 336 186 48 55 64
168 336 187 44 52 61
168 337 186 49 56 64
168 337 187 45 53 62
168 338 184 46 52 59
168 338 185 49 55 62
168 339 184 45 51 57
169 338 185 48 55 63
169 339 184 47 53 61
169 339 185 47 54 61
168 338 186 48 55 63
168 338 187 45 53 61
168 339 187 43 51 60
169 338 186 48 54 62
169 338 187 45 53 61
169 339 186 46 53 61
169 339 187 43 51 60
168 336 188 39 48 56
168 336 189 39 47 56
168 337 188 41 49 58
168 337 189 40 48 56
168 336 190 39 47 55
168 336 191 39 46 54
168 337 190 39 47 55
168 337 191 40 47 55
168 338 188 44 52 61
168 338 189 43 50 58
168 339 188 40 48 56
168 339 189 43 50 59
168 338 190 40 48 56
168 338 191 41 47 55
168 339 190 41 48 56
168 339 191 40 48 56
168 340 184 43 48 55
169 340 184 45 51 58
169 340 185 45 52 60
169 341 184 44 50 56
169 341 185 45 52 60
168 340 187 42 50 59
169 340 186 44 52 60
169 340 187 43 51 60
169 341 186 45 52 60
169 341 187 42 50 59
169 342 184 44 49 56
169 342 185 45 52 60
169 342 186 44 51 59
169 342 187 42 51 59
169 343 187 39 48 57
170 342 184 45 51 58
170 342 185 44 51 59
170 343 184 43 49 56
170 343 185 41 48 56
170 342 186 43 50 59
170 343 186 39 47 55
170 343 187 40 48 57
168 340 188 40 48 56
168 340 189 40 48 56
168 341 188 42 50 58
168 341 189 39 47 55
169 341 188 42 50 58
169 341 189 40 48 56
168 340 190 40 47 56
168 340 191 41 49 57
168 341 190 39 47 55
168 341 191 40 48 56
169 342 188 41 49 58
169 342 189 39 47 56
169 343 188 40 48 56
169 343 189 40 48 56
169 342 190 39 47 56
169 342 191 39 48 56
169 343 190 41 49 58
169 343 191 39 48 56
168 346 179 39 44 50
168 347 179 38 44 51
168 344 181 39 45 52
168 345 180 38 43 49
168 345 181 38 44 51
169 345 181 41 46 52
168 344 182 42 48 54
169 344 182 42 46 52
169 344 183 42 47 52
169 345 182 42 46 52
168 346 180 39 44 51
168 347 180 40 45 52
169 346 180 39 45 51
169 346 181 39 45 51
169 347 180 40 45 51
169 347 181 39 44 50
170 344 182 42 46 52
170 344 183 42 46 52
170 345 182 41 45 51
170 345 183 40 46 52
170 346 181 39 44 49
170 347 181 40 45 50
170 346 182 39 44 50
170 346 183 40 45 51
170 347 182 40 45 50
171 346 183 39 45 52
171 347 182 40 45 51
171 347 183 39 45 51
168 348 178 37 43 50
168 348 179 39 45 51
168 349 178 37 44 51
169 348 179 38 44 51
169 349 179 39 45 51
168 350 177 37 44 51
168 351 177 38 44 51
168 350 178 37 44 51
168 351 178 37 44 51
169 350 178 37 44 51
169 350 179 38 45 51
169 351 178 38 45 52
169 351 179 38 45 52
170 349 179 38 44 50
170 350 179 38 45 51
170 351 179 39 45 51
169 348 180 39 44 51
170 348 180 39 44 50
170 348 181 40 45 50
170 349 180 40 45 50
171 348 181 41 45 50
171 349 180 39 43 49
171 349 181 40 44 50
171 348 182 40 45 51
171 348 183 39 45 51
170 350 180 39 44 51
171 350 180 39 44 50
171 350 181 39 44 49
171 351 180 40 45 51
171 351 181 40 45 50
172 349 181 39 44 50
172 348 183 39 45 51
172 349 182 39 45 51
172 349 183 40 46 53
172 350 181 39 44 50
172 351 181 38 44 50
172 350 182 40 45 52
172 350 183 41 47 54
172 351 182 39 45 51
173 350 183 41 47 54
173 351 182 41 47 53
173 351 183 41 47 54
170 344 184 42 47 54
170 344 185 40 47 55
170 345 184 40 46 53
170 345 185 40 47 54
170 344 186 39 47 55
170 344 187 39 47 56
170 345 186 39 47 55
170 345 187 39 47 55
170 346 185 40 46 54
171 346 184 40 46 53
171 346 185 39 46 53
171 347 184 39 45 52
171 347 185 39 47 54
170 346 186 40 48 56
170 346 187 39 47 55
170 347 187 39 47 56
171 347 186 39 47 56
171 347 187 38 47 56
169 344 188 40 48 56
169 344 189 41 49 57
169 345 189 38 46 55
169 344 190 39 48 56
169 344 191 40 48 57
169 345 190 39 47 56
169 345 191 38 47 55
169 346 189 38 46 55
169 347 189 39 47 56
169 346 190 38 46 55
169 346 191 38 47 55
169 347 190 37 46 54
169 347 191 38 46 55
170 344 188 40 48 56
170 345 188 38 47 56
170 344 191 38 47 56
170 345 191 38 47 55
170 346 188 38 46 55
170 346 189 38 46 55
170 347 188 39 47 55
170 347 189 39 47 56
171 348 184 39 45 53
171 348 185 39 46 55
170 348 187 43 50 58
171 348 186 39 48 57
171 348 187 39 48 56
171 349 186 39 47 55
171 349 187 38 47 55
169 348 190 38 47 55
169 348 191 38 46 54
170 348 188 40 48 56
170 348 189 39 47 55
170 349 189 40 48 56
171 348 188 39 47 55
171 349 188 39 47 55
171 349 189 38 46 54
170 348 190 39 47 56
170 348 191 38 46 54
170 349 190 38 46 54
170 349 191 38 46 55
171 350 188 38 46 55
171 350 189 38 46 54
171 351 189 40 47 56
170 350 191 38 46 54
171 350 190 38 46 55
171 350 191 39 47 55
171 351 190 39 47 55
171 351 191 39 47 56
172 348 184 39 45 53
172 348 185 39 46 54
172 349 184 39 46 54
172 349 185 39 46 54
172 349 186 38 46 54
172 349 187 38 46 55
172 350 184 39 46 54
172 350 185 39 47 54
173 350 184 40 47 54
173 351 184 40 47 55
173 351 185 41 49 57
172 350 186 39 47 55
172 350 187 39 47 56
172 351 186 42 50 59
172 351 187 38 46 55
173 351 186 39 47 55
173 351 187 38 46 55
172 350 188 39 47 55
172 351 188 38 47 55
172 351 189 40 47 55
172 351 190 39 47 55
172 351 191 41 49 57
160 352 175 39 44 51
160 353 175 38 44 51
161 352 175 37 43 50
161 353 175 38 44 51
160 354 175 38 44 51
160 355 174 39 44 51
160 355 175 38 44 51
162 352 175 37 44 51
162 353 175 38 44 51
163 352 175 37 44 50
163 353 175 38 44 51
160 359 169 38 44 51
160 358 171 37 43 50
160 359 170 38 44 51
160 359 171 37 44 51
161 358 171 36 44 52
161 359 170 37 44 51
161 359 171 37 44 51
162 359 171 37 44 51
163 359 171 38 45 51
160 356 173 39 44 51
160 357 172 38 44 50
160 357 173 38 44 51
161 357 173 37 44 51
160 356 174 38 44 51
160 356 175 37 44 50
160 357 174 38 45 52
161 356 174 38 44 50
161 356 175 38 44 50
161 357 174 38 45 52
161 357 175 39 44 51
160 358 172 37 43 50
161 358 172 36 43 51
161 358 173 37 43 50
162 357 173 38 45 52
162 356 175 39 45 51
162 357 174 39 45 52
162 357 175 38 44 51
163 357 174 37 44 51
163 357 175 38 44 50
162 358 172 36 43 50
162 358 173 37 44 51
162 359 172 37 43 50
163 358 173 36 42 50
163 359 172 37 43 50
163 358 174 36 42 49
164 352 175 38 44 50
164 353 175 38 44 51
165 352 175 38 44 51
164 357 174 37 43 50
164 357 175 38 44 51
164 358 173 37 44 51
164 359 172 38 44 51
164 359 173 37 44 51
165 359 173 38 44 51
164 358 174 38 44 51
164 358 175 38 44 51
165 358 174 37 44 51
165 358 175 38 44 51
166 359 173 38 45 52
166 358 175 38 44 51
166 359 174 38 45 52
166 359 175 37 44 51
167 359 175 37 44 51
160 361 167 38 45 52
160 363 165 39 46 53
160 362 167 39 46 52
160 363 166 38 45 52
161 362 167 39 45 52
161 363 166 39 45 52
161 363 167 40 46 52
162 363 167 41 46 52
160 366 163 39 46 52
160 367 162 41 47 54
160 367 163 40 46 53
161 366 163 39 45 52
161 367 163 39 45 52
160 364 164 39 45 52
160 364 165 38 45 51
160 365 164 40 46 53
161 364 165 38 45 52
161 365 164 40 46 52
161 365 165 39 45 52
161 364 166 39 46 52
161 365 166 40 46 52
160 366 164 39 45 52
161 366 164 40 46 52
161 366 165 41 47 53
161 367 164 39 45 52
162 364 166 41 46 53
162 364 167 41 46 53
162 365 166 40 46 52
163 364 167 40 45 51
163 365 166 40 46 52
163 365 167 40 46 52
162 366 165 40 46 52
162 367 164 40 46 52
162 367 165 39 46 52
163 367 165 39 45 52
162 366 166 40 46 52
163 366 166 40 46 52
163 366 167 41 46 52
163 367 166 39 46 52
164 366 167 40 45 52
164 367 166 40 46 52
164 367 167 40 46 52
160 360 168 39 45 51
160 360 169 38 44 50
160 361 168 38 44 51
161 360 169 38 45 52
161 361 168 38 44 51
161 361 169 39 45 52
161 360 170 38 45 52
161 362 168 39 45 51
161 362 169 39 45 51
161 363 168 40 46 52
162 361 169 39 45 52
162 360 170 39 45 52
162 360 171 39 45 52
162 361 170 38 45 52
163 360 170 38 44 51
163 360 171 38 45 52
163 361 170 38 45 52
162 362 168 40 46 52
162 362 169 40 46 52
162 363 168 40 46 52
163 362 169 40 46 52
163 363 168 39 45 51
163 363 169 40 45 52
163 362 170 40 46 52
163 364 168 40 45 51
163 364 169 40 46 52
163 365 168 40 45 51
164 360 171 39 45 52
164 361 171 38 44 51
164 363 169 40 46 52
164 362 170 39 45 51
164 362 171 38 44 51
164 363 170 39 45 51
165 362 171 38 44 51
165 363 170 39 45 51
165 363 171 39 45 51
164 360 172 38 44 51
165 360 172 38 44 51
165 360 173 39 45 51
165 361 172 37 44 51
165 361 173 39 45 52
165 362 172 38 44 51
165 363 172 39 45 51
166 360 173 39 46 52
166 361 173 39 45 52
166 360 174 38 45 52
167 360 174 38 44 51
167 360 175 38 44 52
167 361 174 38 45 52
166 362 172 39 45 51
166 362 173 39 45 52
166 363 172 39 44 51
166 363 173 38 45 52
167 362 173 39 45 52
167 363 173 39 45 52
167 362 174 38 45 52
167 363 174 38 45 52
164 364 169 40 46 52
164 365 168 40 45 51
164 365 169 40 45 52
165 365 169 39 45 51
164 364 170 39 45 51
165 364 170 39 45 51
165 364 171 39 45 51
165 365 170 39 45 51
165 365 171 39 45 51
164 366 168 39 45 52
164 366 169 38 44 51
164 367 168 39 45 52
165 366 168 39 45 52
165 366 169 39 45 52
165 367 168 39 46 52
165 367 169 40 46 53
165 366 170 40 46 52
166 365 171 40 45 52
166 367 169 40 46 53
166 366 170 41 47 53
166 366 171 40 46 52
166 367 170 39 46 53
166 367 171 39 45 52
167 367 171 39 45 52
166 364 172 38 44 51
166 364 173 39 45 51
166 365 172 40 45 52
166 365 173 39 46 52
167 364 173 38 45 52
167 365 173 38 45 52
167 364 174 37 44 52
167 365 174 37 44 52
166 366 172 40 45 52
167 366 172 39 45 52
167 366 173 38 45 51
167 367 172 39 46 53
167 367 173 39 45 52
167 366 174 37 44 51
168 359 175 37 44 51
168 360 175 38 44 52
168 361 175 38 44 51
168 362 175 37 44 51
168 363 175 37 44 52
168 364 175 37 44 51
168 365 174 37 45 52
168 365 175 37 44 51
168 366 173 37 44 52
168 367 173 38 45 52
168 366 174 37 44 51
168 366 175 37 44 51
168 367 174 37 44 51
169 366 175 37 44 51
169 367 174 37 44 51
169 367 175 38 44 51
161 353 176 38 44 50
160 355 176 38 44 51
161 354 176 38 44 50
161 355 176 37 43 50
161 355 177 37 43 50
162 353 176 38 44 50
163 353 176 38 44 50
162 354 176 38 44 51
162 355 176 38 44 50
162 355 177 37 43 50
163 354 176 38 44 50
163 355 176 37 44 50
161 356 176 37 44 51
162 356 176 39 45 52
163 356 176 37 44 51
164 353 176 38 44 51
165 353 176 38 44 51
164 354 176 38 44 51
164 355 176 38 44 51
164 355 177 39 45 51
165 354 176 38 44 51
165 354 177 38 44 51
165 355 177 38 45 51
166 352 176 37 43 50
166 353 176 37 44 51
166 353 177 37 44 51
167 352 177 37 43 50
167 353 177 37 44 51
166 354 177 37 44 51
166 355 177 38 44 51
167 354 177 38 44 51
167 355 177 37 44 51
167 354 178 38 45 52
167 355 178 38 44 51
164 356 176 38 44 51
164 356 177 38 44 51
164 357 176 38 44 51
165 356 176 38 44 51
165 356 177 38 45 51
165 357 176 38 44 50
166 356 177 38 45 51
166 357 176 39 45 51
166 357 177 39 45 52
167 356 177 37 44 51
167 357 177 38 45 51
166 358 176 38 44 51
167 358 176 38 44 51
167 358 177 38 44 52
167 359 176 36 43 51
168 352 177 37 44 51
168 352 178 36 44 51
168 353 178 37 44 51
169 352 178 37 44 51
169 352 179 38 44 51
169 353 178 38 44 51
169 353 179 38 44 51
168 354 178 37 44 51
168 355 178 37 44 51
169 354 178 38 44 51
169 355 178 39 45 52
170 352 179 37 43 49
170 353 179 37 43 49
171 352 179 37 43 49
171 353 179 38 43 50
170 354 179 39 44 50
170 355 178 40 45 51
170 355 179 39 45 51
171 354 179 39 44 51
171 355 179 40 46 52
171 352 180 38 44 50
171 353 180 37 43 49
171 354 180 38 44 50
171 355 180 39 45 52
168 356 177 38 44 51
168 357 177 38 44 51
168 356 178 38 44 51
168 357 178 38 44 51
169 356 178 39 45 52
169 357 178 40 45 52
168 358 176 37 44 51
168 358 177 38 44 51
168 359 176 37 44 51
168 359 177 38 44 52
169 358 177 38 44 52
169 359 177 38 44 51
169 358 178 38 45 51
170 356 178 40 46 52
170 356 179 40 46 52
170 357 178 40 45 52
170 357 179 39 46 52
171 356 179 40 46 52
171 357 179 39 45 52
170 359 177 37 44 51
170 358 178 39 46 52
170 359 178 39 45 52
171 358 179 39 46 53
171 359 178 39 45 52
171 359 179 39 46 52
171 356 180 39 46 52
171 358 180 38 45 52
172 352 180 38 44 50
172 352 181 37 44 50
172 353 180 37 44 50
172 353 181 38 44 51
172 352 182 39 45 52
172 353 182 39 45 52
173 352 182 41 47 54
173 352 183 40 47 54
173 353 182 39 46 53
173 353 183 39 46 53
172 354 180 38 44 51
172 354 181 39 45 52
172 355 180 39 46 53
172 355 181 39 45 52
173 355 181 39 45 51
173 354 182 40 47 54
173 354 183 37 45 52
173 355 182 39 45 52
173 355 183 39 46 53
172 356 180 39 46 53
172 356 181 39 45 51
172 357 180 37 45 52
172 357 181 37 43 50
173 356 181 39 45 52
173 357 181 37 44 51
173 356 182 39 45 52
173 356 183 40 46 53
173 357 182 38 45 52
172 358 180 37 44 52
172 359 180 39 46 53
173 358 181 39 45 52
173 359 180 40 46 53
173 359 181 40 46 53
173 358 182 39 45 52
174 356 183 39 45 53
174 357 183 38 45 52
174 358 182 39 46 53
174 358 183 39 46 53
174 359 182 40 46 53
174 359 183 40 47 54
175 359 183 40 47 55
173 352 184 41 48 56
173 352 185 39 47 55
173 353 184 39 47 54
173 353 185 40 48 56
172 352 187 38 47 55
173 352 186 38 47 55
173 352 187 38 46 55
173 353 186 40 48 57
173 353 187 39 47 55
173 354 184 38 45 53
173 354 185 40 47 55
173 355 184 39 46 54
173 355 185 39 46 53
173 354 186 40 47 55
173 354 187 39 47 55
173 355 186 39 46 54
173 355 187 40 47 55
174 355 184 39 46 53
174 355 185 39 45 53
172 352 188 37 46 55
172 352 189 37 46 54
172 353 189 38 46 55
173 353 188 38 46 55
173 353 189 39 47 55
172 352 190 38 46 54
172 352 191 39 47 55
172 353 190 38 46 55
172 353 191 39 47 55
173 353 190 39 47 55
173 353 191 39 47 55
173 354 188 39 47 56
173 354 189 39 47 55
173 355 188 41 49 57
173 355 189 39 48 56
173 354 190 38 46 55
173 354 191 39 47 55
173 355 190 40 48 56
173 355 191 39 47 55
174 355 191 39 47 56
173 356 187 41 48 56
174 356 184 38 45 53
174 356 185 39 46 54
174 357 184 39 46 54
174 357 185 40 47 54
174 356 186 39 47 54
174 356 187 43 50 58
174 357 186 41 48 56
174 357 187 44 51 59
174 358 184 40 47 54
174 358 185 40 47 55
174 359 184 40 47 55
175 359 184 40 47 55
175 359 185 43 50 58
174 358 186 43 50 58
174 358 187 45 51 59
175 359 186 45 52 59
175 359 187 43 50 57
173 356 188 43 50 58
173 356 189 40 47 56
174 356 188 44 51 59
174 356 189 40 47 55
174 357 188 44 51 59
174 357 189 42 50 58
174 356 190 39 47 55
174 356 191 39 47 55
174 357 190 39 47 55
174 357 191 38 46 55
174 358 188 42 49 57
174 358 189 41 49 57
175 359 188 42 49 57
175 359 189 40 48 56
174 358 190 40 48 56
174 358 191 38 47 55
175 358 190 39 47 55
175 358 191 39 47 56
175 359 190 39 47 55
175 359 191 39 47 55
168 360 176 38 44 51
168 361 176 37 43 50
169 360 176 37 44 51
169 360 177 37 44 51
169 361 176 37 43 50
169 361 177 37 43 50
169 362 176 37 43 50
169 363 176 37 43 50
169 363 177 37 43 50
170 360 177 37 44 51
170 361 177 38 44 50
170 360 178 38 44 51
170 361 178 39 45 51
171 360 178 39 45 52
171 360 179 39 46 53
171 361 178 39 45 52
171 361 179 39 45 52
170 362 177 38 43 50
170 363 177 37 43 50
170 362 178 38 44 51
170 363 178 38 44 51
171 362 178 39 44 51
171 362 179 38 45 52
171 363 179 38 45 52
171 363 180 37 44 52
169 364 176 36 43 50
169 364 177 38 43 50
169 365 176 38 44 51
169 365 177 38 44 50
169 366 176 38 44 51
169 366 177 38 44 51
169 367 176 38 44 51
170 364 177 38 44 50
170 364 178 38 45 52
170 364 179 38 45 53
170 365 178 38 45 52
171 364 179 39 46 53
171 365 179 38 46 54
170 366 176 38 45 51
170 366 177 38 44 51
170 367 176 39 45 52
171 367 176 39 46 53
171 367 177 39 46 53
170 366 178 37 44 52
171 366 178 38 46 54
171 366 179 39 47 55
171 367 178 39 46 54
171 364 180 38 46 54
171 365 180 38 46 54
172 361 179 38 45 52
172 360 180 40 47 54
172 361 180 38 45 53
173 360 180 43 49 57
173 360 181 43 48 55
173 361 180 43 49 57
173 361 181 44 50 58
172 362 180 38 45 53
172 363 180 37 45 53
172 363 181 39 46 54
173 362 180 40 47 54
173 362 181 43 50 58
173 363 181 41 49 57
174 360 181 41 47 54
174 361 181 44 51 58
174 360 182 41 47 54
174 360 183 40 47 54
174 361 182 42 49 56
175 360 183 41 48 56
175 361 183 41 48 56
174 362 181 45 51 59
174 362 182 42 49 57
174 363 182 43 50 58
175 362 182 40 48 56
175 362 183 40 47 55
175 363 182 42 49 58
175 363 183 41 49 58
172 366 179 40 48 56
172 367 178 39 47 55
172 367 179 39 47 56
173 367 179 39 47 56
172 364 180 38 45 53
172 364 181 38 46 54
172 365 180 38 46 55
173 364 181 41 49 57
173 365 180 40 47 55
173 365 181 43 50 58
172 366 180 39 47 56
173 366 180 43 50 57
173 366 181 44 50 58
174 364 181 43 50 58
174 365 181 45 51 59
174 364 182 44 51 59
174 365 182 45 52 60
175 364 182 46 52 60
175 364 183 45 52 59
175 365 182 46 52 59
174 366 180 43 49 57
174 366 181 44 51 59
174 367 180 40 47 56
175 366 181 43 50 58
175 367 180 41 49 58
175 367 181 42 50 58
175 366 182 44 50 58
175 360 184 42 49 57
175 360 185 44 51 59
175 361 184 42 49 57
175 360 186 45 51 59
175 360 187 44 51 59
175 360 188 42 49 57
160 369 161 41 47 53
160 368 162 41 47 54
160 369 162 41 47 54
161 368 162 39 45 52
161 368 163 39 45 52
161 369 162 40 46 53
161 369 163 40 46 53
160 370 161 41 46 53
160 371 160 40 46 53
160 371 161 40 46 52
161 370 161 39 46 53
161 371 161 40 46 53
161 370 162 40 46 53
161 371 162 39 46 53
162 368 163 40 46 53
162 369 163 40 47 54
162 370 163 40 46 53
162 371 162 39 46 53
162 371 163 39 46 53
163 371 163 39 46 54
162 368 164 40 46 53
162 368 165 40 46 53
162 369 164 40 46 53
163 368 165 40 46 53
163 369 164 40 46 53
163 369 165 41 47 53
163 368 166 40 46 53
163 370 164 40 47 54
163 370 165 41 48 54
163 371 164 40 47 54
160 372 161 40 46 53
160 373 161 40 46 53
161 372 161 39 45 52
161 373 161 39 46 53
161 372 162 39 45 52
161 373 162 39 45 53
161 374 162 39 46 54
162 372 162 39 45 53
162 372 163 39 45 53
162 373 162 40 46 53
163 372 163 38 45 53
163 373 163 40 46 54
163 372 164 40 46 53
163 373 164 40 46 53
164 369 165 42 48 54
164 368 166 40 46 53
164 368 167 40 46 53
164 369 166 40 46 53
165 368 167 40 46 53
165 369 166 39 46 53
165 369 167 41 47 53
164 370 165 42 48 55
164 371 164 40 47 54
164 371 165 41 48 55
164 370 166 40 46 53
164 371 166 41 47 54
165 370 166 39 46 53
165 370 167 39 46 53
165 371 166 40 46 54
166 370 167 40 46 54
166 371 167 40 47 55
164 372 164 40 47 54
164 372 165 40 46 54
164 373 164 39 46 53
164 373 165 39 46 53
165 373 165 39 46 53
165 372 166 40 47 54
165 373 166 39 46 54
164 374 164 39 46 53
164 374 165 39 45 53
165 374 165 39 46 53
165 374 166 39 46 54
166 372 167 40 47 55
166 373 166 40 47 54
166 373 167 40 47 55
167 372 167 40 47 54
167 373 167 40 47 54
166 374 166 39 47 54
167 374 166 40 47 54
167 374 167 40 47 55
165 368 168 41 47 54
165 368 169 41 47 54
165 369 168 42 48 54
166 368 169 41 47 54
166 369 168 41 48 55
166 369 169 41 48 54
167 369 169 41 48 55
166 368 170 41 47 54
167 368 170 40 47 53
167 368 171 40 46 53
167 369 170 41 47 54
167 369 171 41 47 54
166 370 168 41 47 54
166 370 169 41 47 55
166 371 168 40 46 54
167 370 169 40 47 54
167 371 168 39 46 54
167 371 169 39 46 53
167 368 172 40 46 53
167 372 168 40 46 54
168 373 167 40 47 55
168 374 167 40 47 55
168 369 170 40 47 53
168 369 171 39 46 53
168 370 169 40 46 54
168 371 169 39 46 53
168 370 170 39 46 53
168 370 171 39 46 53
168 371 170 38 45 52
169 370 171 39 46 52
169 371 170 39 46 54
169 371 171 39 46 53
170 371 171 40 46 53
168 368 172 40 46 54
168 368 173 38 44 51
168 369 172 39 45 52
168 369 173 39 45 52
169 368 173 39 45 52
169 369 172 39 45 52
169 369 173 39 45 52
169 368 174 39 45 52
169 368 175 39 45 52
169 369 174 39 45 51
169 370 172 39 45 52
170 369 173 40 46 52
170 368 175 39 45 52
170 369 174 40 45 52
170 369 175 38 45 52
171 369 174 40 46 53
171 369 175 40 46 54
170 370 172 40 45 52
170 370 173 40 46 52
170 371 172 40 46 53
170 371 173 40 46 52
171 370 173 41 47 53
171 371 173 42 48 54
171 370 174 41 47 54
171 370 175 41 47 54
171 371 174 44 50 56
168 372 168 40 47 54
168 372 169 39 47 54
168 373 168 39 47 55
168 373 169 39 46 54
169 372 169 39 47 54
169 373 168 39 47 54
169 373 169 39 47 55
169 372 170 40 47 54
168 374 168 40 47 54
169 374 168 40 47 54
169 374 169 40 47 54
170 373 169 40 48 55
170 372 170 40 47 54
170 372 171 40 46 53
170 373 170 40 47 55
170 373 171 41 47 54
171 373 171 41 47 54
170 374 169 40 47 55
170 374 170 40 47 54
171 374 170 40 47 54
171 374 171 40 47 55
170 372 172 41 46 53
171 372 172 41 46 53
171 372 173 43 49 56
171 373 172 42 48 55
171 373 173 44 50 57
171 374 172 41 48 56
172 370 175 41 47 55
172 371 174 43 50 57
172 371 175 43 50 57
172 372 173 47 52 59
172 373 173 43 50 57
172 372 174 46 51 58
172 372 175 44 51 59
172 373 174 44 50 58
172 373 175 45 52 60
173 373 174 43 50 58
173 373 175 45 52 60
172 374 172 43 50 57
172 374 173 43 50 58
172 375 173 44 51 58
173 374 173 45 52 59
173 375 173 45 52 59
173 374 174 44 51 59
173 374 175 44 51 59
173 375 174 44 51 59
173 375 175 43 51 58
170 368 176 39 45 52
171 368 176 39 46 53
171 368 177 39 46 54
171 369 176 40 47 54
172 368 177 39 46 54
172 369 176 40 47 54
172 369 177 39 47 55
173 369 177 40 47 56
172 368 178 39 47 55
173 368 178 39 47 56
173 368 179 39 48 56
173 369 178 40 48 56
172 370 176 41 47 55
172 371 176 43 50 58
173 370 176 41 48 56
173 370 177 40 48 56
173 371 176 43 50 58
173 371 177 43 50 58
173 370 178 40 48 56
174 368 179 39 47 56
174 369 178 40 48 57
174 369 179 40 48 57
175 369 179 42 50 58
174 370 178 40 49 57
174 370 179 42 50 59
174 371 178 43 51 59
174 371 179 43 51 60
174 368 180 39 47 55
175 368 180 39 48 56
175 368 181 41 50 59
175 369 180 41 50 59
175 370 180 43 51 60
175 371 180 44 52 61
173 372 176 44 51 59
173 372 177 44 51 59
173 373 176 46 53 61
173 373 177 46 53 61
173 374 176 45 52 61
174 372 177 46 53 61
174 373 177 46 53 61
174 372 178 46 53 61
174 372 179 45 53 61
174 373 178 47 54 61
174 373 179 47 54 62
175 373 179 47 54 62
174 374 176 45 52 61
174 374 177 44 51 59
174 375 176 42 50 58
174 375 177 43 51 59
174 374 178 46 53 61
174 374 179 46 52 60
174 375 178 44 52 61
174 375 179 45 52 60
175 374 179 48 54 62
175 375 179 45 52 60
175 372 180 43 51 60
175 373 180 46 53 61
175 373 181 44 52 60
175 374 180 47 54 62
175 374 181 45 53 61
175 375 180 48 54 62
175 375 181 43 51 59
174 376 177 44 52 61
174 376 178 41 50 59
175 376 178 41 49 58
175 376 179 45 53 61
175 376 180 48 54 62
175 376 181 44 51 60
175 377 180 46 53 61
176 359 191 40 48 56
176 363 183 43 50 58
176 364 183 45 52 59
176 365 183 47 52 59
176 366 182 46 52 60
176 366 183 47 53 60
176 367 182 45 52 60
176 367 183 45 52 60
177 367 183 44 52 60
176 360 185 44 51 59
176 361 184 43 50 57
176 361 185 43 50 57
176 360 186 45 51 59
176 360 187 45 51 59
176 361 186 45 51 59
176 361 187 45 51 59
176 362 184 42 49 56
176 362 185 44 51 58
176 363 184 43 50 58
176 363 185 42 49 57
176 362 186 45 51 58
176 362 187 45 51 59
177 362 186 43 49 57
177 362 187 41 48 56
177 363 186 42 49 56
177 363 187 41 48 56
176 360 188 41 48 56
176 360 189 40 48 56
176 361 188 41 48 56
176 361 189 40 48 56
177 361 189 40 48 56
176 360 190 41 48 56
176 360 191 40 48 56
176 361 190 41 48 56
177 361 190 40 48 56
177 361 191 40 48 56
177 362 188 40 48 56
177 362 189 40 48 56
177 363 188 40 48 56
177 363 189 40 48 56
177 362 190 39 47 55
177 362 191 39 47 55
177 363 190 39 47 55
178 363 189 39 47 55
178 362 191 38 46 54
178 363 190 38 46 54
178 363 191 38 46 54
176 364 184 45 51 58
176 364 185 45 52 59
176 365 184 45 51 57
177 364 185 42 49 57
177 365 184 41 48 55
177 365 185 39 47 55
177 364 186 41 48 56
177 364 187 42 50 58
177 365 186 42 49 57
177 365 187 42 49 58
176 366 184 44 50 58
177 366 184 41 49 57
177 366 185 40 48 57
177 367 184 42 50 59
177 367 185 41 49 58
177 366 186 44 52 60
178 365 187 42 49 58
178 366 185 41 49 58
178 367 185 39 48 57
178 366 186 44 51 59
178 366 187 43 50 58
178 367 186 43 50 57
178 367 187 43 50 57
179 367 187 40 47 54
177 364 188 40 48 56
178 364 188 41 48 57
178 364 189 39 47 55
178 365 188 42 49 57
178 365 189 40 47 55
178 364 190 39 46 54
178 364 191 38 46 54
178 365 190 40 47 55
178 365 191 40 47 55
179 365 191 39 47 55
178 366 188 40 48 55
178 366 189 39 47 55
179 366 188 39 46 54
179 366 189 39 46 54
179 367 188 39 46 54
179 367 189 39 46 54
178 366 190 40 47 55
179 366 190 39 47 55
179 366 191 39 46 54
179 367 190 38 46 54
179 367 191 38 46 54
176 368 181 41 50 60
176 369 180 42 51 61
176 369 181 40 50 60
176 368 182 41 50 58
176 368 183 41 50 59
176 369 182 42 51 60
177 368 183 41 50 59
177 369 182 42 51 61
177 369 183 43 51 60
176 370 181 41 51 61
176 371 181 42 52 61
176 370 182 41 51 60
176 371 182 42 51 60
177 370 182 41 51 61
177 370 183 41 50 58
177 371 182 41 50 59
177 371 183 42 49 58
176 372 181 45 53 62
176 373 181 43 51 60
176 372 182 45 53 62
176 373 182 43 51 59
177 372 182 45 53 61
177 372 183 46 52 60
177 373 183 43 50 58
176 374 181 43 51 60
176 375 181 42 50 59
176 374 182 43 51 60
176 374 183 43 51 59
176 375 182 43 51 60
176 375 183 42 50 58
177 374 183 43 50 59
177 375 183 41 49 58
177 368 184 42 50 59
177 369 184 42 50 59
177 370 184 42 50 59
177 371 184 43 50 57
178 368 184 41 50 59
178 368 185 39 47 55
178 369 184 41 50 58
178 369 185 42 49 57
178 368 186 43 50 57
178 368 187 43 49 57
178 369 186 43 49 57
179 368 187 41 47 55
179 369 186 43 49 57
179 369 187 41 47 54
178 370 184 42 49 58
178 370 185 42 49 57
178 371 184 43 50 57
178 371 185 44 49 56
178 370 186 43 49 57
179 370 186 43 49 56
179 370 187 40 46 54
179 371 186 43 49 55
179 371 187 39 46 53
179 368 188 39 46 54
179 368 189 39 46 54
179 369 188 39 46 54
179 369 189 40 47 55
179 368 190 39 47 55
179 368 191 39 47 55
179 369 190 40 47 55
179 369 191 39 46 54
179 370 188 40 46 54
179 370 189 40 47 54
179 371 188 39 45 52
179 371 189 39 45 53
179 370 190 39 46 54
179 370 191 39 46 54
179 371 190 38 45 53
179 371 191 39 47 55
177 372 184 45 52 59
177 373 184 44 50 58
177 374 184 43 51 59
177 375 184 41 49 58
178 372 184 44 50 57
178 372 185 44 49 56
178 373 184 44 50 57
178 373 185 43 49 56
178 372 186 43 49 56
178 373 186 42 48 55
179 372 186 43 49 56
179 372 187 40 46 53
179 373 186 41 48 55
179 373 187 40 46 54
178 374 184 44 51 59
178 374 185 42 49 57
178 375 184 42 50 58
178 375 185 40 48 56
178 374 186 41 47 54
178 375 186 39 46 54
179 374 186 40 47 54
179 374 187 40 46 53
179 375 186 39 45 52
179 375 187 39 45 52
179 372 188 40 46 53
179 372 189 40 46 53
179 373 188 40 46 53
179 373 189 40 47 54
179 372 190 40 46 54
179 372 191 39 46 54
179 373 190 40 47 54
179 373 191 39 46 54
179 374 188 40 46 53
179 374 189 40 46 54
179 375 188 39 45 53
179 375 189 40 46 54
179 374 190 39 46 53
179 374 191 39 46 53
179 375 190 39 46 54
179 375 191 40 47 54
180 375 191 40 47 54
176 376 181 43 51 60
176 377 181 44 52 60
176 376 182 45 54 62
176 377 182 45 53 61
177 376 183 44 52 60
177 377 182 46 53 61
177 377 183 44 52 60
177 376 184 42 50 58
177 377 184 42 50 58
178 376 184 40 48 57
178 376 185 38 46 54
178 377 184 43 51 59
178 377 185 42 49 57
178 376 186 38 45 53
178 377 186 41 48 56
179 376 187 38 45 52
179 377 187 40 46 54
178 378 185 39 47 54
178 378 186 40 47 54
179 378 186 40 47 54
179 378 187 41 47 54
179 376 188 39 46 53
179 376 189 39 46 54
179 377 188 40 47 54
179 377 189 39 46 54
179 376 190 39 46 54
179 377 190 40 47 54
179 378 188 39 46 54
179 378 189 39 46 54
179 379 189 38 46 53
179 378 190 40 47 54
180 376 191 41 47 55
180 377 190 40 47 54
180 377 191 40 47 54
180 379 189 38 45 53
180 378 190 40 47 54
180 378 191 40 47 54
180 379 190 39 46 54
180 379 191 38 46 53
181 379 191 38 45 53
161 320 192 36 42 49
161 320 193 36 43 50
161 321 192 37 43 50
161 322 192 38 44 51
161 323 192 39 45 52
162 320 193 35 43 50
162 321 193 37 43 50
162 321 194 36 43 51
162 322 193 38 44 51
162 323 192 39 45 52
162 323 193 39 46 53
162 322 194 36 42 50
162 322 195 36 43 50
162 323 194 36 44 51
162 323 195 37 43 51
163 322 195 37 43 50
162 323 196 37 43 50
163 322 196 38 44 49
163 323 196 38 43 49
163 323 197 39 43 49
163 323 198 39 43 49
162 324 192 38 45 52
162 324 193 38 45 53
162 325 192 37 45 53
162 325 193 35 44 52
163 325 192 39 46 53
163 325 193 38 45 53
162 324 194 37 45 53
162 324 195 37 44 51
162 325 194 35 43 51
162 325 195 36 43 50
163 325 194 35 43 51
163 325 195 37 44 51
163 326 192 39 46 53
163 326 193 38 45 53
163 326 194 37 45 52
163 326 195 37 44 51
162 324 196 36 43 50
162 325 196 36 43 51
163 324 196 37 43 49
163 324 197 38 43 49
163 325 196 37 45 52
163 325 197 38 44 51
163 324 198 40 44 49
163 324 199 41 44 50
163 325 198 38 43 49
163 325 199 40 44 49
163 326 196 37 44 52
163 326 197 39 46 53
163 327 196 40 42 52
163 327 197 39 45 52
163 326 198 40 46 52
163 326 199 40 45 51
163 327 198 41 47 54
163 327 199 42 48 54
164 323 198 37 42 48
164 326 192 37 45 52
164 326 193 37 44 51
164 327 192 38 45 52
164 327 193 38 44 51
165 327 193 39 45 52
164 326 194 35 43 51
164 327 194 38 45 52
164 327 195 38 45 52
164 327 196 41 41 52
163 324 200 41 46 51
163 325 200 40 45 50
163 325 201 39 45 52
163 325 202 38 45 52
163 326 200 40 45 52
163 326 201 38 45 52
163 327 200 41 47 53
163 327 201 38 45 52
163 326 202 38 44 51
164 324 200 40 44 50
164 325 202 38 44 51
164 327 201 35 43 50
164 326 202 37 43 50
164 326 203 38 44 51
164 327 202 37 44 52
164 327 203 37 44 50
164 326 204 38 44 50
164 327 204 39 45 51
165 327 204 39 44 51
165 327 205 40 45 50
163 328 198 39 46 52
163 328 199 41 47 54
163 329 199 41 47 54
165 328 192 38 44 51
165 328 193 38 45 52
165 329 192 38 44 52
165 329 193 38 44 52
164 328 195 39 45 53
165 328 194 38 45 52
165 328 195 38 45 53
165 329 195 37 44 52
166 329 192 39 46 53
166 329 193 38 45 53
166 329 194 37 44 52
166 329 195 37 44 51
166 330 192 38 45 53
166 330 193 37 45 53
167 331 192 38 45 53
167 331 193 37 44 52
166 330 194 38 45 52
166 330 195 38 45 52
166 331 195 39 45 53
167 331 194 38 45 53
167 331 195 38 45 52
164 328 196 38 43 52
164 328 197 37 44 51
164 329 197 36 43 51
165 329 196 37 45 52
165 329 197 35 43 52
164 328 198 38 45 52
164 329 198 38 44 52
164 329 199 40 46 53
165 330 196 36 44 52
165 330 197 35 44 52
165 331 197 36 44 52
164 330 198 37 44 51
164 330 199 39 45 52
164 331 199 36 43 51
165 330 198 35 43 51
165 331 198 35 42 50
166 329 196 38 45 52
166 330 196 38 45 53
166 330 197 38 45 52
166 331 196 38 45 52
166 331 197 37 44 52
167 332 192 38 45 53
167 332 193 38 45 53
167 333 192 38 45 53
167 333 193 38 45 53
167 332 194 38 45 52
167 332 195 38 45 53
167 333 194 38 45 52
167 333 195 39 46 53
167 334 192 41 47 54
167 334 193 40 46 53
167 334 194 39 45 52
167 334 195 39 46 53
165 332 198 37 44 52
165 332 199 38 45 52
165 333 198 37 45 52
165 333 199 38 46 53
165 334 199 33 42 50
166 332 196 38 45 52
166 332 197 36 44 52
166 333 196 38 45 52
166 333 197 37 45 53
167 332 196 39 46 53
167 333 196 39 46 53
166 332 198 37 44 52
166 333 198 37 44 52
166 334 197 38 45 52
167 334 196 39 45 52
167 334 197 38 45 52
167 335 196 39 46 53
167 335 197 38 45 52
166 334 198 36 44 52
166 334 199 37 44 52
167 335 198 38 45 52
167 335 199 37 44 52
163 328 200 41 47 53
163 328 201 39 46 53
164 328 201 38 45 52
164 329 200 40 46 53
164 329 201 38 45 53
164 328 202 39 45 52
164 328 203 38 44 51
164 329 202 37 43 51
165 328 203 38 44 51
165 329 202 36 43 50
165 329 203 37 43 49
164 330 200 38 45 52
164 330 201 37 44 52
164 331 200 38 45 52
164 331 201 37 44 52
165 330 201 36 44 51
165 331 201 36 43 50
165 330 202 37 43 50
165 330 203 38 44 50
165 331 202 37 44 51
166 330 203 38 44 51
166 331 202 37 44 51
166 331 203 35 41 48
165 328 204 38 43 50
165 328 205 39 44 50
165 329 204 37 42 48
166 328 205 39 44 50
166 329 204 37 43 50
166 329 205 39 44 50
166 328 206 42 46 51
166 328 207 43 48 54
166 329 206 41 45 50
166 329 207 41 47 53
167 329 206 41 46 53
167 329 207 45 51 58
166 330 204 39 44 51
166 330 205 39 45 51
166 331 204 35 42 49
167 330 205 37 43 50
167 331 204 36 42 49
167 331 205 36 43 51
167 330 206 39 46 53
167 330 207 42 48 55
167 331 206 38 45 53
165 332 200 39 46 54
165 332 201 38 44 52
165 333 200 39 46 53
165 333 201 37 44 52
166 333 201 37 43 50
166 332 202 34 40 46
166 332 203 35 41 47
166 333 202 37 42 49
167 332 203 39 45 52
167 333 202 37 44 51
167 333 203 38 44 50
166 334 200 37 44 52
166 334 201 35 43 50
167 334 201 35 42 49
167 335 200 36 43 51
167 335 201 35 41 48
166 334 202 36 41 47
167 334 202 36 42 48
167 334 203 36 43 50
167 335 202 35 41 47
167 332 204 40 46 53
167 332 205 38 45 52
167 333 204 39 45 52
168 334 192 41 47 54
168 334 193 42 49 56
168 335 192 39 46 54
168 335 193 39 46 54
168 334 194 44 50 57
168 334 195 39 45 53
168 335 194 39 46 53
168 335 195 39 46 53
168 335 196 39 45 53
168 331 205 38 45 53
168 330 207 42 49 56
168 331 206 38 45 53
168 331 207 40 47 55
168 335 201 35 43 51
168 334 203 36 43 49
168 335 202 36 43 50
168 335 203 36 43 50
169 335 203 38 45 51
168 332 205 39 46 53
168 333 204 38 45 52
168 333 205 39 46 53
168 332 206 39 46 54
168 332 207 43 50 58
168 333 206 40 47 55
168 333 207 45 51 59
169 333 207 44 51 59
168 334 204 37 43 50
168 334 205 39 46 53
168 335 204 37 43 50
169 334 205 40 47 54
169 335 204 40 46 53
169 335 205 40 47 55
169 334 206 41 49 57
169 334 207 42 51 59
169 335 206 40 48 57
169 335 207 41 50 59
167 329 208 48 53 60
167 330 208 47 52 59
168 330 208 45 51 59
168 331 208 47 53 60
168 332 208 48 54 62
168 333 208 46 53 61
169 333 208 47 54 61
169 334 208 47 53 60
169 335 208 44 51 59
167 336 198 35 43 50
168 336 192 38 45 53
168 336 193 39 46 54
168 337 192 40 47 54
168 337 193 39 46 54
168 336 194 39 46 54
168 336 195 40 46 53
168 337 194 39 46 54
168 337 195 39 46 54
168 338 192 41 48 56
168 338 193 41 48 55
168 339 192 40 47 55
168 339 193 40 48 56
168 338 194 39 47 55
168 338 195 38 46 54
168 339 194 38 47 56
169 338 195 39 46 54
169 339 194 38 47 56
169 339 195 38 47 55
168 336 196 38 45 52
168 336 197 39 45 52
168 337 196 39 46 53
168 337 197 40 46 53
169 337 196 39 46 54
169 337 197 41 46 53
168 336 198 39 45 52
168 336 199 37 43 51
168 337 198 40 46 53
168 337 199 38 44 51
169 337 198 41 46 53
169 337 199 40 46 52
169 338 196 39 46 54
169 338 197 40 46 53
169 339 196 38 46 54
169 339 197 38 45 53
169 338 198 41 47 53
169 338 199 40 46 52
169 339 198 39 46 53
170 338 199 40 45 51
170 339 198 38 45 53
170 339 199 38 45 52
168 340 192 40 48 56
168 340 193 40 47 56
168 341 192 41 48 56
168 341 193 40 48 56
169 341 192 40 48 56
169 341 193 41 49 57
168 340 194 39 47 56
169 340 194 39 47 56
169 340 195 40 48 56
169 341 194 39 48 56
169 341 195 42 50 58
169 342 192 39 48 56
169 342 193 40 48 56
169 343 192 38 47 56
169 343 193 39 47 56
169 342 194 40 48 56
170 341 195 42 49 57
170 343 193 38 47 55
170 342 194 41 48 56
170 342 195 40 48 55
170 343 194 39 47 55
170 343 195 40 47 55
169 340 196 39 47 55
169 340 197 38 45 54
169 341 196 40 47 55
170 340 197 38 45 53
170 341 196 40 47 55
170 341 197 39 46 54
170 340 198 38 45 53
170 340 199 38 44 51
170 341 198 39 46 53
170 341 199 38 44 51
171 341 198 39 46 53
171 341 199 38 44 51
170 342 196 40 47 55
170 342 197 40 47 55
170 343 196 40 47 55
170 343 197 39 46 54
171 343 196 39 47 54
171 343 197 39 46 54
171 342 198 40 47 53
171 342 199 39 45 52
171 343 198 40 46 53
171 343 199 39 45 52
168 336 200 37 44 51
168 336 201 37 43 51
168 337 200 36 43 50
169 337 200 37 44 51
169 337 201 35 42 49
168 336 202 35 42 50
169 336 202 36 43 50
169 336 203 37 43 50
169 337 202 36 42 49
169 337 203 38 45 52
169 338 200 38 44 51
170 337 202 37 43 50
170 337 203 39 46 54
170 338 200 37 43 50
170 338 201 37 44 50
170 339 200 37 44 51
170 339 201 36 43 50
170 338 202 38 44 50
170 338 203 39 45 53
170 339 202 38 44 51
170 339 203 40 47 54
171 339 203 40 47 54
169 336 204 40 46 53
169 336 205 42 48 56
169 337 204 40 46 54
169 336 206 41 49 57
170 336 205 42 49 56
170 337 204 40 47 54
170 337 205 40 47 55
170 336 206 42 50 57
170 336 207 42 50 59
170 337 206 42 49 57
170 337 207 43 51 59
170 338 204 40 47 55
170 338 205 41 48 56
170 339 204 40 47 55
170 339 205 41 48 56
171 339 204 42 48 56
171 339 205 41 48 56
170 338 206 42 49 57
170 338 207 43 50 58
170 339 206 44 51 58
170 339 207 44 51 59
171 339 206 43 50 58
171 339 207 45 52 60
170 340 200 37 44 51
170 340 201 37 43 49
171 340 200 37 44 50
171 340 201 37 43 50
171 341 200 38 44 50
171 341 201 37 44 51
171 340 202 39 45 52
171 340 203 39 46 53
171 341 202 41 47 53
171 341 203 41 47 54
171 342 200 39 45 51
171 342 201 39 45 52
171 343 200 39 45 51
171 343 201 39 45 52
171 342 202 40 46 53
171 342 203 40 47 54
171 340 204 41 48 55
171 340 205 42 49 57
171 341 204 40 47 55
171 341 205 40 48 56
171 340 206 42 49 57
171 340 207 43 50 58
171 341 206 42 50 58
171 341 207 44 51 59
171 342 204 41 48 55
171 342 205 40 48 56
171 342 206 44 51 60
171 342 207 46 53 61
172 343 201 41 47 54
172 342 203 40 46 54
172 343 202 42 47 54
172 343 203 42 48 55
172 342 204 40 47 55
172 342 205 39 47 55
172 343 204 41 48 56
172 343 205 42 49 58
172 342 206 42 50 59
172 342 207 45 53 61
172 343 206 42 49 58
172 343 207 45 52 60
169 344 192 39 47 56
169 346 192 38 47 55
169 347 192 38 47 55
170 344 192 38 47 56
170 344 193 39 47 55
170 345 192 38 46 55
170 345 193 39 47 55
170 344 194 41 48 56
170 344 195 41 48 56
170 345 194 39 47 55
170 345 195 39 47 55
171 344 195 40 48 56
171 345 195 38 46 55
170 346 192 37 46 54
170 346 193 38 46 55
170 347 192 37 46 54
170 347 193 37 45 54
170 346 194 39 47 56
170 347 194 39 47 56
171 346 195 39 47 55
171 347 195 38 47 55
171 344 196 40 47 55
171 344 197 40 47 55
171 345 196 39 47 55
171 345 197 40 47 55
171 344 198 40 46 53
171 344 199 39 45 52
171 345 198 40 47 54
171 345 199 40 46 53
171 346 196 38 47 55
171 346 197 39 47 55
171 347 196 38 47 56
171 347 197 39 47 55
171 346 198 39 46 54
171 347 198 39 47 55
169 348 192 37 45 53
170 348 192 38 46 55
170 348 193 38 46 54
170 349 192 39 47 55
170 349 193 39 46 54
170 348 194 39 47 55
170 349 194 38 46 54
171 348 194 38 47 55
171 348 195 38 46 55
171 349 194 39 47 55
171 349 195 38 46 55
170 350 192 38 45 53
171 350 192 38 46 54
171 350 193 38 46 53
171 351 192 39 47 55
171 351 193 39 47 55
171 350 194 39 47 55
171 350 195 39 47 56
171 351 194 39 47 55
171 348 196 39 47 56
171 348 197 40 48 56
171 349 196 39 47 56
171 349 197 40 48 56
171 348 198 39 47 55
172 345 199 40 46 53
172 346 199 39 46 54
172 347 198 38 46 54
172 347 199 37 45 53
172 351 192 40 48 56
172 351 193 39 47 55
172 350 195 39 47 56
172 351 194 40 47 56
172 351 195 40 47 55
172 349 197 40 48 56
172 348 198 39 47 55
172 348 199 38 46 54
172 349 198 40 47 55
172 349 199 38 46 54
172 350 196 39 47 55
172 350 197 39 47 55
172 351 196 40 47 55
172 351 197 39 47 55
173 351 196 40 47 55
173 351 197 39 47 54
172 350 198 39 46 55
172 350 199 38 46 54
172 351 198 39 46 55
173 350 199 37 45 53
173 351 198 38 46 54
173 351 199 39 46 54
171 344 200 39 45 52
172 344 200 39 45 52
172 344 201 39 45 52
172 345 200 39 46 53
172 345 201 39 46 53
172 344 202 39 46 53
172 344 203 41 47 54
172 345 202 39 45 53
172 345 203 38 46 54
173 345 203 39 46 54
172 346 200 39 46 54
172 346 201 39 46 54
172 347 200 38 46 54
172 347 201 40 47 55
172 346 202 40 47 55
173 346 202 41 48 55
173 346 203 40 48 56
173 347 202 41 48 56
173 347 203 41 49 57
172 344 204 42 48 56
172 344 205 42 49 57
172 345 204 42 49 57
172 345 205 41 48 57
173 345 204 41 48 56
173 345 205 42 49 57
172 344 206 42 50 59
172 344 207 44 51 59
172 345 206 40 49 58
172 345 207 42 50 59
173 345 206 40 49 57
173 345 207 43 51 59
173 346 204 40 48 56
173 346 205 41 49 57
173 347 204 42 49 58
173 347 205 42 49 57
173 346 206 42 50 57
173 346 207 46 52 60
173 347 206 43 50 58
173 347 207 45 52 59
172 348 200 38 46 54
172 348 201 39 46 54
172 349 200 39 46 54
173 348 201 39 47 55
173 349 200 40 47 55
173 349 201 39 46 54
173 348 202 41 48 55
173 348 203 41 48 56
173 349 202 39 46 54
173 349 203 39 47 54
173 350 200 39 46 54
173 350 201 40 47 55
173 351 200 38 46 53
173 351 201 40 46 54
173 350 202 39 46 54
173 350 203 38 45 53
173 351 202 39 46 53
174 350 203 37 45 52
174 351 202 39 46 53
174 351 203 39 46 53
173 348 204 40 48 57
173 348 205 42 49 58
173 349 204 38 47 55
173 349 205 41 49 58
173 348 206 44 51 59
173 348 207 45 52 60
173 349 206 42 50 58
173 349 207 45 52 60
174 349 205 40 48 57
174 349 206 42 50 58
174 349 207 45 51 60
174 350 204 37 46 54
174 350 205 39 48 57
174 351 204 38 46 54
174 351 205 37 47 56
174 350 206 42 50 58
174 350 207 45 52 60
174 351 206 39 48 57
174 351 207 43 50 58
170 336 208 44 52 60
170 337 208 44 52 60
170 338 208 45 52 60
170 339 208 46 53 61
171 339 208 46 53 61
171 340 208 45 52 60
171 340 209 46 53 61
171 341 208 46 52 60
171 341 209 47 54 62
171 342 208 48 54 62
171 342 209 49 55 63
171 343 209 46 53 60
172 343 208 47 53 61
172 343 209 48 53 60
172 344 208 47 53 61
172 344 209 49 54 61
172 345 208 44 51 59
172 345 209 48 54 61
173 345 208 44 51 59
172 346 209 47 52 59
173 346 208 46 53 61
173 346 209 46 51 58
173 347 208 48 54 61
173 347 209 47 53 59
173 348 208 47 53 60
173 348 209 48 53 60
173 349 208 48 54 61
173 349 209 48 54 61
174 350 208 50 55 63
174 350 209 48 54 62
174 351 208 48 54 61
174 351 209 49 55 62
172 352 192 41 48 56
172 352 193 41 49 57
172 353 192 40 47 55
173 353 192 40 47 55
173 353 193 40 47 55
172 352 194 40 48 56
173 352 194 40 48 56
173 352 195 40 48 56
173 353 194 40 48 56
173 353 195 39 47 55
173 354 192 39 47 55
173 354 193 40 47 55
173 355 192 39 47 55
173 355 193 39 47 55
173 354 194 42 49 57
174 355 192 39 46 54
174 355 193 39 47 55
174 354 194 42 49 57
174 354 195 41 49 56
174 355 194 40 47 55
174 355 195 40 47 55
173 352 196 40 47 55
173 352 197 39 46 54
173 353 196 39 47 55
173 353 197 39 46 54
173 352 198 37 45 53
173 352 199 38 45 53
173 353 198 37 45 53
173 353 199 38 45 53
174 353 197 38 46 54
174 353 198 38 45 53
174 353 199 37 45 52
174 354 196 40 48 56
174 354 197 39 47 54
174 355 196 40 47 55
174 355 197 40 47 54
174 354 198 38 45 53
174 354 199 38 45 52
174 355 198 38 46 54
174 355 199 38 45 53
175 355 198 39 46 54
175 355 199 38 46 53
174 356 192 39 47 55
174 356 193 39 47 55
174 357 192 39 47 55
174 357 193 41 49 57
175 357 192 39 47 56
175 357 193 40 48 56
174 356 194 40 47 55
174 356 195 40 47 55
175 356 195 40 47 55
175 357 194 39 47 55
175 357 195 39 47 54
175 358 192 39 47 55
175 358 193 39 47 55
175 359 192 39 47 55
175 359 193 38 46 55
175 358 194 39 47 55
175 358 195 40 47 54
175 359 194 39 47 55
174 356 196 40 47 54
175 356 196 40 47 54
175 356 197 40 47 54
175 357 196 40 47 54
175 357 197 40 47 54
175 356 198 40 47 54
175 356 199 40 47 54
175 357 198 41 47 55
175 357 199 41 47 55
175 358 196 40 47 54
175 358 197 40 46 54
175 358 198 40 46 54
173 352 200 39 46 53
173 352 201 39 46 53
173 352 202 39 46 53
174 353 200 37 45 52
174 353 201 38 45 53
174 352 202 38 45 52
174 352 203 40 47 54
174 353 202 40 47 54
174 353 203 41 48 55
174 354 200 37 45 52
174 354 201 37 44 52
174 355 200 38 45 52
174 355 201 38 45 52
175 355 200 39 46 53
175 355 201 39 45 53
174 354 202 39 46 53
174 354 203 40 47 54
174 355 202 38 45 53
175 355 202 39 46 53
175 355 203 39 46 53
174 352 204 39 47 55
174 352 205 37 47 56
174 353 204 40 47 55
174 353 205 36 45 55
175 353 205 36 46 55
174 352 206 36 46 55
174 352 207 39 47 55
175 352 206 37 46 55
175 353 206 39 47 56
175 353 207 40 48 56
174 354 204 40 48 55
175 354 204 40 47 55
175 354 205 39 47 56
175 355 204 38 45 53
175 355 205 37 46 55
175 354 206 40 48 57
175 354 207 44 50 58
175 355 206 40 48 56
175 355 207 45 51 58
175 356 200 41 47 54
175 356 201 40 46 53
175 357 200 41 47 54
175 357 201 41 47 54
175 356 202 40 46 54
175 356 203 40 47 54
175 357 202 40 47 54
175 357 203 40 47 54
175 356 204 40 47 54
175 356 205 38 45 54
175 357 204 41 48 55
175 356 206 38 46 55
175 356 207 42 49 56
174 352 208 43 49 57
174 352 209 46 52 60
174 353 209 47 53 60
175 353 208 43 49 57
175 353 209 46 52 59
175 354 208 46 52 58
175 354 209 47 52 59
175 355 208 48 53 60
175 355 209 49 54 59
175 356 208 47 51 58
175 356 209 50 54 59
175 357 209 50 53 58
176 359 192 40 48 56
176 359 193 38 46 55
176 359 194 38 46 54
176 359 195 39 46 54
176 358 197 40 46 53
176 359 196 40 46 53
176 359 197 39 46 53
176 358 198 40 46 53
176 358 199 40 47 54
176 359 198 40 46 53
176 359 199 40 46 54
176 357 202 40 47 54
176 357 203 40 47 54
176 358 200 40 46 54
176 358 201 41 47 53
176 359 200 40 46 53
176 359 201 42 47 54
177 359 200 41 47 55
177 359 201 42 47 54
176 358 202 41 47 54
176 358 203 41 47 54
176 359 202 41 47 53
176 359 203 41 47 54
176 356 205 37 46 55
176 357 204 40 47 54
176 357 205 40 47 55
176 356 206 38 46 55
176 356 207 42 48 56
176 357 206 40 48 56
176 357 207 43 49 57
176 358 204 40 47 54
176 358 205 39 46 54
176 359 204 41 47 55
176 359 205 41 47 55
176 358 206 40 48 57
176 358 207 43 49 57
176 359 206 39 48 56
176 359 207 42 49 58
177 359 206 38 47 56
177 359 207 43 50 59
176 360 192 40 48 56
176 360 193 39 47 56
177 360 192 40 47 55
177 360 193 40 47 56
177 361 192 39 47 55
177 361 193 38 46 54
176 360 194 37 46 54
176 360 195 39 46 54
177 360 194 38 46 54
177 360 195 40 47 54
177 361 194 37 45 54
177 361 195 38 45 53
177 362 192 38 46 55
177 362 193 39 47 55
178 361 195 37 45 53
178 362 192 39 47 55
178 362 193 38 46 55
178 363 192 39 47 55
178 363 193 39 46 55
178 362 194 39 46 54
178 362 195 38 46 54
178 363 194 39 47 54
178 363 195 40 46 54
179 363 194 39 47 55
179 363 195 39 46 54
176 360 196 41 47 54
177 360 196 39 46 54
177 360 197 40 46 54
177 361 196 38 45 53
177 361 197 37 45 53
177 360 198 40 46 53
177 360 199 40 47 54
177 361 198 38 45 53
177 361 199 39 46 54
178 361 196 38 46 54
178 361 197 38 46 54
178 361 198 38 45 53
178 361 199 39 46 54
178 362 196 38 46 54
178 362 197 38 46 54
179 362 197 37 45 53
179 363 196 39 46 54
179 363 197 38 46 54
178 362 198 39 46 54
178 362 199 39 46 54
179 362 198 38 46 54
179 363 198 39 46 54
179 363 199 39 47 54
178 364 192 38 46 54
178 364 193 38 46 54
178 365 192 39 46 54
179 364 193 39 47 55
179 365 192 39 46 54
179 365 193 38 46 54
179 364 194 39 46 54
179 364 195 40 47 54
179 365 194 38 46 54
179 365 195 40 47 54
179 366 192 40 46 54
179 366 193 40 47 55
179 367 192 40 47 54
179 367 193 41 47 55
179 366 194 39 46 54
179 366 195 39 46 54
179 367 194 39 47 55
179 367 195 38 46 54
179 364 196 40 47 54
179 364 197 39 47 55
179 365 196 41 47 55
179 365 197 41 48 55
179 364 198 39 47 55
179 364 199 40 47 55
179 365 198 40 47 55
179 365 199 40 47 55
179 366 196 39 46 54
179 366 197 40 47 55
179 367 196 38 46 54
179 367 197 39 46 54
179 366 198 40 47 55
179 366 199 40 47 54
179 367 198 40 47 55
179 367 199 39 46 54
177 360 200 40 47 54
177 360 201 42 48 55
177 361 200 40 47 54
177 361 201 40 46 53
177 360 202 42 48 55
177 360 203 41 47 54
177 361 202 41 47 54
177 361 203 42 47 54
177 362 202 38 45 52
177 362 203 39 45 52
178 361 200 40 47 54
178 362 200 39 46 54
178 362 201 39 46 53
178 363 200 37 45 53
178 363 201 39 46 54
179 363 200 38 45 53
179 363 201 38 46 54
178 362 202 38 45 52
178 362 203 38 45 52
178 363 202 38 45 53
178 363 203 37 44 52
177 360 204 40 46 53
177 360 205 39 46 54
177 361 204 41 47 54
177 361 205 38 45 52
177 360 206 41 48 56
177 360 207 43 50 59
177 361 206 39 46 54
177 361 207 43 51 59
177 362 204 40 46 54
177 362 205 39 46 53
177 362 206 38 45 53
177 362 207 43 50 58
178 362 204 38 45 52
178 362 205 40 46 54
178 363 204 37 44 52
178 363 205 39 46 53
178 362 206 40 46 54
178 362 207 42 49 57
178 363 206 40 47 54
178 363 207 42 48 56
179 364 200 39 46 54
179 364 201 38 45 54
179 365 200 39 46 54
179 365 201 40 47 55
178 364 202 38 46 54
