ply
format ascii 1.0
comment PCL generated
element vertex 2252
property float x
property float y
property float z
property uchar red
property uchar green
property uchar blue
element camera 0
property float view_px
property float view_py
property float view_pz
property float x_axisx
property float x_axisy
property float x_axisz
property float y_axisx
property float y_axisy
property float y_axisz
property float z_axisx
property float z_axisy
property float z_axisz
property float focal
property float scalex
property float scaley
property float centerx
property float centery
property int viewportx
property int viewporty
property float k1
property float k2
end_header
292 470 239 49 62 75
292 471 239 55 66 79
293 470 239 46 59 72
293 471 239 56 67 79
294 468 239 51 60 70
294 469 239 50 60 72
295 468 238 49 59 71
295 469 238 48 60 73
294 470 239 49 61 74
294 471 239 55 66 79
295 470 238 50 63 76
295 471 238 54 68 81
295 471 239 55 67 80
293 472 239 60 70 81
294 472 239 60 70 82
294 473 239 61 70 82
295 472 239 57 70 84
295 473 239 58 71 84
297 464 237 47 57 68
297 465 237 49 58 69
296 464 238 49 60 70
296 465 238 47 57 69
297 464 238 47 58 69
297 465 238 46 57 68
297 466 237 50 60 71
297 467 237 49 60 72
296 466 238 48 59 71
296 467 238 50 60 71
298 464 237 50 59 69
298 465 237 51 60 71
299 464 236 51 61 71
299 464 237 51 60 71
299 465 236 50 61 72
299 465 237 50 61 71
298 466 237 49 60 71
298 467 237 49 60 71
299 466 236 50 61 73
299 466 237 50 60 72
299 467 236 48 60 73
297 468 237 48 59 71
297 469 237 47 57 68
296 468 238 50 59 71
296 469 238 47 59 71
297 470 237 46 58 72
297 471 237 49 63 79
296 470 238 49 62 75
296 471 238 53 67 81
297 471 238 50 64 79
298 468 237 46 57 67
298 469 237 45 57 69
299 468 236 46 58 70
299 469 236 48 60 72
298 470 237 45 59 74
298 471 237 49 63 79
299 470 236 49 61 74
299 471 236 52 65 78
301 464 235 50 61 73
301 465 235 51 62 74
301 466 235 51 62 74
301 467 235 50 61 73
303 464 233 49 60 72
303 465 233 50 61 73
302 464 234 53 63 74
302 464 235 51 61 73
302 465 234 51 61 73
303 464 234 50 61 72
303 465 234 49 60 72
303 466 233 51 62 73
303 467 233 50 61 73
302 466 234 52 62 73
302 467 234 55 64 75
303 466 234 52 63 74
303 467 234 53 63 74
300 464 236 50 61 72
300 465 236 49 61 73
301 464 236 50 61 73
300 466 236 50 62 74
300 467 236 49 61 74
300 469 235 46 60 72
301 468 235 48 59 72
301 469 234 46 59 72
301 469 235 46 59 72
300 470 235 47 60 73
300 471 235 58 71 84
301 470 235 50 63 77
301 471 234 52 67 82
301 471 235 54 69 83
303 468 233 49 60 72
303 469 233 46 59 71
302 468 234 52 63 74
302 469 234 48 61 73
303 470 233 50 62 75
302 470 234 51 64 78
302 470 235 49 63 77
300 468 236 46 59 72
300 469 236 48 61 74
300 470 236 54 66 78
300 471 236 58 70 83
297 472 237 51 67 83
296 472 238 56 70 85
296 473 238 61 72 86
296 473 239 60 72 85
297 472 238 51 66 82
297 473 238 58 71 87
298 472 237 53 68 84
299 472 236 58 71 85
300 472 236 63 75 89
288 464 240 49 60 71
288 465 240 50 60 72
289 464 240 49 60 71
289 465 240 51 61 72
288 466 240 47 59 72
288 467 240 48 60 73
289 466 240 48 60 72
289 467 240 48 60 72
290 464 240 50 60 72
290 465 240 47 59 71
291 464 240 51 62 74
291 465 240 50 62 74
290 466 240 46 58 70
290 467 240 44 57 69
291 467 240 46 58 70
288 468 240 47 60 73
288 469 240 49 61 74
288 469 241 47 60 73
289 468 240 48 60 73
289 469 240 48 61 73
288 470 241 48 60 72
288 471 241 49 60 71
289 470 240 49 61 74
289 470 241 50 62 74
289 471 241 49 61 73
290 468 240 44 57 69
290 469 240 47 60 73
291 468 240 44 57 70
291 469 240 48 60 72
290 470 240 48 61 75
290 471 240 49 62 76
290 471 241 50 62 74
291 470 240 48 62 75
291 471 240 51 64 77
292 469 240 50 62 74
292 470 240 50 63 76
292 471 240 54 66 78
288 472 241 53 62 72
289 472 241 51 62 73
289 473 241 61 70 80
288 472 242 59 67 76
288 473 242 79 85 94
289 473 242 73 79 89
288 474 242 102 106 115
288 474 243 104 108 118
288 475 243 107 112 122
289 474 242 100 104 114
289 475 242 108 112 122
290 472 240 50 63 77
290 472 241 50 62 75
290 473 241 57 67 79
291 472 240 51 64 77
291 473 240 51 63 76
291 473 241 54 65 77
290 474 241 90 96 106
291 474 241 80 87 96
290 474 242 95 100 110
290 475 242 107 112 122
292 472 240 56 68 80
292 473 240 56 66 78
293 472 240 61 70 81
293 473 240 61 69 80
292 474 240 62 69 79
292 474 241 79 85 94
293 474 240 59 68 78
294 474 240 59 68 79
307 448 231 47 59 72
307 449 231 49 61 73
307 450 231 52 65 78
307 451 231 55 68 83
307 452 231 58 72 87
307 453 231 62 76 90
307 454 231 61 75 90
307 455 231 61 76 91
309 448 229 49 62 75
309 449 229 53 66 79
308 448 231 50 62 75
308 449 231 53 65 77
309 448 230 49 62 75
309 449 230 55 67 80
309 450 229 50 64 78
309 451 229 52 66 79
308 450 231 54 67 80
308 451 230 57 71 85
308 451 231 56 70 84
309 450 230 53 66 79
309 451 230 54 68 82
310 448 229 46 60 73
310 449 229 51 64 77
311 448 228 44 58 72
311 449 228 49 62 75
310 450 229 51 64 77
310 451 229 53 67 80
311 450 228 52 65 78
311 451 228 52 65 78
311 453 227 60 73 87
311 454 227 63 77 92
311 455 227 63 79 95
309 452 229 57 70 84
309 453 229 58 71 85
308 452 230 64 77 91
308 452 231 60 74 88
308 453 230 66 79 93
308 453 231 62 75 90
309 452 230 59 72 87
309 453 230 62 75 88
309 454 229 61 75 89
309 455 229 63 77 93
308 454 230 62 76 91
308 454 231 60 75 90
308 455 230 65 80 95
308 455 231 63 78 93
309 454 230 60 74 89
309 455 230 65 80 95
310 452 228 58 71 84
310 452 229 58 71 85
310 453 228 59 73 87
310 453 229 60 73 87
311 452 228 55 69 82
311 453 228 59 72 86
310 454 228 58 73 89
310 454 229 60 74 89
310 455 228 62 78 94
310 455 229 61 76 92
311 454 228 56 72 87
311 455 228 61 78 95
305 448 233 47 59 71
305 449 233 47 59 72
304 448 234 44 59 74
304 448 235 51 65 79
304 449 234 46 62 77
304 449 235 51 67 82
305 448 234 44 58 72
305 449 234 43 58 72
305 450 233 53 64 77
305 451 233 53 68 82
304 450 234 53 68 82
304 450 235 57 71 87
304 451 234 55 70 86
304 451 235 57 72 88
305 450 234 49 63 77
305 451 234 51 66 81
306 448 232 51 62 73
306 448 233 51 61 72
306 449 232 50 62 74
306 449 233 51 62 73
307 448 232 51 62 73
307 449 232 50 61 73
306 450 232 59 69 81
306 450 233 57 67 79
306 451 232 58 70 83
306 451 233 58 70 83
307 450 232 55 66 79
307 451 232 55 68 82
305 452 233 56 71 87
305 453 233 58 74 90
304 452 234 58 74 90
304 452 235 59 75 90
304 453 234 57 74 90
304 455 233 58 76 93
305 454 233 61 77 93
305 455 233 60 77 94
304 454 234 58 76 92
304 455 234 57 75 92
306 452 232 60 73 87
306 452 233 60 73 87
306 453 232 62 75 90
306 453 233 62 76 90
307 452 232 59 73 87
306 454 232 63 77 92
306 455 232 61 77 93
306 456 231 67 81 96
307 456 231 62 78 93
307 457 231 61 77 93
306 458 231 52 67 82
306 459 231 52 67 80
307 458 230 50 68 85
307 458 231 50 67 83
307 459 230 49 65 80
307 459 231 52 66 80
305 462 231 48 59 71
305 463 231 50 61 73
306 460 231 47 61 74
306 461 231 45 59 71
307 460 230 47 62 76
307 460 231 48 62 75
307 461 230 46 59 72
307 461 231 45 59 71
306 462 231 48 60 72
306 463 231 51 61 72
307 462 230 46 59 72
307 463 230 48 60 73
311 456 227 66 82 98
311 457 226 69 84 101
311 457 227 66 83 99
310 458 227 57 75 92
310 459 227 52 69 85
311 458 226 65 81 97
311 458 227 63 80 96
311 459 226 57 73 89
311 459 227 54 71 87
309 456 229 65 80 96
309 457 229 64 81 98
308 456 230 64 79 95
308 457 230 62 79 96
309 456 230 67 82 98
309 457 230 65 82 99
308 458 229 58 74 90
308 459 229 53 69 85
309 458 228 58 74 91
309 458 229 59 75 92
309 459 228 53 69 84
309 459 229 51 68 83
308 458 230 58 75 91
308 459 230 54 70 85
310 456 228 63 80 97
310 456 229 66 82 98
310 457 228 65 83 99
310 457 229 68 84 100
311 456 228 62 79 96
310 458 228 60 77 94
310 459 228 53 70 86
310 460 227 47 63 78
310 461 227 45 60 74
311 460 226 52 67 82
311 460 227 49 66 81
311 461 226 48 62 75
311 461 227 47 61 75
310 462 227 46 59 71
310 463 227 46 58 71
311 462 226 47 59 71
311 462 227 45 58 71
311 463 226 47 59 71
311 463 227 46 58 71
308 460 229 47 63 77
308 461 229 46 61 74
309 460 228 47 63 77
309 460 229 47 63 77
309 461 228 45 60 73
309 461 229 43 58 72
308 460 230 51 67 81
308 462 229 46 59 73
308 463 229 47 60 73
309 462 228 44 58 70
309 463 228 46 59 71
310 460 228 49 64 79
310 461 228 46 60 74
310 462 228 47 60 72
310 463 228 48 60 72
304 456 233 60 78 95
304 457 233 60 78 96
305 456 233 58 76 93
305 457 233 58 77 94
304 456 234 58 76 92
304 457 234 58 76 93
304 458 233 58 74 90
304 459 233 53 68 83
305 458 232 55 72 88
305 458 233 55 72 88
305 459 232 50 65 80
305 459 233 49 66 81
304 458 234 55 73 90
304 459 234 52 68 83
306 456 232 64 79 95
306 457 232 64 79 96
306 458 232 56 72 88
306 459 232 54 69 83
304 460 233 48 62 76
304 461 233 48 61 74
305 460 232 48 62 76
305 461 232 49 62 74
304 460 234 51 65 79
304 462 232 49 61 73
304 462 233 50 61 73
304 463 233 49 60 72
305 462 232 49 61 73
305 463 232 51 62 74
306 460 232 50 64 78
312 448 227 54 65 77
312 449 227 53 64 76
313 448 226 46 61 74
313 448 227 47 61 73
313 449 226 50 62 75
313 449 227 50 62 74
312 450 227 54 66 79
312 451 226 52 64 77
312 451 227 54 66 79
313 450 226 49 62 74
313 450 227 49 62 74
313 451 226 49 62 75
314 448 225 52 64 76
314 449 225 48 59 70
315 448 224 50 61 73
315 448 225 50 61 72
315 449 224 49 59 70
315 449 225 48 58 69
314 448 226 49 62 75
314 449 226 50 62 74
314 450 225 49 60 72
314 451 225 49 60 72
315 450 224 50 59 70
315 450 225 49 59 70
315 451 224 47 58 69
312 448 228 53 64 77
312 449 228 53 65 78
312 452 226 52 65 78
312 452 227 57 70 83
312 453 227 59 72 86
313 452 226 50 63 77
313 453 226 51 65 79
313 454 225 56 69 83
313 455 225 58 72 87
312 454 226 59 73 87
312 454 227 62 76 90
312 455 226 61 76 91
312 455 227 63 78 94
313 454 226 52 67 82
313 455 226 58 73 88
314 452 225 50 61 74
314 453 225 51 63 76
315 452 224 49 60 71
315 453 224 53 64 76
314 454 224 53 66 79
314 454 225 55 67 80
314 455 224 59 71 84
314 455 225 60 73 86
315 454 224 53 65 78
315 455 224 57 70 84
316 448 224 50 62 74
316 449 224 51 61 72
316 450 224 51 61 72
313 456 225 62 76 91
313 457 225 64 79 94
312 456 226 63 78 94
312 457 226 63 79 96
313 456 226 64 79 94
312 458 225 55 73 90
312 459 225 54 70 87
313 458 225 62 76 92
313 459 225 55 70 85
312 458 226 62 79 95
312 459 226 54 72 88
314 456 224 61 74 88
314 456 225 62 75 89
314 457 224 61 75 89
314 457 225 60 75 90
315 456 224 62 74 88
314 458 224 60 74 89
314 459 224 54 69 83
312 460 225 49 64 79
312 461 225 46 60 73
313 460 224 51 64 78
313 460 225 52 66 80
313 461 224 50 61 73
313 461 225 50 62 74
312 460 226 48 64 80
312 461 226 46 60 74
312 462 225 46 58 69
312 463 225 47 58 69
313 462 224 49 59 70
313 462 225 50 60 71
313 463 224 47 58 69
313 463 225 49 59 70
314 460 224 48 62 76
314 461 224 47 59 72
314 462 224 47 57 68
314 463 224 45 56 68
305 464 231 49 61 72
305 465 231 46 59 72
305 466 231 46 59 72
305 467 231 47 60 72
307 464 229 48 61 74
306 464 230 52 62 73
306 464 231 51 61 73
306 465 230 52 62 73
306 465 231 50 61 72
307 464 230 51 62 74
307 465 230 50 61 73
307 467 229 44 57 70
306 466 230 52 61 71
306 466 231 50 61 72
306 467 230 50 60 71
306 467 231 49 59 71
307 466 230 49 60 71
307 467 230 47 59 70
305 468 231 48 59 70
305 469 231 52 62 73
307 468 229 47 59 71
306 468 230 50 61 72
306 468 231 49 60 70
306 469 231 51 62 73
307 468 230 48 60 72
310 464 227 47 59 71
310 465 227 47 59 71
311 464 226 46 58 70
311 464 227 46 59 71
311 465 226 47 59 71
311 465 227 48 60 72
310 466 227 48 59 71
310 467 227 47 58 69
311 466 226 49 60 71
311 466 227 48 59 71
308 464 229 48 61 75
308 465 229 50 63 77
309 464 228 49 61 74
309 465 228 47 60 73
308 466 228 44 59 72
308 466 229 49 62 75
308 467 228 42 56 69
308 467 229 44 57 70
309 466 228 45 59 71
309 467 228 43 56 69
310 464 228 50 62 74
310 465 228 47 60 72
308 468 229 48 58 70
304 464 233 49 60 72
304 465 232 48 60 73
304 465 233 50 62 73
305 464 232 52 63 75
305 465 232 51 62 75
304 466 232 47 60 73
304 466 233 48 60 73
304 467 232 48 61 75
304 467 233 48 61 73
305 466 232 48 61 74
305 467 232 49 62 75
304 468 232 46 60 73
304 468 233 47 60 73
304 469 232 46 58 72
304 469 233 46 58 72
305 468 232 49 61 74
305 469 232 52 63 76
304 470 233 47 59 73
312 464 225 45 57 69
312 465 225 46 57 69
313 464 224 45 57 69
313 464 225 50 60 71
313 465 224 46 57 69
313 465 225 49 59 71
312 466 225 47 58 70
314 464 224 45 57 68
314 465 224 45 57 69
323 384 188 41 49 57
323 384 189 44 52 61
323 385 188 42 49 58
323 385 189 45 52 61
323 384 190 44 52 61
323 384 191 42 51 60
323 385 190 43 51 60
323 385 191 41 50 58
323 386 188 44 52 60
323 386 189 45 53 61
323 387 188 42 50 59
323 387 189 43 51 60
323 386 190 44 52 61
323 386 191 43 51 59
323 387 190 42 50 59
323 387 191 40 49 57
323 388 188 43 51 59
323 388 189 41 50 58
323 389 188 43 52 60
323 389 189 43 51 60
323 388 190 41 49 58
323 388 191 40 49 57
323 389 190 41 50 58
323 389 191 41 50 58
323 390 188 45 53 61
323 390 189 45 53 61
323 391 188 45 52 61
323 391 189 45 53 61
323 390 190 43 51 60
323 390 191 42 50 58
323 391 190 43 51 60
324 390 191 41 50 58
324 391 190 41 50 58
324 391 191 41 50 59
323 392 188 42 50 58
323 392 189 41 49 58
323 393 188 42 49 58
323 393 189 42 50 59
323 392 190 41 49 58
323 393 190 42 50 59
323 394 188 43 50 59
323 394 189 43 51 60
323 395 188 43 50 59
323 395 189 43 51 60
323 396 188 44 52 61
323 396 189 44 53 62
323 397 189 45 54 63
323 398 189 45 53 62
323 399 189 43 52 60
324 392 190 41 50 58
324 392 191 42 50 59
324 393 190 42 51 59
324 393 191 43 51 61
324 394 190 42 51 60
324 394 191 42 51 61
324 395 190 44 53 61
324 395 191 45 53 62
324 396 190 45 54 63
324 396 191 45 54 63
324 397 190 46 54 63
324 397 191 45 54 63
324 398 189 45 53 62
324 399 189 44 52 61
324 398 190 45 54 63
324 398 191 43 52 61
324 399 190 44 53 62
324 399 191 45 53 62
323 400 189 40 49 57
323 401 189 39 47 56
323 402 189 40 48 57
323 403 189 41 49 58
323 404 189 40 49 57
323 405 189 39 47 56
324 400 189 41 49 58
324 401 189 39 47 55
324 400 190 42 50 59
324 400 191 41 49 58
324 401 190 39 47 56
324 401 191 39 47 56
324 402 189 39 47 56
324 403 189 41 49 57
324 402 190 38 46 55
324 402 191 40 48 57
324 403 190 40 47 56
324 403 191 41 49 58
324 404 189 40 48 56
324 405 189 40 48 57
324 404 190 40 48 56
324 404 191 43 51 59
324 405 190 40 48 57
324 405 191 42 51 59
324 406 189 44 51 59
324 407 189 44 52 60
324 406 190 43 51 59
324 406 191 45 53 61
324 407 190 43 50 59
324 407 191 44 52 60
324 408 189 42 50 59
324 409 189 41 49 57
324 408 190 40 48 57
324 408 191 42 51 60
324 409 190 40 49 58
324 409 191 44 53 63
324 410 189 40 48 56
324 411 189 40 48 57
324 410 190 43 52 61
324 410 191 46 55 65
324 411 190 43 52 61
324 411 191 45 54 64
325 411 191 45 55 65
324 412 189 40 48 57
324 413 189 40 48 56
324 412 190 43 52 60
324 412 191 46 55 65
324 413 190 43 51 60
325 412 191 47 56 66
325 413 191 46 55 64
324 414 189 39 47 56
324 415 189 40 48 56
324 414 190 41 49 58
324 415 190 40 48 56
325 414 191 45 53 63
325 415 190 40 48 57
325 415 191 43 51 61
324 416 189 39 47 55
325 416 189 40 48 56
325 417 189 41 49 58
325 416 190 41 49 57
325 416 191 43 52 61
325 417 190 43 51 59
325 417 191 45 54 63
325 418 189 42 50 58
325 419 189 44 53 61
325 418 190 43 52 61
325 418 191 47 55 64
325 419 190 46 55 64
325 419 191 48 56 66
325 420 189 44 52 61
325 421 189 43 52 61
325 420 190 45 54 63
325 420 191 49 58 67
325 421 190 44 53 63
325 421 191 48 57 67
325 422 189 44 53 62
325 423 189 44 54 64
325 422 190 46 55 65
325 422 191 48 57 66
325 423 190 47 56 66
325 423 191 51 60 70
325 424 189 43 53 63
325 425 189 43 53 64
325 424 190 46 56 66
325 424 191 51 60 70
325 425 190 46 56 67
325 425 191 49 59 70
325 426 189 45 55 65
325 427 189 45 55 65
325 426 190 45 56 67
325 426 191 47 58 69
325 427 190 46 57 67
326 424 191 51 61 72
326 425 191 50 60 71
326 426 191 49 60 71
326 427 191 46 57 69
325 428 189 44 54 63
325 429 189 46 55 65
325 428 190 45 55 65
325 429 190 46 56 65
325 430 189 46 55 64
325 431 189 45 54 63
326 428 190 46 56 66
326 428 191 45 56 68
326 429 190 47 57 66
326 429 191 48 58 69
326 430 189 46 55 64
326 431 189 45 54 63
326 430 190 48 56 66
326 430 191 49 59 69
326 431 190 46 55 65
326 431 191 49 59 69
326 432 189 48 57 66
326 433 189 49 57 66
326 432 190 49 58 67
326 432 191 49 58 68
326 433 190 53 61 70
326 433 191 53 61 70
326 434 189 48 57 66
326 435 189 48 57 67
326 434 190 56 63 72
326 434 191 57 64 73
326 435 190 52 60 70
326 435 191 55 63 72
326 436 189 46 56 66
326 437 189 47 57 67
326 436 190 51 60 70
326 436 191 52 61 71
326 437 190 51 60 70
326 437 191 50 60 70
326 438 189 49 58 68
326 439 189 46 56 67
326 438 190 54 63 73
326 438 191 52 61 72
326 439 190 52 61 72
326 439 191 51 61 72
326 440 189 44 55 66
326 441 189 45 56 66
326 440 190 50 59 70
326 440 191 49 59 70
326 441 190 50 59 69
326 441 191 54 62 71
326 442 189 45 55 66
326 443 189 43 55 66
326 442 190 49 58 69
326 442 191 52 60 70
326 443 190 48 57 68
326 443 191 50 58 68
326 444 189 44 55 65
326 445 189 45 55 66
326 444 190 49 58 68
326 444 191 50 58 68
326 445 190 49 58 68
326 445 191 49 57 67
326 446 189 46 56 66
326 447 189 46 55 64
326 446 190 51 59 69
326 446 191 48 56 66
326 447 190 48 57 66
326 447 191 46 55 64
327 446 191 44 53 62
327 447 191 43 52 62
323 384 192 41 50 59
323 384 193 44 53 62
323 385 192 40 49 58
323 385 193 42 51 60
323 386 192 42 50 59
323 386 193 44 52 61
323 387 192 41 50 58
323 387 193 45 53 62
323 388 192 41 49 58
323 388 193 43 51 61
323 389 192 42 50 59
324 384 193 45 54 63
324 384 194 48 56 66
324 384 195 47 57 67
324 385 194 47 56 65
324 385 195 48 57 66
324 386 194 47 56 65
324 386 195 47 57 66
324 387 194 48 57 66
324 387 195 47 56 66
324 384 196 45 56 66
324 384 197 44 54 64
324 385 196 45 55 65
324 385 197 44 54 64
324 384 198 45 54 64
324 384 199 46 55 64
324 385 198 44 53 63
324 385 199 43 53 62
324 386 196 46 55 66
324 386 197 45 54 64
324 387 196 46 55 66
324 387 197 46 56 65
324 386 198 45 54 64
324 386 199 44 53 63
324 387 198 45 55 64
324 387 199 44 53 64
324 388 193 44 52 62
324 389 192 43 51 60
324 389 193 44 53 62
324 388 194 47 56 65
324 388 195 48 57 67
324 389 194 45 55 64
324 389 195 46 56 66
324 390 192 43 51 60
324 390 193 46 54 63
324 391 192 43 51 61
324 391 193 46 55 64
324 390 194 46 55 65
324 390 195 45 56 66
324 391 194 47 56 66
324 391 195 46 56 67
324 388 196 46 55 66
324 388 197 45 54 65
324 389 196 45 55 66
324 389 197 43 53 64
324 388 198 46 55 64
324 388 199 44 54 64
324 389 198 45 54 64
324 389 199 45 54 65
324 390 196 44 55 65
324 390 197 43 53 64
324 391 196 45 55 66
324 391 197 44 54 64
325 391 197 44 54 63
324 390 198 43 53 63
324 390 199 44 54 64
324 391 198 44 53 63
325 391 198 45 53 63
325 391 199 44 53 62
324 384 200 46 55 65
324 385 200 43 52 62
324 385 201 43 52 62
325 384 200 46 55 64
325 384 201 45 54 64
325 385 200 44 53 62
325 385 201 44 53 63
324 385 202 43 52 62
325 384 202 44 53 63
325 384 203 42 53 63
325 385 202 43 53 62
325 385 203 44 53 64
324 386 200 43 53 62
324 386 201 43 53 62
324 387 200 43 53 63
324 387 201 42 52 62
324 386 202 43 53 63
324 386 203 44 54 64
324 387 202 43 53 63
324 387 203 44 54 65
325 384 204 43 54 65
325 384 205 42 54 65
325 385 204 44 55 65
325 385 205 44 54 65
324 384 207 40 51 62
324 385 206 43 54 64
324 385 207 41 52 62
325 384 206 43 53 64
325 384 207 42 52 63
325 385 206 42 53 64
324 386 204 45 55 65
324 386 205 43 54 64
324 387 204 43 54 65
324 387 205 45 55 66
324 386 206 43 53 64
324 386 207 42 52 62
324 387 206 45 55 65
324 387 207 43 53 63
324 388 200 43 53 63
324 388 201 42 52 63
324 389 200 44 54 64
324 389 201 43 53 63
324 388 202 42 52 63
324 388 203 43 54 64
324 389 202 42 52 62
324 389 203 42 52 63
324 390 200 45 54 64
324 390 201 42 52 63
325 390 201 43 53 63
325 391 200 43 52 62
325 391 201 44 53 63
324 390 202 42 52 62
324 390 203 41 52 62
324 391 203 42 52 63
325 391 202 43 53 63
325 391 203 43 53 63
324 388 204 43 54 65
324 388 205 46 56 67
324 389 204 42 53 64
324 389 205 43 54 65
324 388 206 44 55 65
324 388 207 42 53 63
324 389 206 42 53 64
324 389 207 41 52 63
324 390 204 42 53 64
324 390 205 42 54 65
324 391 204 43 53 64
324 391 205 42 53 64
325 391 204 44 54 64
325 391 205 42 53 64
324 390 206 41 53 64
324 390 207 41 52 63
324 391 206 40 52 64
324 391 207 39 51 62
325 391 206 40 52 64
325 391 207 38 50 62
324 392 192 43 52 61
324 392 193 45 54 64
324 393 192 44 54 63
324 393 193 46 56 66
324 392 194 46 57 67
324 392 195 46 57 68
324 393 194 47 57 68
324 393 195 45 56 67
324 394 192 43 53 63
324 394 193 47 56 66
324 395 192 45 54 63
324 395 193 47 57 66
324 394 194 49 59 69
324 394 195 47 58 69
324 395 194 51 60 70
324 395 195 49 60 71
325 395 195 49 59 70
324 392 196 45 56 67
324 393 196 44 56 67
325 392 196 44 55 66
325 392 197 44 55 65
325 393 196 43 55 66
325 393 197 45 55 65
325 392 198 44 54 63
325 392 199 44 53 62
325 393 198 45 54 64
325 393 199 44 53 62
325 394 196 43 55 67
325 394 197 43 54 65
325 395 196 46 57 69
325 395 197 44 55 66
325 394 198 44 54 64
325 394 199 45 54 63
325 395 198 43 53 63
325 395 199 43 52 62
324 396 192 46 54 64
324 396 193 48 57 66
324 397 192 45 54 63
324 397 193 47 56 66
324 396 194 49 59 69
324 396 195 50 60 70
324 397 194 48 57 67
325 396 195 48 58 69
325 397 194 47 57 67
325 397 195 47 57 68
324 398 192 44 53 62
324 398 193 45 54 64
324 399 192 43 52 61
324 399 193 45 53 63
324 398 194 47 56 66
325 398 194 48 57 67
325 398 195 47 57 67
325 399 194 49 57 67
325 399 195 48 58 68
325 396 196 45 56 67
325 396 197 43 54 65
325 397 196 44 55 66
325 397 197 42 53 64
325 396 198 42 53 63
325 396 199 42 52 62
325 397 198 44 54 64
325 397 199 46 55 64
325 398 196 46 56 67
325 398 197 44 55 65
325 399 196 45 56 66
325 399 197 44 54 65
325 398 198 44 54 64
325 398 199 46 54 64
325 399 198 42 53 63
325 399 199 43 52 61
325 392 200 42 51 60
325 392 201 43 52 61
325 393 200 43 52 61
325 393 201 42 51 61
325 392 202 45 54 63
325 392 203 45 54 63
325 393 202 43 52 61
325 393 203 45 54 63
325 394 200 43 52 62
325 394 201 42 51 60
325 395 200 42 51 61
325 395 201 41 50 60
325 394 202 43 52 61
325 394 203 43 52 61
325 395 202 43 52 61
325 395 203 45 53 62
325 392 204 44 53 63
325 392 205 43 53 64
325 393 204 45 54 63
325 393 205 45 54 64
325 392 206 40 52 64
325 392 207 39 51 63
325 393 206 43 53 64
325 393 207 40 51 63
325 394 204 44 53 62
325 394 205 46 54 64
325 395 204 44 53 62
325 395 205 44 53 63
325 394 206 44 53 63
325 394 207 41 52 62
325 395 206 42 52 61
325 395 207 41 51 61
325 396 200 42 51 61
325 396 201 43 52 61
325 397 200 45 53 63
325 397 201 43 52 62
325 396 202 42 51 61
325 396 203 44 53 62
325 397 202 44 53 63
325 397 203 45 54 63
325 398 200 46 54 63
325 398 201 43 52 61
325 399 200 43 52 62
325 399 201 43 52 61
325 398 202 41 51 61
325 398 203 43 52 62
325 399 202 41 51 61
325 399 203 41 50 61
325 396 204 46 54 63
325 396 205 47 55 65
325 397 204 45 54 63
325 397 205 46 55 65
325 396 206 43 53 63
325 396 207 42 52 62
325 397 206 45 54 64
325 397 207 44 53 63
325 398 204 42 52 62
325 398 205 43 53 63
325 399 204 43 53 63
325 399 205 41 52 62
325 398 206 43 53 63
325 398 207 42 52 62
325 399 206 42 52 62
325 399 207 44 53 63
321 384 215 41 51 61
321 385 215 42 52 62
321 386 215 43 53 63
321 387 215 43 53 63
323 384 213 41 51 62
323 385 212 40 51 62
323 385 213 42 53 64
322 384 214 43 52 62
322 384 215 41 51 61
322 385 214 44 54 65
322 385 215 41 52 63
323 386 212 42 52 63
323 386 213 42 53 64
323 387 212 43 53 63
323 387 213 44 54 64
322 386 214 44 54 65
322 386 215 45 55 65
322 387 214 43 54 65
322 387 215 45 55 66
323 386 214 43 53 64
323 387 214 43 54 65
321 388 215 42 52 62
321 390 215 43 52 62
321 391 215 43 53 62
323 388 212 43 52 62
323 388 213 45 54 64
323 389 212 42 52 62
323 389 213 44 54 64
322 388 214 45 55 65
322 388 215 44 54 64
322 389 214 45 55 65
322 389 215 44 54 64
323 388 214 46 55 66
323 389 214 45 55 65
323 390 212 43 53 63
323 390 213 43 53 63
323 391 212 43 52 62
323 391 213 43 53 63
322 390 214 43 53 63
322 390 215 44 53 64
322 391 214 43 53 64
322 391 215 43 53 63
323 390 214 44 54 64
323 391 214 44 54 64
324 384 208 40 51 61
324 384 209 43 52 62
324 385 208 40 51 61
324 385 209 42 51 61
325 384 208 42 52 62
324 384 210 44 53 63
324 384 211 43 53 63
324 385 210 43 52 62
324 385 211 43 52 63
324 386 208 43 52 62
324 386 209 43 52 61
324 387 208 43 52 61
324 387 209 44 52 61
324 386 210 42 50 60
324 386 211 41 51 61
324 387 210 44 52 61
324 387 211 43 52 61
324 384 212 40 51 62
324 385 212 39 51 62
324 386 212 40 51 62
324 387 212 42 51 61
324 388 208 44 53 63
324 388 209 44 52 61
324 389 208 43 52 62
324 389 209 43 51 60
324 388 210 44 52 61
324 388 211 43 52 61
324 389 210 42 51 60
324 389 211 42 51 60
324 390 208 43 52 63
324 390 209 43 51 61
324 391 208 42 52 63
324 391 209 44 53 63
324 390 210 42 51 60
324 390 211 43 52 61
324 391 210 44 52 62
324 391 211 42 52 61
324 388 212 42 51 61
324 389 212 41 51 61
324 390 212 43 52 62
320 384 216 44 54 64
320 385 216 43 54 64
320 386 216 45 54 64
320 387 216 44 53 63
320 387 217 44 53 63
321 386 216 44 53 63
321 387 216 43 53 63
320 388 216 43 53 62
320 388 217 45 54 64
320 389 216 44 53 63
320 389 217 45 54 64
321 388 216 42 51 61
321 389 216 43 52 62
320 390 216 45 54 64
320 390 217 45 54 64
320 391 217 46 55 65
321 390 216 43 52 62
321 391 216 44 53 63
323 392 211 42 52 62
321 392 215 43 53 63
321 393 215 44 55 65
323 392 212 43 53 63
323 392 213 44 54 64
323 393 212 43 53 63
323 393 213 44 54 65
322 392 214 46 56 66
322 392 215 46 55 66
322 393 214 45 55 65
322 393 215 46 56 66
323 392 214 45 55 65
323 393 214 46 56 66
323 394 212 42 52 63
323 394 213 44 54 65
323 395 212 43 53 62
323 395 213 43 53 63
322 394 214 44 55 65
322 394 215 42 53 64
322 395 214 43 54 65
322 395 215 42 53 64
323 394 214 46 56 67
323 395 214 44 54 65
323 396 212 43 52 62
323 396 213 43 53 63
323 397 213 42 52 63
322 396 215 43 53 64
322 397 215 42 53 64
323 396 214 43 54 64
323 397 214 42 53 65
323 398 213 42 53 64
323 399 213 43 54 65
322 398 215 42 54 65
322 399 215 44 55 66
323 398 214 42 53 65
323 399 214 43 55 66
324 392 208 41 51 62
324 392 209 42 52 61
324 393 209 44 53 63
325 392 208 40 51 62
325 393 208 42 52 63
325 393 209 45 54 64
324 392 210 43 52 62
324 392 211 44 53 62
324 393 210 43 52 62
324 393 211 42 51 61
324 394 209 47 55 65
325 394 208 42 52 62
325 394 209 45 54 64
325 395 208 43 53 62
325 395 209 46 55 64
324 394 210 46 55 64
324 394 211 43 53 62
324 395 210 46 54 63
324 395 211 44 53 62
325 395 210 47 55 64
324 392 212 43 53 63
324 394 212 43 53 63
324 395 212 44 53 62
325 396 208 42 51 61
325 396 209 43 52 62
325 397 208 44 53 62
325 397 209 46 53 62
324 396 210 44 53 63
324 396 211 43 52 62
324 397 211 44 52 61
325 396 210 44 53 62
325 397 210 46 53 62
325 398 208 44 52 61
325 398 209 44 52 61
325 399 208 44 53 62
325 399 209 44 53 62
324 398 211 45 53 62
324 399 211 46 54 63
325 398 210 46 53 62
325 399 210 46 54 63
325 399 211 47 55 64
324 396 212 43 52 61
324 396 213 42 52 61
324 397 212 42 51 61
324 398 212 42 52 62
324 399 212 44 54 64
320 392 217 45 55 65
320 393 217 45 55 66
321 392 216 44 54 64
321 393 216 44 54 64
320 394 217 46 57 68
320 395 217 47 59 69
321 394 216 43 54 65
321 395 216 43 55 66
321 395 217 45 57 69
320 395 218 45 57 69
322 395 216 42 53 64
320 396 217 45 57 70
321 396 216 43 55 66
321 396 217 44 57 70
321 397 216 42 54 66
321 397 217 43 56 69
320 396 218 44 57 71
320 397 218 46 59 71
321 398 216 43 54 66
321 398 217 47 58 70
321 399 216 45 55 67
321 399 217 48 59 70
320 398 218 47 58 70
320 398 219 45 56 68
320 399 218 50 60 71
320 399 219 49 59 70
321 399 218 49 60 71
322 396 216 42 53 64
322 397 216 43 54 65
322 398 216 42 53 64
322 399 216 44 55 66
324 400 192 41 50 59
324 400 193 44 53 62
324 401 192 41 50 59
324 401 193 44 53 63
325 400 193 45 54 63
325 401 193 45 54 64
325 400 194 47 56 65
325 400 195 46 56 66
325 401 194 48 56 66
325 401 195 46 56 65
324 402 192 42 51 59
324 402 193 46 54 63
324 403 192 43 51 60
324 403 193 46 55 64
324 402 194 47 56 65
324 403 194 47 56 65
324 403 195 46 55 64
325 402 194 48 56 66
325 402 195 46 56 65
325 403 195 46 55 65
325 400 196 43 54 65
325 400 197 42 53 63
325 401 196 45 54 64
325 401 197 44 54 64
325 400 198 42 52 62
325 400 199 40 50 60
325 401 198 43 52 62
325 401 199 43 52 62
324 403 196 45 54 63
325 402 196 45 54 63
325 402 197 44 53 63
325 403 196 46 54 63
325 403 197 45 53 62
325 402 198 43 52 62
325 402 199 42 51 61
325 403 198 44 53 62
325 403 199 43 52 61
324 404 192 45 53 62
324 404 193 46 55 64
324 405 192 45 53 63
324 405 193 45 55 64
324 404 194 44 53 63
324 404 195 44 53 63
324 405 194 43 53 63
324 405 195 43 53 63
324 406 192 47 55 64
324 406 193 47 55 65
324 407 192 48 56 65
324 407 193 48 57 66
324 406 194 44 54 64
324 406 195 43 53 64
324 407 194 46 55 66
324 407 195 44 54 65
325 407 194 46 56 66
325 407 195 45 56 66
324 404 196 44 53 62
324 405 196 43 52 62
324 405 197 44 52 61
325 404 197 46 53 62
325 405 197 44 52 61
325 404 198 45 53 62
325 404 199 44 52 61
325 405 198 45 53 61
325 405 199 44 52 61
324 406 196 44 54 64
324 406 197 44 53 62
325 407 196 44 54 64
325 407 197 45 54 64
325 406 198 44 52 61
325 406 199 43 52 61
325 407 198 45 54 63
325 407 199 45 53 63
325 400 200 41 50 59
325 400 201 42 51 60
325 401 200 43 51 61
325 401 201 42 50 60
325 400 202 41 51 61
325 400 203 41 52 62
325 401 202 40 50 60
325 401 203 40 51 62
325 402 200 43 52 61
325 402 201 44 52 61
325 403 200 42 51 60
325 403 201 43 52 61
325 402 202 44 53 62
325 402 203 44 54 64
325 403 202 45 53 63
325 403 203 45 54 63
325 400 204 44 54 64
325 400 205 45 55 65
325 401 204 42 53 63
325 401 205 42 53 64
325 400 206 44 53 64
325 400 207 43 53 63
325 401 206 42 52 63
325 401 207 42 52 62
325 402 204 44 55 65
325 402 205 44 55 65
325 403 204 45 54 64
325 403 205 45 55 65
325 402 206 43 53 63
325 402 207 42 52 62
325 403 206 45 54 64
325 403 207 45 54 64
325 404 200 43 52 61
325 404 201 42 51 60
325 405 200 44 52 61
325 405 201 43 52 61
325 404 202 42 51 61
325 404 203 42 52 62
325 405 202 42 51 61
325 405 203 42 52 63
325 406 200 43 52 62
325 406 201 44 53 63
325 407 200 43 53 63
325 407 201 42 52 62
325 406 202 44 53 63
325 406 203 43 53 63
325 407 202 43 53 63
325 407 203 43 53 63
325 404 204 42 53 63
325 404 205 43 53 64
325 405 204 43 53 64
325 405 205 43 53 64
324 405 207 43 52 62
325 404 206 43 53 63
325 404 207 44 54 64
325 405 206 43 53 63
325 405 207 42 52 63
325 406 204 44 54 64
325 406 205 43 53 64
325 407 204 44 54 64
325 407 205 43 54 64
324 406 206 42 53 63
324 406 207 42 52 62
324 407 207 42 52 62
325 406 206 43 53 64
325 407 206 42 53 63
325 407 207 42 52 63
324 408 192 49 57 66
324 408 193 49 58 68
324 409 192 48 57 66
325 408 193 49 58 68
325 409 192 48 57 68
325 409 193 48 58 68
325 408 194 48 58 68
325 408 195 47 57 67
325 409 194 48 58 68
325 409 195 47 57 68
325 410 192 48 58 68
325 410 193 48 58 68
325 411 192 46 57 67
325 411 193 47 58 68
325 410 194 47 57 68
325 410 195 46 57 67
325 411 194 47 57 68
325 411 195 45 56 67
325 408 196 44 55 65
325 408 197 43 54 64
325 409 196 46 57 67
325 409 197 44 54 65
325 408 198 43 53 63
325 408 199 43 53 63
325 409 198 42 53 63
325 409 199 40 51 61
325 410 196 46 56 67
325 410 197 43 54 65
325 411 196 45 56 67
325 411 197 44 55 66
325 410 198 43 53 64
325 410 199 42 53 63
325 411 198 43 54 64
325 411 199 43 53 63
326 411 199 42 53 63
325 412 192 47 57 67
325 412 193 47 57 67
325 413 192 48 57 67
325 413 193 47 58 68
325 412 194 46 57 68
325 412 195 44 56 67
325 413 194 47 57 68
325 413 195 46 57 68
325 414 192 48 57 67
325 414 193 48 58 68
325 415 192 49 58 67
325 415 193 49 59 69
325 414 194 46 57 68
325 414 195 46 56 67
325 415 194 47 57 68
325 415 195 45 56 66
325 412 196 42 54 66
325 412 197 41 53 65
325 413 196 45 56 67
325 413 197 42 54 65
325 412 198 41 52 63
325 412 199 42 52 62
325 414 196 45 55 66
325 415 196 46 56 66
326 413 197 43 54 65
326 412 198 39 51 62
326 412 199 40 51 61
326 413 198 41 53 64
326 413 199 39 50 61
326 414 197 44 54 65
326 415 196 45 55 66
326 415 197 45 55 65
326 414 198 41 52 63
326 414 199 40 51 61
326 415 198 43 53 63
326 415 199 42 52 62
325 408 200 43 53 63
325 408 201 42 52 62
325 409 200 40 51 62
325 409 201 41 51 62
325 408 202 41 51 62
325 408 203 42 52 63
325 409 202 40 51 62
325 409 203 41 52 62
325 410 200 42 52 62
325 410 201 40 50 61
325 410 202 39 50 61
325 410 203 40 51 62
325 411 202 41 51 61
325 411 203 41 52 62
326 410 200 42 52 62
326 410 201 41 51 62
326 411 200 42 52 62
326 411 201 42 52 62
326 411 202 42 52 62
325 408 204 42 53 64
325 408 205 43 54 64
325 409 204 40 51 62
325 409 205 42 53 63
325 408 206 43 53 64
325 408 207 42 52 62
325 409 206 42 52 63
325 409 207 42 52 63
325 410 204 42 52 63
325 410 205 43 53 64
325 411 204 42 53 63
325 411 205 44 53 63
325 410 206 42 53 63
325 410 207 41 51 61
325 411 206 43 53 63
325 411 207 42 52 62
325 412 203 45 54 63
325 413 203 46 54 64
325 415 201 43 53 63
325 414 202 41 51 62
325 414 203 44 53 63
325 415 202 42 52 63
325 415 203 43 52 62
326 412 200 41 51 61
326 412 201 42 51 61
326 413 200 39 50 60
326 413 201 42 52 62
326 412 202 45 53 62
326 412 203 45 54 63
326 413 202 45 54 63
326 413 203 46 54 63
326 414 200 40 50 61
326 414 201 40 51 61
326 415 200 43 52 62
326 415 201 43 53 63
326 414 202 44 53 63
326 414 203 45 54 64
325 412 204 44 53 63
325 412 205 45 54 63
325 413 204 46 55 64
325 413 205 45 54 63
325 412 206 45 54 63
325 412 207 44 53 62
325 413 206 45 54 63
325 413 207 45 54 63
325 414 204 45 54 63
325 414 205 44 53 63
325 415 204 43 53 63
325 415 205 43 52 62
325 414 206 44 53 63
325 414 207 44 53 62
325 415 206 42 51 61
325 415 207 41 51 61
323 400 213 44 55 66
323 401 212 45 55 66
323 401 213 44 55 66
322 400 214 43 54 66
322 400 215 45 56 67
322 401 214 42 54 66
322 401 215 44 55 66
323 400 214 43 55 66
323 401 214 43 55 66
323 402 212 44 54 65
323 402 213 45 56 67
323 403 212 46 56 66
323 403 213 44 55 66
322 402 214 44 55 67
322 402 215 45 56 67
322 403 214 44 55 66
322 403 215 46 56 66
323 402 214 45 56 67
323 403 214 44 55 66
323 404 212 46 56 66
323 404 213 46 56 67
323 405 213 44 55 66
322 404 214 44 55 66
322 404 215 46 56 67
322 405 214 43 54 65
322 405 215 45 55 65
323 404 214 44 55 66
323 405 214 44 55 66
323 406 213 45 54 65
323 407 213 44 54 65
322 406 214 42 54 65
322 406 215 42 53 64
322 407 214 43 54 65
322 407 215 42 54 65
323 406 214 42 54 65
323 407 214 43 54 65
325 400 208 44 53 62
325 400 209 45 53 62
325 401 208 43 52 62
325 401 209 45 54 63
324 400 211 47 55 64
324 401 211 46 55 64
325 400 210 46 54 63
325 400 211 47 55 64
325 401 210 46 54 64
325 401 211 46 54 64
325 402 208 44 53 63
325 402 209 46 54 63
325 403 208 45 54 64
325 403 209 47 55 64
324 402 211 45 54 64
324 403 210 46 54 64
324 403 211 46 55 64
325 402 210 46 54 64
325 403 210 46 54 64
324 400 212 45 54 64
324 401 212 45 55 65
324 402 212 43 53 64
324 403 212 46 55 65
324 404 208 45 53 62
324 404 209 48 55 64
324 405 208 44 52 61
324 405 209 47 54 62
325 404 208 47 55 64
325 404 209 47 55 64
324 404 210 46 54 64
324 404 211 45 53 63
324 405 210 47 54 63
324 405 211 46 54 64
324 406 208 43 52 61
324 406 209 45 53 61
324 407 208 42 51 61
324 407 209 44 52 61
324 406 210 47 54 62
324 406 211 46 54 64
324 407 210 45 53 62
324 407 211 45 53 62
324 404 212 45 54 64
324 405 212 45 54 64
324 405 213 44 54 64
324 406 212 45 55 65
324 406 213 45 55 65
324 407 212 45 54 63
324 407 213 45 54 64
321 400 216 46 57 67
321 400 217 48 59 70
321 401 216 46 57 68
321 401 217 51 61 72
320 400 218 50 61 72
320 400 219 50 60 71
320 401 218 51 61 72
320 401 219 48 60 71
321 400 218 49 60 71
321 401 218 51 61 72
321 402 216 46 57 68
321 402 217 48 59 71
321 403 216 44 55 66
321 403 217 45 57 70
320 402 218 48 60 72
320 402 219 48 60 72
320 403 218 49 61 74
320 403 219 51 62 75
321 402 218 47 59 71
322 400 216 45 56 67
322 401 216 44 55 66
322 402 216 44 55 66
321 404 216 44 55 66
321 404 217 43 56 68
321 405 216 44 55 65
321 405 217 43 56 68
320 404 218 47 60 73
320 404 219 47 60 72
320 405 218 48 60 73
320 405 219 50 62 74
321 406 216 44 55 66
321 406 217 42 56 69
321 407 216 43 55 67
321 407 217 42 55 68
320 406 218 47 60 73
320 406 219 50 62 74
320 407 218 46 59 72
320 407 219 48 61 73
321 407 218 45 58 71
322 407 216 42 54 65
323 408 213 45 54 64
323 409 213 44 53 63
322 408 214 42 54 66
322 408 215 42 53 65
322 409 214 41 53 65
322 409 215 42 54 65
323 408 214 43 54 65
323 409 214 41 53 65
323 410 213 45 54 64
323 411 213 46 55 65
322 410 214 43 55 66
322 410 215 43 55 67
322 411 214 46 57 69
322 411 215 47 58 70
323 410 214 43 55 66
323 411 214 46 56 66
323 412 213 47 55 65
323 413 213 47 56 65
322 412 214 47 58 69
322 412 215 46 58 70
322 413 214 46 57 68
322 413 215 44 56 69
323 412 214 47 56 67
323 413 214 46 56 66
323 414 213 47 56 65
323 415 213 46 55 64
322 414 214 43 54 66
322 414 215 43 55 67
322 415 214 44 55 66
322 415 215 43 55 67
323 414 214 45 54 65
323 415 214 45 55 65
324 408 208 42 51 61
324 408 209 44 52 61
324 409 209 44 52 61
325 408 208 41 51 61
325 409 208 42 51 61
325 409 209 43 51 60
324 408 210 45 53 62
324 408 211 45 53 62
324 409 210 46 53 62
324 409 211 46 53 62
324 410 209 43 51 60
325 410 208 40 50 59
325 410 209 42 51 60
325 411 208 42 51 61
325 411 209 43 51 60
324 410 210 44 52 60
324 410 211 44 52 60
324 411 210 45 53 61
324 411 211 46 53 61
325 411 210 45 52 61
324 408 212 45 54 63
324 408 213 46 54 63
324 409 212 46 54 62
324 410 212 45 53 62
324 410 213 46 54 63
324 411 212 45 52 61
324 411 213 46 54 62
325 412 208 43 52 61
325 412 209 44 52 61
325 413 208 44 53 62
325 413 209 44 52 61
324 412 210 46 53 61
324 412 211 44 52 60
324 413 211 45 52 60
325 412 210 46 53 61
325 413 210 47 53 61
325 414 208 45 53 62
325 414 209 45 53 62
325 415 208 41 50 60
325 415 209 43 51 60
324 414 210 47 53 61
324 414 211 45 52 61
324 415 210 45 52 61
324 415 211 47 54 62
325 414 210 47 53 61
325 415 210 45 52 61
324 412 212 45 52 61
324 412 213 46 54 63
324 413 212 45 53 62
324 413 213 46 54 63
324 414 212 46 54 63
324 414 213 47 55 64
324 415 212 46 54 64
321 408 216 43 55 66
321 408 217 43 56 69
321 409 216 43 55 67
321 409 217 42 55 68
320 408 218 47 60 72
320 408 219 47 59 71
320 409 218 48 60 72
320 409 219 49 61 73
321 408 218 46 59 72
321 409 218 46 59 71
321 410 216 44 57 68
321 410 217 46 58 70
321 411 216 47 59 71
321 411 217 50 61 73
320 410 218 50 62 74
320 410 219 52 63 74
320 411 218 55 66 77
320 411 219 55 66 77
321 410 218 50 62 74
321 411 218 54 65 77
322 408 216 43 54 66
322 409 216 43 55 66
322 410 216 44 57 69
322 411 216 47 59 71
320 408 220 48 60 72
320 409 220 48 60 72
320 410 220 52 63 75
320 411 220 55 65 76
321 412 216 46 58 70
321 412 217 47 59 71
321 413 216 47 59 71
321 413 217 49 60 72
320 412 218 49 61 73
320 412 219 50 62 74
320 413 218 53 64 76
320 413 219 52 63 75
321 414 216 45 57 69
321 414 217 50 61 72
321 415 216 46 58 69
321 415 217 50 60 72
320 414 218 56 67 78
320 414 219 54 65 76
320 415 218 53 64 75
320 415 219 52 63 74
322 412 216 47 59 71
322 413 216 45 57 70
322 414 216 44 56 68
322 415 216 45 57 69
320 412 220 48 60 72
320 413 220 50 62 74
320 414 220 51 63 75
320 415 220 50 62 74
325 416 192 47 56 65
325 416 193 47 57 67
325 417 192 48 57 66
325 417 193 46 56 66
325 416 194 46 56 67
325 416 195 45 55 66
325 417 194 45 55 66
325 417 195 43 54 65
325 418 192 51 59 69
325 418 193 49 58 68
325 419 192 50 59 69
325 419 193 49 58 68
325 418 194 47 57 67
325 419 194 49 58 68
326 417 194 44 54 65
326 417 195 43 53 64
326 418 194 45 55 66
326 418 195 44 54 65
326 419 194 47 57 67
326 419 195 45 55 65
325 417 198 46 55 65
325 417 199 45 54 64
325 418 198 47 56 65
325 418 199 46 55 64
325 419 198 46 55 65
325 419 199 45 54 64
326 416 196 46 55 66
326 416 197 47 56 66
326 417 196 46 56 66
326 417 197 49 58 67
326 416 198 45 55 65
326 416 199 43 53 63
326 417 198 48 56 66
326 418 196 45 55 65
326 418 197 48 57 66
326 419 196 44 54 64
326 419 197 45 54 64
326 418 198 48 56 66
326 419 198 45 54 64
325 420 192 49 58 67
325 420 193 47 56 67
325 421 192 50 58 68
325 421 193 49 58 67
325 422 192 47 57 67
325 423 192 49 59 69
326 420 193 46 56 66
326 421 193 48 57 67
326 420 194 48 58 68
326 420 195 47 57 67
326 421 194 48 57 66
326 421 195 48 57 66
326 422 193 47 56 66
326 423 192 49 59 69
326 423 193 43 55 66
326 422 194 47 56 65
326 422 195 47 55 64
326 423 194 42 53 63
326 423 195 42 52 62
325 420 199 43 53 63
326 420 196 45 55 65
326 420 197 45 54 64
326 421 196 46 55 65
326 421 197 44 53 63
326 420 198 45 54 63
326 420 199 44 53 63
326 421 198 44 53 63
326 421 199 44 53 63
326 422 196 46 54 63
326 422 197 45 53 62
326 423 196 42 51 61
326 423 197 42 51 60
326 422 198 43 52 61
326 422 199 44 53 62
326 423 198 43 52 61
326 423 199 44 52 61
325 416 200 42 52 62
325 416 201 42 52 62
325 417 200 43 53 62
325 417 201 42 52 62
325 416 202 43 53 63
325 416 203 44 53 63
325 417 202 42 52 63
325 417 203 43 52 62
325 418 200 44 54 63
325 418 201 44 53 63
325 419 200 45 54 64
325 419 201 44 54 64
325 418 202 44 54 64
325 418 203 45 54 63
325 419 202 44 54 64
325 419 203 45 54 64
326 416 200 43 52 62
325 416 204 43 53 63
325 416 205 42 51 61
325 417 204 44 53 63
325 417 205 45 53 63
325 416 206 42 52 61
325 416 207 42 51 61
325 417 206 43 53 62
325 417 207 45 53 62
325 418 204 44 53 63
325 418 205 45 54 63
325 419 204 45 54 64
325 419 205 45 54 63
325 418 206 44 53 63
325 418 207 43 53 62
325 419 206 45 54 63
325 419 207 44 53 63
325 420 200 44 53 64
325 420 201 44 54 64
325 420 202 43 53 63
325 420 203 42 52 62
325 421 203 43 53 63
326 420 201 44 54 64
326 421 200 43 53 64
326 421 201 44 54 64
326 420 202 43 53 63
326 421 202 44 54 64
326 421 203 43 53 63
326 422 200 43 53 63
326 422 201 43 54 64
326 423 200 44 53 62
326 423 201 43 53 63
326 422 202 43 54 64
326 422 203 43 53 63
326 423 202 43 53 63
326 423 203 44 53 63
325 420 204 43 52 62
325 420 205 44 53 63
325 421 204 44 53 63
325 421 205 44 53 62
325 420 206 44 53 62
325 420 207 44 53 62
325 421 206 46 54 63
325 421 207 45 54 63
325 422 206 47 55 64
325 422 207 45 54 63
325 423 207 43 52 61
326 421 205 45 54 63
326 422 204 43 52 62
326 422 205 46 54 63
326 423 204 44 54 63
326 423 205 46 54 63
326 422 206 47 54 63
326 423 206 47 54 63
326 423 207 45 53 62
326 424 192 49 60 71
326 424 193 45 56 67
326 425 192 48 59 71
326 425 193 44 56 67
326 424 194 42 53 64
326 424 195 43 53 63
326 425 194 42 54 65
326 425 195 43 54 64
326 426 192 48 59 71
326 426 193 45 57 69
326 427 192 44 57 69
326 427 193 44 56 68
326 426 194 43 55 66
326 426 195 43 53 64
326 427 194 45 56 67
326 427 195 43 53 64
326 424 196 42 52 62
326 424 197 42 52 61
326 425 196 44 54 64
326 425 197 43 52 62
326 424 198 44 53 62
326 424 199 46 54 63
326 425 198 43 52 62
326 425 199 44 53 62
326 426 196 43 53 63
326 426 197 43 52 62
326 427 196 41 51 61
326 427 197 43 51 61
326 426 198 43 51 61
326 426 199 42 51 60
326 427 198 45 53 62
326 427 199 45 53 62
326 428 192 44 56 68
326 428 193 42 55 67
326 429 192 46 57 69
326 429 193 44 56 68
326 428 194 45 56 67
326 428 195 45 55 65
326 429 194 45 56 67
326 429 195 44 54 65
327 429 194 44 55 66
326 430 192 48 59 70
326 430 193 48 59 70
326 431 192 49 59 70
326 431 193 47 58 69
327 430 193 47 58 70
326 430 194 46 57 68
326 430 195 41 52 63
326 431 194 46 57 68
326 431 195 41 52 63
327 430 194 45 56 67
326 428 196 44 53 62
326 428 197 44 52 61
326 429 196 45 53 63
326 429 197 44 53 62
326 428 198 45 53 62
326 428 199 46 53 62
326 429 198 44 52 61
326 429 199 45 52 61
326 430 196 42 52 62
326 430 197 42 52 61
326 431 196 41 51 62
326 431 197 41 51 61
326 430 198 45 53 62
326 430 199 46 53 62
326 431 198 41 51 60
326 431 199 43 52 61
326 424 200 47 55 65
326 424 201 48 56 65
326 425 200 46 54 64
326 425 201 48 56 65
326 424 202 46 55 64
326 424 203 44 53 62
326 425 202 48 56 65
326 425 203 47 55 65
326 426 200 44 52 61
326 426 201 47 55 63
326 427 200 46 54 63
326 427 201 46 54 63
326 426 202 47 55 64
326 426 203 47 56 65
326 427 202 46 54 63
326 427 203 44 53 63
325 426 207 43 53 63
326 424 204 43 52 62
326 424 205 45 54 63
326 425 204 46 54 64
326 425 205 47 55 65
326 424 206 46 54 63
326 424 207 45 53 63
326 425 206 45 55 65
326 425 207 44 54 64
326 426 204 45 54 63
326 426 205 44 54 63
326 427 204 44 53 63
326 427 205 43 53 63
326 426 206 43 54 64
326 426 207 43 53 64
326 427 206 43 53 64
326 427 207 44 55 65
326 428 200 45 52 61
326 428 201 43 51 60
326 429 200 44 51 60
326 429 201 43 51 60
326 428 202 44 52 61
326 428 203 43 52 62
326 429 202 45 53 62
326 429 203 43 52 62
326 430 200 45 52 61
326 430 201 45 52 61
326 431 200 44 52 61
326 431 201 46 54 63
326 430 202 45 53 62
326 430 203 43 53 62
326 431 202 45 53 62
326 431 203 43 53 62
326 428 204 43 53 62
326 428 205 42 52 63
326 429 204 44 53 63
326 429 205 44 54 64
326 428 206 41 52 63
326 428 207 41 53 64
326 429 206 40 52 63
326 429 207 41 52 64
326 430 204 44 54 64
326 430 205 43 54 65
326 431 204 43 53 63
326 431 205 43 54 65
326 430 206 41 53 64
326 430 207 42 54 66
326 431 206 42 54 65
326 431 207 45 56 67
323 416 212 45 55 65
323 416 213 47 57 68
323 417 212 45 56 66
323 417 213 47 57 68
322 416 214 48 58 69
322 416 215 46 58 69
322 417 214 44 56 68
322 417 215 45 56 69
323 416 214 47 57 68
323 417 214 45 56 68
323 418 212 42 53 63
323 418 213 44 55 65
323 419 213 47 57 67
322 418 215 46 57 69
322 419 215 44 55 67
323 418 214 45 56 67
323 419 214 46 57 67
323 420 213 46 55 65
322 420 215 44 55 66
322 421 215 44 54 65
323 420 214 46 56 66
323 420 215 46 56 67
323 421 214 45 55 66
323 421 215 45 55 66
322 422 215 43 54 65
322 423 215 42 53 65
323 422 214 45 55 66
323 422 215 45 55 66
323 423 214 44 55 66
323 423 215 44 55 66
324 417 209 43 51 60
325 416 208 42 51 60
325 416 209 44 52 61
325 417 208 43 52 61
325 417 209 43 52 61
324 416 210 45 53 62
324 416 211 45 53 62
324 417 210 43 52 61
324 417 211 45 53 62
324 418 209 41 50 60
324 419 209 42 51 61
325 418 208 44 52 62
325 418 209 43 52 61
325 419 208 44 53 62
325 419 209 42 51 61
324 418 210 41 50 60
324 418 211 43 52 61
324 419 210 42 51 60
324 419 211 43 52 61
324 416 212 43 53 63
324 417 212 44 53 64
324 418 212 43 53 63
324 419 212 45 54 64
324 419 213 47 56 66
325 420 208 45 54 63
325 420 209 43 53 63
325 421 208 43 53 63
325 421 209 44 53 64
324 420 210 43 53 62
324 420 211 44 53 62
324 421 210 45 54 64
324 421 211 45 54 64
325 421 210 45 55 65
325 422 208 44 54 64
325 422 209 43 53 64
325 423 208 41 51 62
325 423 209 42 53 64
324 422 211 45 54 64
324 423 211 44 54 64
325 422 210 45 55 65
325 422 211 44 54 64
325 423 210 44 54 65
325 423 211 43 54 64
324 420 212 44 54 64
324 420 213 46 56 66
324 421 212 45 54 64
324 421 213 45 55 65
324 422 212 44 54 64
324 422 213 44 54 65
324 423 212 43 54 64
324 423 213 43 54 65
324 423 214 43 55 66
321 416 216 45 57 69
321 416 217 47 59 70
321 417 216 45 57 69
321 417 217 47 58 70
320 416 218 50 61 72
320 416 219 51 62 74
320 417 218 50 60 72
320 417 219 50 61 72
321 418 216 46 57 69
321 418 217 48 59 70
321 419 216 45 57 69
321 419 217 47 58 69
320 418 218 50 61 72
320 418 219 50 61 72
320 419 218 49 59 70
320 419 219 49 59 71
321 419 218 48 59 70
322 416 216 47 58 70
322 417 216 44 56 69
322 418 216 45 57 69
322 419 216 43 55 67
320 416 220 49 61 73
320 417 220 49 61 73
320 418 220 50 61 72
320 419 220 47 58 70
321 420 216 45 57 68
321 420 217 47 58 69
321 421 216 45 56 67
321 421 217 46 57 68
320 420 218 46 57 68
320 420 219 45 57 68
320 421 218 47 58 68
320 421 219 46 57 68
321 420 218 48 58 69
321 421 218 47 57 68
321 422 216 43 54 65
321 422 217 44 56 67
321 423 217 45 56 68
320 422 218 47 57 68
320 422 219 47 58 69
320 423 219 47 58 69
321 422 218 46 56 67
321 423 218 47 57 68
322 420 216 44 55 66
322 421 216 45 55 66
322 422 216 43 53 64
322 423 216 42 53 64
320 420 220 46 58 69
320 421 220 46 58 69
320 422 220 47 59 70
320 423 220 48 60 72
322 424 215 42 54 65
323 424 214 44 56 67
323 424 215 43 55 66
323 425 214 44 56 68
323 425 215 44 56 67
323 426 215 45 57 68
323 427 215 47 58 70
323 428 215 50 61 73
323 429 215 48 60 73
325 424 208 43 54 64
325 424 209 44 55 66
325 425 208 44 54 65
325 425 209 45 56 67
324 424 211 46 56 67
325 424 210 44 55 66
325 424 211 45 56 67
325 425 210 45 56 67
325 425 211 46 57 68
325 426 208 44 54 65
325 426 209 46 56 67
325 427 208 46 57 68
325 427 209 46 57 69
325 426 210 46 57 68
325 426 211 47 58 69
325 427 210 49 59 70
