ply
format ascii 1.0
comment PCL generated
element vertex 2182
property float x
property float y
property float z
property uchar red
property uchar green
property uchar blue
element camera 0
property float view_px
property float view_py
property float view_pz
property float x_axisx
property float x_axisy
property float x_axisz
property float y_axisx
property float y_axisy
property float y_axisz
property float z_axisx
property float z_axisy
property float z_axisz
property float focal
property float scalex
property float scaley
property float centerx
property float centery
property int viewportx
property int viewporty
property float k1
property float k2
end_header
339 764 161 98 105 116
339 765 161 110 117 128
339 764 162 109 115 126
339 765 162 117 122 133
338 766 161 97 104 115
338 767 161 95 101 112
338 767 162 92 99 110
339 766 162 102 108 119
339 767 162 94 101 112
339 767 163 90 96 107
340 760 162 82 88 98
340 761 162 85 92 102
341 760 162 83 89 99
341 760 163 84 91 100
341 761 162 89 96 106
341 761 163 91 97 108
340 762 162 91 97 108
340 763 162 99 105 115
341 762 163 94 100 110
341 763 163 94 101 111
342 760 163 86 93 103
342 761 163 92 99 109
342 762 163 94 100 111
342 763 163 91 98 109
342 761 164 92 100 111
343 760 164 89 96 107
343 761 164 95 103 114
342 762 164 93 100 111
342 763 164 92 99 110
343 762 164 100 107 119
343 762 165 108 114 125
343 763 164 97 104 115
343 763 165 103 109 120
340 764 162 109 115 125
340 764 163 104 109 120
340 765 162 114 119 129
340 765 163 101 107 118
341 764 163 94 100 110
341 765 163 88 95 106
340 766 163 87 94 104
340 767 163 86 92 102
341 766 163 79 86 97
341 765 164 81 88 99
341 766 164 78 86 96
341 767 164 84 91 101
342 764 164 91 98 109
342 765 164 83 90 101
343 764 164 93 100 110
343 764 165 94 101 112
343 765 164 84 91 102
343 765 165 85 92 102
342 766 164 82 89 99
342 767 164 89 95 105
343 766 165 86 92 102
343 767 165 89 95 104
344 752 163 89 95 104
344 753 163 87 93 102
344 754 163 83 89 98
344 752 164 89 94 103
344 753 164 85 91 100
345 752 164 88 94 103
345 752 165 86 91 100
345 753 164 85 90 99
345 753 165 83 89 98
344 754 164 85 91 100
344 755 164 92 98 107
345 754 164 84 90 99
345 754 165 83 89 98
345 755 164 88 94 103
345 755 165 86 91 101
346 752 165 85 91 100
346 753 165 85 91 100
346 752 166 83 89 98
346 753 166 84 90 98
347 752 166 80 86 95
347 752 167 77 83 92
347 753 166 83 89 97
347 753 167 83 88 97
346 754 165 84 89 98
346 755 165 84 90 99
346 754 166 84 89 98
346 755 166 83 89 98
347 754 166 88 93 102
347 754 167 90 96 105
347 755 166 86 91 100
347 755 167 89 95 104
344 756 164 90 96 107
344 757 164 101 107 117
345 756 164 86 93 102
345 756 165 84 91 100
345 757 164 93 99 109
345 757 165 87 94 103
344 758 164 109 114 124
344 759 164 87 94 105
345 758 164 99 104 114
345 758 165 89 95 105
345 759 165 80 87 97
346 756 165 86 91 101
346 757 165 85 91 100
346 756 166 86 91 100
346 757 166 85 91 99
347 756 166 82 88 97
347 756 167 81 87 96
347 757 166 83 88 97
347 757 167 81 87 95
346 758 165 83 89 98
346 759 165 80 87 97
346 758 166 84 90 99
346 759 166 84 90 99
347 758 166 83 88 96
347 758 167 81 86 95
347 759 166 84 90 98
347 759 167 82 88 96
348 757 167 80 86 95
348 758 167 78 84 93
348 759 167 80 86 94
348 752 168 77 83 92
348 752 169 80 86 94
348 753 168 83 89 97
348 753 169 82 88 97
349 752 169 81 87 95
349 753 169 81 87 96
349 752 170 81 87 95
349 753 170 81 86 95
348 754 168 90 96 105
348 754 169 88 94 103
348 755 168 92 97 107
348 755 169 92 97 106
349 754 169 85 91 100
349 755 169 91 97 106
349 754 170 83 89 98
349 755 170 88 93 102
350 752 170 79 84 92
350 752 171 77 83 91
350 753 170 79 85 93
350 753 171 77 83 91
351 752 171 76 82 90
351 753 171 76 81 90
350 754 170 80 86 94
350 754 171 77 83 91
350 755 170 82 88 97
351 754 171 75 82 90
351 755 171 77 83 92
351 752 172 78 84 91
348 756 168 86 92 101
348 756 169 90 95 104
348 757 168 81 87 96
349 756 169 88 94 102
349 757 169 82 87 95
349 756 170 86 91 100
348 758 168 77 83 91
348 759 168 77 83 92
349 758 169 78 84 92
349 759 169 77 82 91
350 756 170 82 88 96
350 757 170 81 86 95
351 756 171 81 86 95
351 757 171 82 88 96
350 759 169 80 86 95
350 758 170 81 87 95
350 759 170 83 89 98
351 758 170 85 91 100
351 758 171 85 91 100
351 759 170 87 94 103
351 759 171 92 98 108
344 760 164 84 92 103
344 760 165 83 91 102
344 761 164 93 101 112
344 761 165 105 112 123
345 760 165 84 91 101
345 761 165 100 106 117
345 760 166 89 95 105
345 761 166 92 98 108
344 762 165 116 122 133
344 763 165 104 110 121
345 762 165 105 112 123
345 763 165 102 108 119
345 762 166 99 106 117
345 763 166 97 103 114
346 760 166 87 92 101
346 761 166 90 96 106
347 760 167 85 91 99
347 761 167 84 90 99
346 762 166 92 99 109
346 762 167 87 94 103
346 763 166 93 99 109
346 763 167 87 94 103
347 762 167 86 92 102
347 763 167 85 91 100
344 764 165 96 103 114
344 765 165 91 98 108
344 765 166 93 99 109
345 764 166 96 103 114
345 765 166 92 98 107
344 766 165 88 94 103
344 766 166 87 93 102
344 767 166 88 93 102
345 766 166 84 89 98
345 767 166 90 95 103
346 764 166 96 102 112
346 764 167 91 97 107
346 765 166 87 93 103
346 765 167 84 90 100
347 764 167 85 91 101
347 765 167 82 89 98
346 766 166 82 87 97
346 766 167 85 90 99
346 767 167 86 91 100
347 766 167 82 88 98
347 767 167 79 86 95
348 760 167 81 87 95
348 761 167 80 87 96
347 765 168 81 87 97
347 766 168 79 85 95
347 767 168 77 84 93
348 760 168 78 84 93
348 761 168 79 86 95
349 760 169 78 84 93
349 761 169 79 86 95
348 762 168 83 88 98
348 763 168 87 92 101
349 762 169 81 87 96
349 763 169 82 88 97
350 760 169 83 89 98
350 761 169 83 89 99
350 760 170 93 99 109
350 761 170 91 98 107
351 760 171 99 105 115
351 761 171 98 104 114
350 762 169 80 87 96
350 762 170 83 89 98
350 763 170 84 89 98
351 762 171 92 98 108
351 763 171 89 95 105
348 764 168 89 95 104
348 765 168 84 90 99
349 764 169 86 92 101
349 765 169 87 92 101
348 766 168 79 86 95
348 767 168 78 85 94
348 767 169 81 87 97
349 766 169 85 91 100
349 767 169 87 93 103
349 766 170 90 95 105
349 767 170 96 102 111
350 764 170 84 90 99
350 765 170 86 92 101
351 764 171 89 95 104
351 765 171 86 91 100
350 766 170 88 94 104
350 767 170 97 103 113
351 766 171 83 90 99
351 767 171 88 95 105
352 714 182 72 78 85
352 714 183 73 79 86
352 715 182 72 77 85
353 714 183 72 77 85
353 715 182 70 76 83
353 715 183 70 76 83
354 715 183 70 75 82
352 716 181 73 78 86
352 717 181 76 82 89
353 717 181 75 80 88
352 716 182 72 77 85
353 716 182 71 76 84
353 716 183 71 76 83
353 717 182 74 79 86
352 718 180 80 85 93
352 718 181 78 83 91
352 719 180 80 85 93
353 718 181 79 84 92
353 719 181 80 85 93
353 718 182 76 82 89
354 716 183 70 76 83
354 717 182 74 79 86
354 717 183 74 79 86
355 716 183 70 76 83
355 717 183 73 79 86
354 719 181 79 84 92
354 718 182 76 81 88
354 719 182 78 83 91
355 718 183 76 82 89
355 719 182 78 84 91
355 719 183 78 83 91
356 718 183 76 82 90
356 719 183 78 84 92
354 715 184 71 76 83
355 715 184 71 77 84
355 716 184 71 76 84
356 716 184 72 78 85
356 716 185 72 78 86
356 717 184 73 79 87
357 716 185 73 78 86
357 717 185 74 80 88
356 718 184 75 81 89
356 719 184 78 84 92
357 718 184 75 81 89
357 718 185 76 82 90
357 719 184 78 84 92
357 719 185 78 83 92
358 717 186 75 80 88
358 718 185 77 83 91
358 719 185 78 83 92
358 718 186 76 81 90
358 719 186 78 84 92
359 718 186 77 83 91
359 718 187 77 83 91
359 719 186 80 85 94
359 719 187 81 86 94
360 718 187 78 84 92
360 719 187 81 87 95
360 719 188 80 86 94
361 719 188 80 86 94
352 731 175 86 91 100
352 732 175 84 89 98
352 733 175 82 88 97
352 734 175 84 89 98
352 735 175 83 89 98
352 720 179 74 80 88
352 721 179 77 83 90
352 722 178 76 82 90
352 722 179 78 83 91
352 723 178 75 81 89
353 722 179 79 84 92
353 723 179 76 81 89
352 720 180 78 83 91
352 721 180 79 84 92
353 720 180 79 84 92
353 720 181 79 84 92
353 721 180 79 84 92
353 722 180 78 84 92
353 723 180 75 81 89
354 720 181 77 82 91
354 721 181 77 83 91
355 721 181 79 85 93
355 720 182 78 84 92
355 721 182 79 85 93
354 722 180 76 82 90
354 722 181 77 83 92
354 723 180 77 82 91
354 723 181 82 88 96
355 722 181 79 85 94
355 723 181 86 92 101
355 722 182 84 90 98
352 724 177 75 81 89
352 725 177 77 82 90
352 724 178 77 82 90
352 725 178 80 85 93
353 724 178 78 83 91
353 724 179 76 82 90
353 725 178 80 86 94
353 725 179 78 83 92
352 726 177 75 81 89
352 727 177 75 81 89
353 727 177 75 81 89
353 726 178 78 83 92
353 726 179 77 83 91
353 727 178 77 82 91
354 725 179 75 81 90
354 726 179 78 84 92
354 727 179 79 85 94
354 724 180 77 83 91
354 725 180 75 82 90
355 724 181 89 94 103
355 725 180 77 83 92
355 725 181 85 91 100
354 726 180 78 84 93
355 726 180 80 86 95
355 726 181 85 91 99
355 727 180 82 88 97
355 727 181 82 88 97
356 720 183 80 86 94
356 721 182 81 87 95
356 721 183 81 86 95
356 722 182 84 90 99
356 722 183 82 89 98
356 723 182 89 95 104
356 723 183 82 90 99
357 722 183 81 88 97
357 723 183 88 94 104
356 724 181 91 97 106
356 725 181 91 97 106
356 724 182 88 95 105
356 725 182 88 95 104
357 724 183 93 99 108
357 725 182 86 94 103
357 725 183 87 94 104
356 726 181 88 94 103
356 727 181 88 94 102
356 726 182 86 92 101
357 726 182 83 90 99
357 726 183 81 88 97
357 727 182 81 86 95
357 727 183 78 85 94
358 725 183 83 90 99
358 726 183 81 88 97
358 727 183 76 83 92
357 720 184 79 85 94
357 721 184 80 87 96
357 722 184 83 90 100
357 723 184 88 95 105
358 720 185 79 85 93
358 721 184 85 91 100
358 721 185 84 90 99
359 721 185 87 93 102
359 720 186 80 86 94
359 721 186 82 88 96
358 722 184 90 96 106
358 722 185 94 100 109
358 723 184 88 94 104
358 723 185 91 98 107
359 722 185 91 97 106
359 723 185 87 93 102
359 722 186 87 93 101
359 723 186 83 89 98
358 724 184 90 96 106
358 725 184 86 93 102
359 724 184 88 95 104
359 724 185 86 93 102
359 725 184 86 92 101
359 725 185 85 91 99
358 726 184 84 91 100
359 726 184 87 93 101
359 727 184 80 86 95
352 728 176 77 83 91
352 728 177 75 81 89
352 729 176 76 82 91
352 729 177 76 82 90
353 728 177 75 81 89
353 729 177 76 82 90
353 728 178 75 81 89
353 729 178 75 81 90
352 730 176 82 88 97
352 730 177 79 85 94
352 731 176 84 89 98
353 730 177 77 83 92
353 731 176 82 87 96
353 731 177 79 84 93
354 728 178 76 82 91
354 728 179 79 85 93
354 729 178 76 82 91
354 729 179 78 84 92
355 729 179 80 86 94
354 731 177 78 83 92
354 730 178 76 82 91
354 730 179 78 84 92
354 731 178 80 86 94
355 730 179 80 85 94
355 731 178 84 89 97
355 731 179 87 92 100
355 728 180 81 87 96
355 729 180 80 86 95
355 730 180 77 83 91
352 732 176 84 89 98
352 733 176 83 88 97
353 732 176 82 88 96
353 732 177 80 86 94
353 733 176 81 87 95
353 733 177 79 85 94
352 734 176 81 87 96
352 735 176 82 88 97
353 734 176 80 85 94
353 734 177 79 85 94
353 735 176 80 86 95
354 732 177 80 86 95
354 733 177 79 85 94
354 732 178 80 86 94
354 733 178 80 86 94
355 732 178 81 87 95
355 732 179 82 87 95
355 733 178 78 84 92
355 733 179 76 82 90
354 734 177 80 85 94
354 735 177 80 85 93
355 735 177 77 83 91
354 734 178 79 85 93
355 734 178 77 82 91
355 735 178 75 80 88
356 728 180 81 87 95
356 728 181 82 87 96
356 729 180 79 85 94
356 729 181 79 85 93
357 728 181 81 86 95
357 729 181 79 84 93
357 728 182 77 82 91
357 729 182 79 84 93
356 730 180 76 83 91
356 731 180 81 87 96
357 730 181 77 83 91
357 731 181 74 81 90
358 728 182 76 82 91
358 728 183 75 82 91
358 729 182 77 83 91
358 729 183 77 83 91
359 728 183 76 82 91
359 729 183 77 83 91
358 731 181 75 81 89
358 730 182 79 84 92
358 730 183 79 84 92
358 731 182 77 83 91
359 730 183 79 84 92
359 731 183 82 87 95
356 732 179 81 87 95
356 733 179 75 81 90
356 734 179 77 82 90
356 735 178 74 79 87
356 735 179 74 80 88
356 732 180 79 85 93
356 733 180 75 82 90
357 732 180 76 82 91
357 732 181 75 81 90
357 733 180 76 82 91
357 733 181 76 82 91
356 734 180 77 83 91
357 734 180 78 83 91
357 734 181 77 82 90
357 735 180 76 81 89
358 732 181 74 80 89
358 733 181 76 81 90
358 732 182 74 81 89
358 733 182 74 80 89
359 732 182 75 82 90
359 732 183 80 86 94
359 733 182 74 81 89
359 733 183 76 82 91
358 734 181 77 82 90
358 735 181 78 83 91
359 734 182 77 83 91
359 734 183 82 88 97
359 735 182 78 83 91
359 728 184 78 84 93
359 729 184 75 81 89
359 730 184 78 84 92
359 731 184 82 87 96
360 720 187 81 86 94
360 721 186 80 86 94
360 721 187 80 86 94
361 720 187 80 85 93
361 721 187 79 85 93
360 722 186 82 88 97
360 722 187 82 87 96
360 723 186 79 86 95
360 723 187 79 85 94
361 722 187 80 85 94
361 723 187 78 84 93
361 720 188 79 85 94
361 721 188 79 85 93
361 722 188 80 86 94
362 720 189 84 90 99
362 721 188 82 88 97
362 721 189 88 94 102
363 721 190 89 94 103
362 722 188 80 86 94
362 722 189 82 88 96
362 723 188 78 83 91
362 723 189 78 83 91
363 722 189 82 88 96
363 723 189 77 82 90
363 722 190 81 87 95
363 723 190 76 82 91
360 725 185 84 90 98
360 724 186 81 87 96
360 725 186 80 86 95
361 724 187 77 83 91
361 725 186 78 84 93
361 725 187 77 83 91
360 726 185 83 89 97
360 727 185 82 88 96
360 726 186 79 85 93
361 726 186 76 82 91
361 726 187 76 82 90
361 727 186 76 82 90
361 727 187 75 81 89
362 724 187 77 82 90
362 726 187 77 82 90
362 727 187 75 81 89
362 724 188 76 82 89
362 725 188 76 82 89
363 724 189 76 81 89
363 725 188 76 81 89
363 725 189 77 82 90
363 724 190 76 81 89
362 726 188 77 82 90
362 727 188 76 82 90
363 726 188 77 83 91
363 726 189 77 83 92
363 727 188 79 85 94
363 727 189 83 89 98
364 722 190 76 82 90
364 722 191 78 84 93
364 723 190 75 81 89
364 723 191 77 82 90
365 722 191 80 85 93
365 723 191 78 84 91
364 724 190 76 81 89
364 724 191 77 82 90
364 725 190 78 83 91
364 725 191 79 84 92
365 724 191 77 82 90
365 725 191 78 83 92
364 726 189 79 85 93
364 727 189 87 93 102
364 726 190 80 86 94
364 727 190 89 94 103
365 726 190 81 87 96
365 726 191 80 86 94
365 727 190 86 92 101
365 727 191 85 90 99
366 726 191 80 86 94
366 727 191 84 89 97
360 733 183 83 88 97
360 734 183 86 91 100
360 735 183 83 89 97
360 728 184 79 86 94
360 728 185 78 84 92
360 729 184 76 82 90
360 729 185 77 82 91
361 728 185 77 83 91
361 729 185 76 83 91
361 728 186 76 82 91
361 729 186 75 82 90
360 730 184 78 84 92
360 731 184 82 88 96
361 730 185 76 82 90
361 731 185 79 84 93
361 730 186 75 82 90
361 731 186 77 83 91
362 728 187 75 81 90
362 729 186 75 81 90
362 729 187 76 83 92
363 728 187 77 83 92
363 729 187 84 90 99
362 730 186 74 81 90
362 730 187 77 83 92
362 731 186 77 83 92
362 731 187 77 84 92
363 730 187 81 88 96
363 731 187 78 85 93
363 728 188 83 89 98
363 729 188 90 96 105
363 730 188 87 93 102
363 731 188 82 89 98
360 732 184 86 91 99
360 733 184 89 94 102
361 732 184 85 90 98
361 732 185 81 87 95
361 733 184 89 94 102
361 733 185 83 88 97
360 734 184 90 95 104
360 735 184 89 94 102
361 734 184 87 92 101
361 734 185 82 88 96
361 735 184 85 90 99
362 733 185 79 85 94
362 732 186 78 84 93
362 732 187 77 83 92
362 733 186 77 83 91
363 732 187 76 83 91
363 733 187 77 83 91
362 734 185 78 84 92
362 735 185 79 85 93
362 734 186 76 82 90
362 735 186 77 83 92
363 734 186 76 81 90
363 734 187 76 82 91
363 735 186 78 84 92
363 735 187 78 84 93
364 728 189 90 96 105
364 729 188 93 99 108
364 729 189 91 98 107
364 728 190 91 97 106
365 728 190 92 97 106
365 728 191 91 96 105
365 729 190 89 95 104
365 729 191 85 91 100
364 730 188 90 96 105
364 730 189 91 98 107
364 731 188 81 88 97
364 731 189 84 91 100
365 730 189 93 99 108
365 731 189 87 94 103
365 730 190 90 96 105
365 731 190 90 96 105
366 728 191 85 90 98
366 729 191 79 85 93
366 730 191 80 86 94
366 731 190 87 92 101
366 731 191 81 87 96
367 731 191 77 83 91
364 734 187 77 83 91
364 735 187 79 85 93
364 732 188 76 83 92
364 732 189 77 84 93
364 733 188 78 84 93
364 733 189 77 84 92
365 732 189 78 84 93
365 733 189 79 85 94
365 732 190 80 86 95
365 733 190 78 84 93
364 734 188 79 85 93
364 735 188 81 87 95
365 734 188 81 87 95
365 734 189 82 87 96
365 735 188 84 89 98
365 735 189 86 91 100
366 732 190 80 86 95
366 732 191 77 83 92
366 733 190 77 84 93
366 733 191 76 83 92
367 732 191 77 82 90
367 733 191 77 82 90
366 735 189 91 97 105
366 734 190 81 88 97
366 734 191 78 85 94
366 735 190 95 100 109
367 734 191 79 85 93
367 735 191 87 93 102
352 736 175 83 89 98
352 737 175 83 88 97
352 738 175 80 85 94
352 739 174 78 84 92
352 739 175 76 82 91
352 740 174 78 83 91
352 740 175 77 83 91
352 741 174 76 81 90
352 741 175 76 82 90
353 740 175 78 84 93
353 741 175 81 86 95
352 742 173 75 81 89
352 743 173 76 82 90
352 742 174 77 83 92
352 743 174 76 82 91
353 742 175 85 92 101
353 743 174 77 83 92
353 743 175 81 88 97
352 744 173 76 82 90
352 745 173 77 83 91
352 744 174 76 82 91
353 744 174 77 83 92
353 744 175 80 86 95
353 745 174 78 84 93
353 745 175 78 85 94
352 746 173 76 82 90
352 747 173 78 84 92
353 746 174 76 83 92
353 746 175 79 85 95
353 747 174 78 85 94
354 744 175 82 89 98
354 745 175 83 89 98
354 746 175 84 90 98
354 747 175 80 86 95
352 748 173 80 86 94
352 749 173 81 86 93
353 749 173 88 93 101
353 748 174 86 91 100
353 748 175 82 88 97
353 749 174 91 96 104
352 750 172 79 84 92
352 750 173 82 87 95
352 751 172 80 85 92
352 751 173 80 85 92
353 750 173 88 92 100
353 751 173 79 84 91
353 750 174 88 93 101
353 751 174 79 84 92
354 748 175 82 88 96
354 749 175 84 89 98
355 749 175 80 86 94
354 750 174 81 87 95
354 750 175 81 87 95
354 751 174 76 82 90
354 751 175 76 82 90
355 750 175 79 84 93
355 751 175 77 82 91
352 736 176 81 87 96
352 737 176 79 85 94
353 736 176 81 86 95
353 737 176 79 84 93
353 738 176 78 83 92
353 739 176 76 82 91
354 736 177 80 86 94
354 737 176 79 84 93
354 737 177 79 85 93
355 736 177 78 83 91
355 737 177 79 84 92
355 736 178 75 81 89
355 737 178 78 83 91
354 738 176 79 84 93
354 738 177 79 85 93
354 739 176 77 83 92
354 739 177 78 84 93
355 738 177 79 85 93
355 739 177 80 86 95
355 738 178 79 85 93
353 740 176 77 83 92
353 741 176 83 89 98
354 740 176 77 84 93
354 740 177 78 84 94
354 741 176 85 91 100
354 741 177 86 92 102
355 740 177 83 90 99
355 741 177 89 95 104
354 742 176 85 92 102
354 743 176 83 91 100
355 742 177 89 96 106
355 743 177 83 91 101
356 736 178 75 80 88
356 736 179 74 79 87
356 737 178 77 82 90
356 737 179 75 81 89
357 736 179 73 79 87
357 737 179 75 80 88
356 738 178 79 85 93
356 739 178 84 89 98
357 738 179 78 83 91
357 739 179 82 87 96
357 736 180 75 80 88
357 737 180 75 80 88
357 738 180 76 82 90
358 736 180 77 82 89
358 736 181 77 82 90
358 737 180 74 79 87
358 737 181 74 79 87
359 736 181 77 82 90
359 737 181 75 80 88
359 736 182 77 83 91
359 737 182 77 83 90
358 738 180 75 81 89
358 739 180 76 82 90
359 738 181 76 81 89
359 739 181 76 82 90
359 738 182 77 83 91
356 740 178 92 98 107
356 741 178 93 99 108
357 740 178 101 106 115
357 740 179 95 101 109
357 741 178 96 102 111
357 741 179 96 102 111
356 743 177 84 91 101
356 742 178 90 96 105
356 743 178 85 92 102
357 742 178 90 96 106
357 742 179 92 98 107
357 743 178 89 95 104
357 743 179 92 98 107
358 742 179 90 96 105
358 743 179 92 98 107
358 740 180 83 89 98
358 741 180 87 93 102
359 740 180 78 84 93
359 740 181 76 82 91
359 741 180 81 87 96
359 741 181 78 85 93
358 742 180 87 93 102
358 743 180 87 93 102
359 742 180 80 86 95
359 742 181 78 84 93
359 743 180 81 88 97
359 743 181 80 86 95
354 744 176 82 88 98
354 745 176 86 92 101
355 744 176 81 88 97
355 744 177 77 85 94
355 745 176 82 88 97
355 745 177 77 84 93
354 746 176 86 92 100
354 747 176 81 86 95
355 746 176 80 86 95
355 747 176 80 86 95
355 748 176 80 86 94
355 749 176 81 87 95
355 750 176 80 85 94
355 751 176 77 83 92
356 744 177 77 84 94
356 745 177 77 83 92
356 744 178 82 88 97
356 745 178 81 87 96
357 744 178 87 93 102
357 744 179 92 97 106
357 745 178 83 88 96
357 745 179 90 95 102
356 746 177 78 84 92
356 747 177 80 86 94
357 747 177 78 83 92
357 746 178 79 84 92
357 747 178 77 83 91
358 744 179 90 96 105
358 745 179 88 93 102
358 746 179 81 87 95
358 747 179 76 82 90
359 747 179 77 83 91
358 744 180 87 92 101
359 744 180 82 88 97
359 744 181 82 88 97
359 745 180 80 86 95
359 746 180 79 84 93
359 747 180 77 83 92
356 748 176 80 86 94
356 748 177 80 85 94
356 749 176 82 87 96
356 749 177 81 86 95
357 748 177 80 85 94
357 749 177 82 87 96
357 748 178 80 85 93
357 749 178 83 88 97
356 750 176 81 86 94
356 750 177 81 86 94
356 751 176 79 85 93
357 750 177 82 87 95
357 751 177 82 88 96
357 750 178 84 90 99
358 748 179 78 83 91
358 749 178 81 86 95
358 749 179 80 86 95
359 748 179 79 84 93
359 749 179 81 87 95
358 750 178 84 90 98
358 750 179 84 90 98
358 751 178 88 94 103
358 751 179 89 95 105
359 750 179 83 89 98
359 751 179 89 95 104
359 748 180 79 84 93
359 749 180 79 85 94
359 750 180 79 86 95
359 751 180 86 92 101
360 736 182 78 84 93
360 736 183 81 87 95
360 737 182 78 84 92
360 737 183 81 87 95
361 737 183 80 86 95
360 738 182 78 84 91
360 738 183 82 88 96
360 739 182 79 84 92
360 739 183 86 91 100
361 738 183 86 92 101
361 739 183 90 96 104
360 741 181 78 84 92
360 740 182 78 85 93
360 741 182 76 82 91
361 740 183 87 92 101
361 741 183 77 83 92
360 742 181 77 83 92
360 743 181 79 85 94
360 742 182 75 82 90
360 743 182 77 83 91
361 742 183 75 81 90
361 743 182 77 82 90
361 743 183 76 82 90
361 736 184 80 86 94
361 737 184 81 87 95
361 738 184 89 94 103
361 739 184 93 98 107
362 736 184 78 84 93
362 736 185 79 85 93
362 737 184 82 88 96
362 737 185 81 87 95
363 737 185 81 87 95
363 736 186 79 84 93
363 736 187 79 85 93
363 737 186 79 85 93
362 738 184 91 96 104
362 738 185 86 92 101
362 739 184 92 97 105
362 739 185 86 91 100
363 738 185 82 88 96
363 739 185 82 87 96
363 738 186 80 86 95
363 739 186 80 86 94
361 740 184 90 95 104
361 741 184 80 86 94
362 740 184 85 90 98
362 740 185 80 86 95
362 741 184 78 84 92
363 740 185 79 85 94
363 741 185 77 83 92
363 740 186 80 86 95
363 741 186 79 85 94
362 742 184 78 84 92
362 743 184 79 84 93
363 742 185 78 84 93
363 743 184 78 84 93
363 743 185 79 85 94
364 736 187 80 86 95
364 737 187 79 85 93
364 738 187 80 86 95
364 739 186 80 86 95
364 739 187 80 87 96
365 738 187 82 88 98
365 739 187 84 91 100
365 736 188 83 88 96
365 736 189 87 92 101
365 737 188 81 87 95
365 737 189 84 90 98
365 738 188 83 89 98
365 739 188 85 92 101
366 736 189 94 98 107
366 737 189 84 89 98
366 736 190 96 101 110
366 737 190 84 89 97
367 736 191 89 94 103
367 737 190 81 87 95
367 737 191 82 87 96
366 738 189 84 89 97
366 739 189 84 90 99
366 738 190 82 87 95
366 739 190 80 86 94
367 738 190 80 85 93
367 738 191 80 85 93
367 739 190 79 85 94
367 739 191 81 87 95
364 740 186 82 88 97
364 740 187 87 94 103
364 741 186 82 88 97
364 741 187 87 94 103
365 740 187 94 101 110
365 741 187 93 99 109
364 742 186 79 85 95
364 742 187 81 88 98
364 743 186 80 86 95
365 742 187 86 93 103
365 743 187 80 87 97
365 740 188 94 101 111
365 741 188 98 104 114
365 742 188 90 97 107
365 743 188 82 89 98
366 740 188 95 101 110
366 740 189 86 92 102
366 741 188 98 104 114
366 741 189 91 98 107
367 741 189 94 101 110
367 740 190 80 86 96
367 740 191 82 88 97
367 741 190 89 95 105
367 741 191 85 91 100
366 742 188 93 99 109
366 742 189 91 97 107
366 743 188 88 94 103
366 743 189 91 98 107
367 742 189 92 99 109
367 743 189 92 98 108
367 742 190 88 95 106
367 743 190 89 96 105
360 744 181 80 86 95
360 745 181 80 86 95
360 744 182 80 86 94
361 744 182 79 85 94
361 744 183 79 85 94
361 745 182 80 87 96
361 745 183 84 90 99
360 746 180 77 84 92
360 746 181 79 85 94
360 747 180 77 83 92
360 747 181 79 86 95
361 746 182 83 89 98
361 747 182 90 96 105
362 744 183 80 86 95
362 745 183 85 92 101
362 746 183 90 96 106
362 747 183 95 101 111
360 748 180 78 84 93
360 748 181 78 85 94
360 749 180 79 85 94
360 749 181 78 85 94
361 748 181 83 89 98
361 749 181 79 86 96
361 748 182 91 98 107
361 749 182 86 93 102
360 750 180 79 85 94
360 750 181 79 86 95
360 751 180 83 89 98
360 751 181 81 87 96
361 750 181 79 86 95
361 751 181 80 87 96
361 750 182 82 89 99
361 751 182 81 88 97
362 748 183 98 104 114
362 749 183 95 101 110
362 750 183 86 92 102
362 751 183 84 90 99
362 744 184 79 84 93
362 745 184 87 93 102
363 744 184 79 86 95
363 744 185 80 86 95
363 745 184 84 90 100
363 745 185 82 89 98
362 746 184 92 98 108
362 747 184 95 101 111
363 746 184 90 96 106
363 747 184 93 100 109
362 748 184 99 105 115
363 748 184 96 102 112
363 749 184 97 103 113
362 750 184 89 95 105
363 750 184 92 98 108
363 751 184 86 92 101
364 744 185 82 88 97
364 745 185 83 89 98
364 744 186 83 89 97
364 745 186 83 89 98
365 744 187 85 91 100
365 745 186 83 89 97
365 745 187 84 89 98
364 746 185 87 94 103
364 747 185 88 95 104
364 746 186 86 92 101
364 747 186 86 93 102
365 746 186 84 90 99
365 746 187 83 89 98
365 747 186 86 92 101
365 747 187 85 91 101
366 745 187 84 90 98
366 746 187 83 89 98
366 747 187 84 90 99
365 744 188 85 91 100
366 744 188 85 91 99
366 744 189 87 92 101
366 745 188 82 88 98
367 744 189 85 91 100
367 745 189 84 90 99
367 744 190 83 89 98
367 745 190 85 91 100
366 746 188 83 89 98
366 747 188 84 90 99
367 746 189 84 90 100
367 747 189 86 91 100
367 746 190 86 92 102
367 747 190 86 92 101
364 748 185 88 95 105
364 749 185 92 98 108
364 748 186 86 93 103
364 749 186 88 94 104
365 748 186 86 92 102
365 748 187 85 92 101
365 749 186 86 93 102
365 749 187 85 92 101
364 750 185 90 96 106
364 751 185 86 92 101
364 750 186 87 93 103
364 751 186 86 92 102
365 750 186 86 92 102
365 750 187 85 91 101
365 751 186 86 92 102
365 751 187 86 92 102
366 748 187 85 91 100
366 749 187 85 91 101
366 750 187 85 92 101
366 751 187 87 94 104
366 748 188 85 90 99
366 749 188 85 91 100
367 748 189 86 91 100
367 749 188 86 91 100
367 749 189 86 91 100
366 750 188 85 92 101
366 751 188 88 95 105
367 750 188 86 92 101
367 750 189 84 90 99
367 751 188 88 95 104
367 751 189 85 92 101
352 755 171 77 82 91
352 752 172 78 84 91
352 752 173 79 84 91
352 753 172 76 82 90
353 752 173 77 83 91
353 753 173 78 84 92
353 752 174 76 82 90
352 754 172 75 81 89
352 755 172 76 82 90
353 754 173 79 84 92
353 755 172 78 83 91
353 755 173 80 85 93
354 752 174 76 82 90
354 752 175 77 82 91
354 753 174 77 83 91
355 752 175 76 82 90
355 753 175 77 83 91
354 754 173 81 86 94
354 755 173 81 86 95
354 754 174 80 85 94
354 755 174 80 85 94
355 754 175 77 83 91
355 755 174 78 84 92
355 755 175 79 85 93
352 756 171 81 86 94
352 757 171 82 87 96
352 758 171 85 91 101
352 759 171 96 102 112
352 756 172 81 86 94
352 757 172 81 87 95
353 756 172 78 84 92
353 756 173 78 83 91
353 757 172 78 84 93
353 757 173 76 82 91
352 758 172 83 90 99
352 759 172 91 98 108
353 758 172 77 84 94
353 759 172 85 93 103
354 756 173 78 84 92
354 757 173 76 82 91
354 756 174 78 84 92
354 757 174 78 84 93
355 756 174 80 86 94
355 756 175 82 87 95
355 757 174 80 86 94
355 757 175 82 87 96
354 758 173 80 87 96
354 759 173 86 94 103
354 758 174 84 90 99
354 759 174 90 96 105
355 758 174 83 89 98
355 758 175 83 89 98
355 759 174 90 96 105
355 759 175 89 94 104
356 758 175 82 88 96
356 759 175 85 91 100
352 760 171 100 106 116
352 761 171 97 104 115
352 762 171 93 100 111
352 763 171 93 100 110
352 760 172 99 106 116
352 761 172 97 105 116
353 760 172 96 103 114
353 760 173 94 101 112
353 761 172 100 107 118
353 761 173 95 102 113
352 762 172 90 98 109
352 763 172 92 100 110
353 762 172 92 100 111
353 762 173 90 97 108
353 763 172 91 98 109
353 763 173 92 99 109
354 760 173 89 96 106
354 761 173 91 98 109
355 760 174 85 92 102
355 760 175 86 92 102
355 761 174 86 93 103
355 761 175 85 91 101
354 762 173 91 98 108
354 763 173 93 100 109
355 762 174 89 95 105
355 762 175 84 90 100
355 763 174 93 99 108
355 763 175 87 93 102
352 764 171 93 99 109
352 765 171 86 92 101
352 766 171 80 86 96
352 767 171 80 87 97
352 764 172 91 98 108
352 765 172 84 90 100
353 764 172 87 94 104
353 764 173 88 94 104
353 765 172 83 90 100
352 766 172 80 86 96
352 767 172 78 85 94
353 766 172 82 88 98
353 767 172 79 86 96
353 767 173 81 88 97
354 764 173 89 95 104
354 765 173 85 92 101
354 765 174 84 90 100
355 764 174 92 98 107
355 764 175 89 95 104
355 765 174 85 91 100
355 765 175 86 92 101
354 766 173 84 90 100
354 767 173 84 90 99
354 766 174 86 91 101
354 767 174 86 92 101
355 766 174 86 92 102
355 766 175 87 92 102
355 767 174 87 93 102
355 767 175 87 93 102
356 760 175 83 89 99
356 761 175 82 89 98
356 762 175 82 89 98
356 763 175 84 90 98
356 764 175 85 90 99
356 765 175 85 91 100
356 766 175 87 93 102
356 767 175 87 93 102
356 752 176 78 84 92
356 753 176 78 83 91
357 752 177 84 90 98
357 753 177 83 89 97
356 754 176 77 83 91
356 755 176 79 85 93
357 754 176 78 84 93
357 754 177 80 86 95
357 755 176 78 84 92
357 755 177 79 86 95
358 752 178 94 100 109
358 752 179 93 99 108
358 753 178 94 99 108
359 752 179 92 97 106
359 753 179 94 99 108
358 754 178 90 95 104
358 755 178 84 91 100
359 754 179 90 96 104
359 755 179 84 90 99
359 752 180 89 95 104
359 753 180 90 95 104
359 754 180 87 92 101
359 755 180 83 89 98
356 756 176 82 87 96
356 757 176 83 88 96
357 756 176 82 88 96
357 756 177 83 89 98
357 757 176 82 88 97
357 757 177 84 89 98
356 758 176 83 89 97
356 759 176 84 90 98
357 758 176 83 89 98
357 758 177 84 91 100
357 759 176 83 89 98
357 759 177 85 91 100
358 757 177 84 90 100
358 756 178 86 92 101
358 757 178 89 95 105
359 756 179 87 94 103
359 757 179 95 101 110
358 758 177 87 93 102
358 759 177 86 92 101
358 758 178 91 97 107
358 759 178 88 94 103
359 758 179 91 98 107
359 759 179 85 92 102
359 756 180 91 97 106
356 760 176 82 88 97
356 761 176 81 87 96
357 760 176 82 88 97
357 760 177 84 90 99
357 761 176 82 88 96
357 761 177 84 89 98
356 762 176 81 87 96
356 763 176 82 88 97
357 762 176 83 88 97
357 762 177 83 89 98
357 763 176 83 89 97
357 763 177 85 90 99
358 760 177 84 90 99
358 761 177 83 89 98
358 760 178 83 90 99
358 761 178 82 88 97
359 760 178 84 90 99
359 760 179 82 89 98
359 761 178 82 88 97
359 761 179 84 90 99
358 762 177 82 88 97
358 763 177 84 90 99
358 762 178 83 88 97
358 763 178 83 89 98
359 762 178 84 89 99
359 762 179 86 92 101
359 763 178 83 89 99
359 763 179 87 93 103
356 764 176 83 89 97
356 765 176 85 91 99
357 764 176 83 89 97
357 764 177 84 90 99
357 765 176 84 90 99
357 765 177 83 89 98
356 766 176 87 93 102
356 767 176 89 94 103
357 766 176 87 93 102
357 766 177 86 92 101
357 767 176 89 94 104
357 767 177 89 95 105
358 764 177 85 90 99
358 765 177 84 90 99
358 764 178 85 91 100
358 765 178 88 94 103
359 764 178 87 93 103
359 764 179 95 100 110
359 765 178 94 100 110
359 765 179 99 105 115
358 766 177 89 95 105
358 767 177 90 97 107
358 766 178 96 102 112
358 767 178 99 105 116
359 766 178 102 108 118
359 766 179 103 109 119
359 767 179 104 110 121
360 752 180 87 92 101
360 752 181 84 90 99
360 753 180 86 92 100
360 753 181 84 90 99
361 752 181 83 89 98
361 753 181 84 90 99
361 752 182 83 89 98
361 753 182 85 91 100
360 754 180 85 90 99
360 754 181 84 89 98
360 755 180 84 90 99
360 755 181 83 89 98
361 754 181 83 90 99
361 755 181 83 89 98
361 754 182 83 90 99
361 755 182 84 90 99
362 752 183 84 90 99
362 753 182 84 90 100
362 753 183 83 89 99
363 752 183 84 90 99
363 753 183 83 90 99
362 754 182 83 89 99
362 754 183 83 89 99
362 755 182 85 91 100
362 755 183 85 91 100
363 754 183 85 91 100
363 755 183 86 92 101
360 757 179 94 100 109
360 758 179 90 96 106
360 759 179 84 90 99
360 756 180 86 92 101
360 757 180 87 93 102
361 756 181 85 90 100
361 757 181 85 91 100
361 756 182 85 91 100
361 757 182 86 92 102
360 758 180 84 90 100
360 759 180 83 89 99
361 758 181 84 91 100
361 759 181 85 91 101
361 758 182 87 93 103
361 759 182 89 95 105
362 756 182 86 92 101
362 756 183 86 92 102
362 757 182 86 92 102
362 757 183 86 93 102
363 756 183 87 93 102
363 757 183 86 93 102
362 758 182 89 95 105
362 758 183 93 99 109
362 759 182 95 101 111
362 759 183 100 106 116
363 758 183 94 101 111
363 759 183 103 110 120
363 752 184 86 92 101
363 753 184 88 94 103
363 754 184 92 98 107
363 755 184 89 95 105
363 756 184 86 92 102
363 757 184 86 93 102
363 758 184 94 100 110
363 759 184 101 108 118
364 752 185 89 95 104
364 753 185 93 99 108
364 752 186 89 95 105
364 753 186 92 98 108
365 752 186 90 96 105
365 752 187 90 96 106
365 753 186 92 98 107
365 753 187 92 98 108
364 754 185 100 105 115
364 755 185 91 97 107
364 754 186 97 103 113
365 754 186 95 101 111
365 754 187 93 99 109
365 755 186 90 97 107
365 755 187 90 96 106
366 752 187 92 98 108
366 753 187 93 99 109
366 754 187 93 99 109
366 755 187 89 96 106
366 752 188 91 97 107
366 753 188 93 99 108
367 752 188 90 96 105
367 752 189 88 94 104
367 753 188 92 98 107
367 753 189 89 95 105
366 754 188 93 99 108
366 755 188 89 95 105
367 754 188 92 98 107
367 754 189 91 97 107
367 755 188 88 95 105
367 755 189 91 97 108
364 756 184 86 92 102
364 756 185 86 92 102
364 757 184 86 92 102
364 757 185 85 92 102
365 756 186 87 93 103
365 756 187 87 94 104
365 757 186 87 93 103
365 757 187 87 94 104
364 758 184 91 98 108
364 758 185 88 95 105
364 759 184 97 104 114
364 759 185 92 99 110
365 758 186 89 95 105
365 758 187 90 96 105
365 759 186 90 96 106
365 759 187 88 94 104
366 756 187 89 95 105
366 757 187 90 96 105
366 758 187 90 96 105
366 759 187 88 94 103
366 756 188 89 96 106
367 756 188 88 95 105
367 756 189 88 95 105
367 757 188 89 95 105
367 757 189 88 94 104
367 758 188 87 92 102
367 758 189 85 91 100
367 759 188 87 92 101
367 759 189 86 92 101
360 760 179 83 89 99
360 761 179 84 90 100
360 762 179 87 93 103
360 763 179 88 95 105
360 760 180 85 91 101
360 761 180 86 93 102
361 760 181 85 92 102
361 761 181 88 94 104
361 760 182 87 93 103
361 761 182 89 95 105
360 762 180 89 95 105
360 763 180 89 95 106
361 762 181 89 95 105
361 763 180 88 95 105
361 763 181 90 96 106
361 762 182 89 95 105
361 763 182 89 96 106
362 760 182 91 98 108
362 760 183 96 103 113
362 761 182 89 96 106
362 761 183 93 100 110
363 760 183 100 107 118
363 761 183 93 100 110
362 762 182 88 94 104
362 762 183 88 95 105
362 763 182 88 94 105
362 763 183 87 94 104
363 762 183 89 96 107
363 763 183 88 95 105
360 764 179 94 100 111
360 764 180 94 101 112
360 765 180 101 108 119
361 764 180 91 98 109
361 764 181 92 99 109
361 765 180 100 107 118
361 765 181 96 102 113
360 766 180 101 108 119
360 767 180 102 109 119
361 766 180 97 104 115
361 766 181 91 98 108
361 767 181 92 99 110
362 764 182 91 98 108
362 764 183 89 96 106
362 765 182 92 98 109
362 765 183 90 96 106
363 764 183 88 94 104
363 765 183 90 96 105
362 766 182 91 97 107
362 766 183 91 97 107
362 767 182 91 97 107
362 767 183 93 99 108
363 766 183 90 96 106
363 767 183 91 97 107
363 760 184 101 108 118
363 761 184 96 102 112
363 762 184 92 98 108
363 763 184 89 96 106
363 764 184 88 94 103
363 765 184 90 96 105
363 766 184 89 94 104
363 767 184 88 95 105
364 760 184 99 106 116
364 760 185 98 105 115
364 761 184 97 104 114
364 761 185 97 103 114
365 760 186 92 99 108
365 760 187 88 94 104
365 761 186 92 98 108
365 761 187 89 95 104
364 762 184 92 99 109
364 762 185 91 98 109
364 763 184 89 96 106
364 763 185 87 94 104
365 762 186 89 95 105
365 762 187 87 93 103
365 763 186 85 92 102
365 763 187 85 92 102
366 760 187 88 94 103
366 761 187 88 94 103
366 762 187 87 93 103
366 763 187 86 92 102
367 760 188 87 93 102
367 760 189 86 92 101
367 761 188 86 92 101
367 761 189 84 90 100
367 762 188 86 92 102
367 762 189 86 92 102
367 763 188 87 94 104
367 763 189 89 96 106
364 764 184 88 94 104
364 764 185 88 94 104
364 765 184 90 96 105
364 765 185 90 96 106
365 764 186 87 93 104
365 764 187 86 94 104
365 765 186 92 99 109
365 765 187 96 102 112
364 766 184 87 93 103
364 766 185 87 94 104
364 767 184 85 92 103
364 767 185 87 94 105
365 766 186 94 101 111
365 766 187 99 106 116
365 767 186 90 97 108
365 767 187 95 103 114
366 764 187 89 96 106
366 765 187 101 107 117
366 766 187 100 107 118
366 767 187 101 108 120
366 764 188 95 102 112
366 765 188 103 109 119
367 764 188 93 100 111
367 764 189 94 102 112
367 765 188 100 107 118
367 765 189 101 109 120
366 766 188 100 107 118
366 767 188 98 106 117
367 766 188 101 108 119
367 766 189 103 110 122
367 767 188 95 103 115
367 767 189 96 103 115
368 737 191 82 87 96
368 738 191 81 86 94
368 739 191 81 87 95
368 740 191 82 88 97
368 741 191 83 88 97
368 742 191 82 88 98
368 743 191 81 87 97
368 744 190 82 88 97
368 744 191 82 88 97
368 745 190 83 90 100
368 745 191 83 91 101
369 745 191 87 94 103
368 746 190 88 95 105
368 746 191 88 96 106
368 747 190 92 98 108
368 747 191 102 107 116
369 746 191 89 96 107
369 747 191 98 103 113
368 748 190 85 91 100
368 748 191 93 98 107
368 749 190 85 91 100
368 749 191 90 95 104
369 748 191 99 104 112
369 749 191 98 103 111
368 750 190 83 89 98
368 750 191 92 97 106
368 751 190 83 90 99
368 751 191 86 92 102
369 750 191 98 103 112
369 751 191 95 101 110
368 752 190 87 94 103
368 752 191 86 93 102
368 753 190 88 95 104
369 752 191 87 93 102
369 753 191 86 93 102
368 754 189 93 99 109
368 755 189 94 101 111
368 754 190 94 101 111
368 755 190 97 104 114
369 754 190 98 104 114
369 754 191 91 97 107
369 755 190 97 103 114
369 755 191 89 96 106
368 756 189 88 95 105
368 757 189 87 93 103
368 756 190 89 96 105
368 757 190 87 93 102
369 756 190 89 95 105
369 756 191 84 91 100
369 757 190 85 91 100
369 757 191 83 88 98
368 758 189 85 91 100
368 759 189 84 90 99
368 758 190 84 90 99
368 759 190 83 88 97
369 758 190 83 89 97
369 758 191 82 88 96
369 759 191 82 88 96
368 760 189 84 90 99
368 761 189 83 90 99
368 760 190 83 89 98
368 761 190 83 89 99
369 760 191 83 89 97
369 761 191 84 90 98
368 762 189 85 92 101
368 763 189 91 97 108
368 762 190 86 92 102
368 763 190 96 102 113
369 762 191 88 95 105
369 763 191 96 103 114
368 764 189 98 105 115
368 765 189 99 107 118
368 764 190 106 112 123
368 765 190 104 111 123
369 764 191 109 115 126
369 765 191 103 110 121
368 766 190 104 112 123
368 767 190 102 109 121
369 766 191 101 108 119
369 767 191 104 110 122
365 723 192 80 85 93
366 723 192 80 85 93
365 724 192 77 82 90
365 725 192 77 83 91
366 724 192 76 82 90
366 724 193 78 84 93
366 725 192 77 82 91
366 725 193 76 83 91
367 725 193 75 82 91
367 725 194 77 84 93
366 726 192 78 84 92
366 726 193 76 82 90
366 727 192 79 84 92
367 726 193 75 81 90
367 727 193 78 83 91
367 726 194 75 81 90
367 727 194 80 85 94
366 728 192 79 84 92
366 729 192 78 83 91
367 728 192 79 83 91
367 728 193 78 83 91
367 729 192 77 82 90
367 729 193 75 81 89
367 728 194 80 85 93
367 730 192 76 81 90
367 730 193 75 81 90
367 731 192 76 82 90
367 731 193 77 83 91
367 732 192 77 82 90
367 733 192 76 81 89
367 734 192 76 81 90
368 725 194 82 88 97
368 726 194 77 83 91
368 726 195 78 84 93
368 727 194 81 86 95
368 727 195 82 88 98
369 727 195 83 89 98
369 727 196 83 89 99
368 728 194 80 85 93
368 728 195 83 89 98
368 729 194 77 83 91
368 729 195 82 88 97
369 728 195 83 89 99
369 729 195 82 89 98
368 730 193 77 83 91
368 731 193 79 84 92
368 730 194 78 84 93
368 731 194 79 85 93
369 730 195 80 86 95
369 731 194 79 84 93
369 731 195 80 86 95
369 728 196 88 95 105
369 728 197 96 102 111
369 729 196 94 101 111
369 729 197 103 109 119
369 730 196 85 92 102
369 730 197 94 100 111
369 731 196 83 90 100
369 731 197 90 97 108
370 729 198 102 109 120
370 730 197 96 102 113
370 731 197 93 100 110
370 730 198 97 105 115
370 731 198 90 98 109
370 731 199 88 96 108
368 732 193 78 83 91
368 733 192 75 80 89
368 733 193 76 82 90
368 732 194 79 84 92
368 733 194 77 82 90
369 732 194 79 84 93
369 732 195 79 85 94
369 733 194 79 84 91
369 733 195 79 85 94
368 734 192 75 81 90
368 734 193 76 81 90
368 735 192 80 87 96
368 735 193 80 85 94
368 734 194 78 83 91
368 735 194 80 85 93
369 734 194 79 84 92
369 734 195 80 86 95
369 735 194 81 86 95
369 735 195 83 90 98
369 732 196 82 89 99
369 732 197 88 95 105
369 733 196 82 88 97
369 734 196 82 88 98
369 735 196 85 91 101
370 732 197 92 98 107
370 733 197 87 94 104
370 732 198 92 98 108
370 732 199 86 94 105
370 733 198 87 94 104
370 733 199 86 94 105
370 734 197 83 91 101
370 735 196 89 95 105
370 735 197 89 95 105
370 734 198 89 96 106
370 734 199 92 98 109
370 735 198 92 98 107
370 735 199 94 100 109
370 732 200 88 95 106
370 733 200 89 96 107
371 733 200 91 98 108
371 733 201 95 101 111
370 734 200 93 99 110
371 734 200 93 100 110
371 734 201 95 101 111
371 735 200 94 101 111
371 735 201 97 104 114
371 734 202 98 104 115
371 735 202 100 106 116
371 735 203 103 109 119
368 736 192 79 85 94
368 736 193 79 85 94
368 737 192 78 84 93
368 737 193 79 86 95
369 737 193 83 89 97
369 736 194 85 90 99
369 736 195 94 99 109
369 737 194 87 92 101
369 737 195 97 102 111
368 738 192 82 88 96
368 738 193 83 89 98
368 739 192 83 89 97
369 738 193 83 89 98
369 739 193 84 89 98
369 738 194 84 90 99
369 738 195 87 93 101
369 739 194 84 90 99
369 739 195 86 91 100
370 739 195 85 91 100
369 736 196 98 104 113
369 737 196 106 111 120
370 736 196 98 103 113
370 736 197 96 101 110
370 737 196 100 105 114
370 737 197 94 99 109
370 736 198 94 99 108
370 736 199 94 99 109
370 737 198 92 98 107
370 737 199 94 100 109
371 736 199 94 100 109
371 737 199 96 102 111
370 738 196 88 93 103
370 738 197 89 95 104
370 739 196 85 91 100
370 739 197 87 94 103
370 738 198 91 97 107
370 738 199 93 99 109
370 739 198 90 96 106
371 738 199 96 102 111
371 739 199 93 99 109
368 740 192 84 89 98
368 741 192 82 88 96
369 740 192 83 88 97
369 740 193 83 88 97
369 741 192 83 88 96
369 741 193 86 91 99
369 740 194 84 90 99
369 740 195 85 91 100
369 741 194 86 91 100
368 742 192 82 88 96
369 742 192 83 88 97
369 742 193 86 91 100
369 743 192 84 89 98
369 743 193 86 92 100
369 742 194 87 92 101
369 743 194 83 89 98
370 740 195 85 90 100
370 741 195 86 92 101
370 742 194 86 91 100
370 742 195 84 90 98
370 743 194 83 89 98
370 743 195 82 88 97
370 740 196 85 91 101
370 740 197 86 92 102
370 741 196 85 90 100
370 741 197 86 92 101
370 740 198 89 96 106
370 741 198 89 95 105
371 740 199 94 100 110
371 741 198 90 96 105
371 741 199 93 98 108
370 742 196 83 88 98
370 742 197 87 93 103
370 743 196 84 90 99
370 743 197 87 93 103
370 742 198 90 96 106
370 743 198 90 96 106
371 742 198 91 97 106
371 742 199 93 99 108
371 743 198 93 98 108
371 743 199 94 100 110
371 736 200 96 102 112
371 736 201 100 106 117
371 737 200 100 105 115
371 737 201 99 106 117
371 736 202 99 105 115
371 736 203 98 104 114
371 737 202 95 102 113
371 737 203 93 100 110
371 738 200 97 103 113
371 738 201 98 104 116
371 739 200 99 104 114
371 739 201 105 112 122
371 738 202 95 102 114
371 738 203 93 100 110
371 739 202 99 107 118
371 739 203 94 101 112
371 737 204 94 100 111
371 738 204 92 98 109
371 740 200 99 105 115
371 740 201 102 109 119
371 741 200 95 101 111
371 741 201 97 104 115
371 740 202 99 106 117
371 740 203 97 104 115
371 741 202 99 106 116
371 741 203 98 105 116
371 742 200 95 100 110
371 742 201 95 102 112
371 743 200 94 100 110
371 743 201 95 103 114
371 742 202 96 103 113
371 743 202 98 105 116
372 736 204 103 110 122
372 737 204 97 103 114
372 737 205 109 116 128
372 738 204 92 99 109
372 738 205 93 98 109
372 739 204 92 99 110
372 739 205 92 98 108
372 738 206 93 100 111
372 739 206 92 98 108
372 739 207 94 100 111
372 740 203 98 105 115
372 741 203 97 103 114
372 742 203 95 101 111
372 743 202 98 105 115
372 743 203 98 104 114
372 740 204 96 102 113
372 740 205 95 100 110
372 741 204 96 102 112
372 741 205 95 101 110
372 740 206 95 100 109
372 740 207 95 100 110
372 741 206 95 100 110
372 741 207 99 105 115
372 742 204 94 100 109
372 742 205 94 99 109
372 743 204 96 102 111
372 743 205 93 98 108
372 742 206 94 100 110
372 742 207 100 106 116
372 743 206 90 96 106
372 743 207 90 96 107
373 742 207 100 106 116
373 743 207 90 97 107
369 744 192 87 92 101
369 744 193 86 92 101
369 745 192 88 95 104
369 745 193 83 90 101
369 744 194 83 89 98
369 745 194 83 91 101
369 746 192 98 104 115
369 746 193 91 98 110
369 747 192 99 106 116
369 747 193 97 105 117
370 744 194 83 89 99
370 744 195 84 91 101
370 745 194 88 95 105
370 745 195 98 104 115
370 746 194 90 98 110
370 746 195 105 112 123
370 747 194 100 107 119
370 747 195 102 110 121
370 744 196 87 93 103
370 744 197 90 96 105
370 745 196 105 111 121
370 745 197 100 105 114
370 744 198 92 97 107
371 744 198 93 99 109
371 744 199 95 101 111
371 745 198 93 99 109
371 745 199 93 100 111
370 746 196 114 120 131
370 746 197 105 110 120
370 747 196 105 112 123
370 747 197 100 108 118
371 747 197 92 99 110
371 746 198 94 100 109
371 746 199 91 98 108
371 747 198 89 96 106
371 747 199 90 96 106
369 748 192 94 100 110
369 748 193 92 100 111
369 749 192 92 99 109
369 749 193 86 95 106
369 750 192 97 104 114
369 750 193 89 97 109
369 751 192 96 103 113
369 751 193 83 92 103
370 748 193 92 100 112
370 749 193 85 94 106
370 748 194 96 104 115
370 748 195 99 107 118
370 749 194 87 95 106
370 749 195 97 104 115
370 750 193 82 91 103
370 751 193 78 87 99
370 750 194 85 92 102
370 750 195 100 106 116
370 751 194 84 90 100
370 751 195 92 98 107
370 748 196 101 109 121
370 748 197 98 106 118
370 749 196 101 109 120
370 749 197 97 105 116
371 748 197 93 100 111
371 749 197 91 99 110
371 748 198 88 95 105
371 748 199 87 93 103
371 749 198 88 94 104
371 749 199 86 92 102
370 750 196 106 112 123
370 751 196 101 107 116
371 750 197 95 102 113
371 751 196 94 99 109
371 751 197 92 98 108
371 750 198 86 93 103
371 750 199 87 92 101
371 751 198 86 92 101
371 751 199 86 91 100
371 744 200 95 103 114
371 744 201 101 109 121
371 745 200 99 106 117
371 745 201 107 115 126
371 744 202 108 115 126
371 745 202 107 114 125
371 746 200 97 104 114
371 746 201 101 108 119
371 747 200 92 99 109
371 747 201 93 101 112
371 746 202 101 108 118
371 748 200 89 95 105
371 748 201 89 95 106
371 749 200 89 94 104
371 750 200 87 92 101
371 751 200 86 91 100
372 744 202 106 112 123
372 744 203 102 108 119
372 745 202 104 111 122
372 745 203 97 104 115
372 747 201 91 98 109
372 746 202 94 101 112
372 746 203 91 98 108
372 747 202 89 95 105
372 747 203 87 93 102
372 744 204 95 101 112
372 744 205 88 95 106
372 745 204 92 99 109
372 745 205 88 95 105
372 744 206 85 92 103
372 745 206 85 92 102
373 744 206 83 91 102
373 744 207 82 90 101
373 745 206 84 91 102
373 745 207 84 91 101
372 746 204 92 98 108
372 746 205 93 98 107
372 747 204 88 94 102
372 747 205 89 93 102
373 747 205 88 93 101
373 746 206 94 99 107
373 746 207 92 97 106
373 747 206 91 95 104
373 747 207 91 96 104
372 748 201 88 95 105
372 749 201 88 93 103
372 748 202 87 93 102
372 748 203 86 91 100
372 749 202 85 91 100
372 749 203 83 89 97
372 750 201 85 90 99
372 751 200 84 89 98
372 751 201 82 88 96
372 750 202 81 87 95
372 750 203 79 85 93
372 751 202 83 88 97
372 751 203 80 85 94
373 751 202 86 91 100
373 751 203 82 87 96
372 748 204 84 89 98
372 748 205 83 88 97
372 749 204 81 87 95
373 748 205 83 88 97
373 749 204 79 85 93
373 749 205 79 84 93
373 748 206 84 89 97
373 748 207 82 87 96
373 749 206 78 84 92
373 749 207 80 86 95
373 750 204 77 83 91
373 750 205 75 80 89
373 751 204 78 84 93
373 751 205 79 85 93
373 750 206 77 83 92
374 749 207 79 85 94
374 751 205 84 90 99
374 750 206 80 86 95
374 750 207 82 88 96
374 751 206 94 99 107
374 751 207 93 98 107
375 751 207 108 112 121
372 740 208 95 101 111
372 741 208 96 102 112
373 740 208 96 101 111
373 741 208 106 112 123
373 741 209 100 106 117
373 742 208 115 121 132
373 742 209 117 123 134
373 743 208 91 98 108
373 743 209 91 98 108
373 742 210 105 111 121
373 743 210 93 99 108
373 743 211 91 96 105
374 743 211 90 95 104
373 744 208 83 90 101
373 744 209 85 92 101
373 745 208 84 91 101
373 745 209 86 92 101
373 744 210 86 92 102
373 744 211 90 95 104
373 745 210 85 90 98
373 746 208 90 95 104
373 746 209 87 92 100
373 747 208 89 94 102
374 744 211 87 93 102
374 745 210 85 89 98
374 745 211 84 89 97
374 746 209 83 88 96
374 747 208 86 91 100
374 747 209 83 89 98
374 746 210 83 88 96
374 746 211 81 86 94
374 747 210 80 86 95
374 747 211 81 87 96
374 744 212 87 92 100
374 745 212 81 87 96
375 745 213 86 93 102
374 746 212 82 88 97
374 747 212 81 87 96
375 746 212 86 92 102
375 746 213 94 100 109
375 747 212 94 99 109
375 747 213 101 106 115
375 747 214 104 108 118
373 748 208 84 89 98
374 748 208 81 87 96
374 748 209 82 88 97
374 749 208 82 88 97
374 749 209 83 90 99
375 749 209 88 94 104
374 748 210 83 89 98
374 748 211 83 90 99
375 748 210 87 93 103
375 748 211 93 99 109
375 749 210 94 100 110
375 749 211 97 103 113
374 750 208 84 90 98
375 750 208 93 99 108
375 750 209 98 104 115
375 751 208 105 110 120
375 751 209 119 124 134
375 750 210 100 107 118
