ply
format ascii 1.0
comment PCL generated
element vertex 2123
property float x
property float y
property float z
property uchar red
property uchar green
property uchar blue
element camera 0
property float view_px
property float view_py
property float view_pz
property float x_axisx
property float x_axisy
property float x_axisz
property float y_axisx
property float y_axisy
property float y_axisz
property float z_axisx
property float z_axisy
property float z_axisz
property float focal
property float scalex
property float scaley
property float centerx
property float centery
property int viewportx
property int viewporty
property float k1
property float k2
end_header
229 721 276 111 117 127
228 722 276 110 114 124
228 723 276 115 118 129
229 722 276 111 117 128
229 723 276 114 120 132
230 720 276 110 116 127
230 721 276 108 114 126
231 720 276 108 114 126
231 721 276 105 111 124
230 722 276 108 114 127
230 723 276 114 121 134
231 722 276 106 113 126
231 723 276 113 120 133
228 724 276 113 117 128
228 725 276 113 118 129
229 724 276 116 122 134
229 725 276 112 119 131
228 726 276 117 123 134
228 727 276 115 121 133
229 726 276 111 117 129
229 727 276 112 118 129
230 724 276 122 129 141
230 725 276 117 123 135
231 724 276 120 126 139
231 725 276 116 121 132
230 726 276 110 117 128
230 727 276 111 116 128
231 726 276 109 113 124
231 727 276 109 114 127
224 728 277 112 116 127
224 729 277 112 117 127
225 728 276 110 115 126
225 728 277 110 114 126
225 729 276 110 114 126
225 729 277 113 118 129
224 730 277 109 115 126
224 731 277 110 115 127
225 730 276 107 111 122
225 730 277 110 116 127
225 731 276 110 114 125
225 731 277 109 115 127
226 728 276 111 116 127
226 729 276 111 116 126
227 728 276 111 117 129
227 729 276 114 119 129
226 730 276 106 110 121
226 731 276 105 110 122
227 730 276 113 117 127
227 731 276 108 113 125
224 732 277 124 130 143
224 733 277 134 143 158
225 732 276 111 116 128
225 732 277 113 119 132
225 733 276 115 123 138
225 733 277 134 142 156
224 734 277 133 146 164
224 735 277 137 150 170
225 734 276 127 139 156
225 734 277 148 158 174
225 735 276 139 152 170
226 732 276 102 108 121
226 733 276 119 127 141
227 732 276 106 112 125
227 733 276 115 121 136
226 734 276 140 150 165
226 735 276 122 135 154
227 734 276 133 141 156
227 735 276 139 148 163
228 729 275 111 117 129
229 728 275 110 116 129
229 729 275 118 124 137
228 730 275 113 118 129
228 731 275 108 113 125
229 730 275 126 131 143
229 731 275 120 126 137
230 728 275 110 116 129
230 729 275 127 133 147
230 730 275 138 143 156
230 731 275 130 135 146
231 730 275 134 140 153
231 731 275 129 133 145
228 728 276 110 116 128
228 729 276 113 118 130
230 728 276 109 115 128
231 728 276 115 121 134
231 729 276 128 134 148
231 730 276 131 136 149
231 731 276 124 129 141
228 732 275 108 115 127
228 733 275 112 119 132
229 732 275 116 122 134
229 733 275 115 122 134
228 734 275 118 125 137
229 734 275 122 128 140
230 732 275 123 128 139
230 733 275 117 123 136
231 732 275 120 126 137
231 733 275 118 123 135
230 734 275 113 119 132
228 732 276 108 113 126
228 733 276 111 118 132
228 734 276 139 144 156
228 735 276 149 154 166
229 735 276 125 130 142
231 732 276 117 123 134
231 733 276 114 119 132
230 734 276 112 119 131
230 735 276 111 118 130
231 734 276 111 117 129
231 735 276 113 119 130
232 720 276 108 114 126
232 720 277 109 115 126
232 721 276 105 111 124
232 721 277 101 107 119
233 720 277 113 119 131
233 721 277 118 125 137
232 722 276 103 110 122
232 722 277 97 104 116
232 723 276 107 114 126
232 723 277 100 106 118
233 722 277 116 123 136
233 723 277 114 121 133
234 720 277 120 127 139
234 721 277 132 139 152
234 720 278 122 128 141
234 721 278 134 141 154
235 720 278 122 127 141
235 721 278 130 137 150
234 722 277 135 142 156
234 723 277 134 140 153
234 722 278 144 151 164
234 723 278 144 150 163
235 722 278 146 153 166
235 723 278 145 151 163
232 724 276 106 111 123
232 724 277 95 101 113
232 725 276 103 108 119
232 725 277 94 100 111
233 724 277 108 114 126
233 725 277 105 111 122
232 726 276 97 103 113
232 726 277 93 98 108
232 727 276 103 109 120
233 726 277 102 107 118
233 727 277 100 106 117
234 724 277 119 125 137
234 725 277 113 119 130
234 724 278 127 133 145
235 724 278 129 135 146
235 725 278 118 124 135
234 726 277 112 116 127
234 727 277 110 114 125
235 727 277 116 120 131
235 726 278 118 122 133
235 727 278 117 121 132
236 720 278 123 129 143
236 721 278 119 125 138
237 720 278 121 128 140
237 721 278 121 126 138
236 722 278 126 132 144
236 723 278 132 137 148
237 722 278 119 125 137
237 723 278 122 127 138
238 720 278 125 129 141
238 721 278 124 128 139
239 720 278 125 129 140
239 721 278 123 127 138
238 722 278 118 124 134
238 723 278 116 122 133
239 722 278 118 122 132
239 723 278 116 120 130
236 724 278 124 129 139
236 725 278 122 127 137
237 724 278 123 127 138
237 725 278 124 128 139
236 726 278 120 124 134
236 727 278 119 123 133
237 726 278 122 126 136
237 727 278 122 126 136
238 724 278 124 128 139
238 725 278 126 130 141
239 724 278 126 129 139
239 725 278 130 133 143
238 726 278 122 126 137
238 727 278 121 126 137
239 726 278 124 128 138
239 727 278 118 123 134
232 728 276 112 119 131
232 729 276 123 130 143
233 728 276 107 112 123
233 728 277 102 107 118
233 729 276 112 118 129
233 729 277 103 109 120
232 730 276 120 126 139
232 731 276 110 116 128
233 730 276 104 111 122
233 731 276 98 104 115
234 728 277 107 113 124
234 729 277 103 109 121
235 728 277 113 118 130
235 729 277 110 117 128
235 728 278 114 119 130
234 730 277 97 104 115
234 731 277 93 99 110
235 730 277 107 113 125
235 731 277 103 109 121
232 732 276 107 113 124
232 733 276 106 111 122
233 732 276 97 103 113
233 733 276 98 104 114
232 734 276 106 111 122
232 735 276 109 114 124
233 734 276 99 104 115
233 735 276 100 105 116
234 732 276 95 101 111
234 732 277 95 101 111
234 733 276 95 101 112
234 733 277 93 100 111
235 732 277 101 108 120
235 733 277 98 105 117
234 734 276 98 104 115
234 734 277 99 105 117
234 735 276 102 108 119
234 735 277 104 111 123
235 734 277 102 110 122
235 735 277 109 116 128
236 728 278 115 120 131
236 729 278 111 118 132
237 728 278 121 126 138
237 729 278 115 123 137
236 730 277 110 117 130
236 731 277 109 116 129
236 730 278 110 119 133
236 731 278 118 125 139
237 730 278 112 123 138
237 731 278 129 137 152
238 728 278 126 133 146
238 729 278 136 144 158
239 728 278 130 136 150
239 729 278 158 164 179
238 730 278 130 139 155
238 731 278 138 146 161
239 730 278 148 156 171
239 731 278 142 150 164
236 732 277 110 117 130
236 733 277 110 117 130
236 732 278 118 126 139
236 733 278 119 127 140
237 732 278 125 133 148
237 733 278 127 136 150
236 734 277 110 117 130
236 735 277 109 116 129
236 734 278 120 127 140
236 735 278 111 118 131
237 734 278 133 139 153
237 735 278 117 124 136
238 732 278 134 142 157
238 733 278 135 144 159
239 732 278 140 147 161
239 733 278 136 144 159
238 734 278 143 150 164
238 735 278 124 130 143
239 734 278 131 139 153
239 735 278 123 129 141
240 704 278 117 122 134
240 705 278 126 131 142
241 704 278 117 122 134
241 705 278 128 132 142
240 706 278 128 132 142
240 707 278 124 128 138
241 706 278 129 132 142
241 707 278 124 128 138
242 704 278 122 127 137
242 705 278 129 132 143
243 704 278 128 132 142
243 705 278 128 132 144
242 706 278 130 133 143
242 707 278 124 129 139
243 706 278 129 133 145
243 707 278 130 134 145
240 708 278 123 127 138
240 709 278 122 126 135
241 708 278 122 127 138
241 709 278 121 125 135
240 710 278 124 128 139
240 711 278 136 142 155
241 710 278 123 127 137
241 711 278 128 133 145
242 708 278 117 123 135
242 709 278 120 124 135
243 708 278 128 133 144
243 709 278 124 129 141
242 710 278 126 130 139
242 711 278 127 132 143
243 710 278 125 129 141
243 711 278 126 131 143
244 704 278 129 132 142
244 705 278 125 131 143
245 704 278 126 129 138
245 705 278 129 133 145
244 706 278 126 132 144
244 707 278 140 144 155
245 706 278 139 143 154
245 707 278 149 152 163
246 704 278 100 103 114
246 705 278 115 118 128
247 704 278 90 95 105
247 705 278 88 93 104
246 706 278 132 135 145
246 707 278 138 140 149
247 706 278 87 93 104
247 707 278 91 96 105
244 708 278 143 146 157
244 709 278 135 139 152
245 708 278 147 150 159
245 709 278 133 136 147
244 710 278 125 131 144
244 711 278 124 130 142
245 710 278 123 127 139
245 711 278 121 126 137
246 708 278 131 132 141
246 709 278 114 116 126
247 708 278 91 95 103
247 709 278 86 88 99
246 710 278 114 117 128
246 711 278 116 120 130
247 710 278 90 94 105
247 711 278 92 97 108
240 712 278 145 153 167
240 713 278 140 148 164
241 712 278 147 152 165
241 713 278 144 150 164
240 714 278 148 155 171
240 715 278 149 153 168
241 714 278 142 147 162
241 715 278 145 149 162
242 712 278 145 149 160
242 713 278 142 146 157
243 712 278 128 134 145
243 713 278 126 130 141
242 714 278 128 132 144
242 715 278 130 133 145
243 714 278 120 124 134
243 715 278 121 125 135
240 716 278 147 150 164
240 717 278 125 130 142
241 716 278 137 141 153
241 717 278 123 128 140
240 718 278 119 125 137
240 719 278 127 135 148
241 718 278 120 126 138
241 719 278 134 141 155
242 716 278 124 128 141
242 717 278 120 126 138
243 716 278 120 125 136
243 717 278 116 122 134
242 718 278 120 126 137
242 719 278 131 137 150
243 718 278 118 124 137
243 719 278 122 129 142
244 712 278 125 131 143
244 713 278 124 129 140
245 712 278 125 130 141
245 713 278 127 131 141
244 714 278 120 124 136
244 715 278 122 127 138
245 714 278 122 125 137
245 715 278 123 126 138
246 712 278 121 125 135
246 713 278 122 125 135
247 712 278 105 111 122
247 713 278 106 111 121
246 714 278 122 125 134
246 715 278 124 126 136
247 714 278 108 111 120
247 715 278 114 116 125
244 716 278 123 129 140
244 717 278 116 123 135
245 716 278 124 129 141
245 717 278 124 129 141
244 718 278 121 127 140
244 719 278 122 128 141
245 718 278 126 131 143
245 719 278 124 130 142
246 716 278 123 126 136
246 717 278 123 127 137
247 716 278 119 122 132
247 717 278 116 121 131
246 718 278 124 129 140
246 719 278 123 129 142
247 718 278 120 125 136
247 719 278 129 134 146
249 704 277 121 125 135
249 705 277 113 120 133
248 704 278 101 106 117
248 705 278 93 101 113
249 704 278 116 121 131
249 705 278 107 114 126
249 706 277 115 122 136
249 707 277 120 126 140
248 706 278 87 95 108
248 707 278 88 95 107
249 706 278 106 113 127
250 704 277 122 126 137
250 705 277 118 125 139
251 704 277 117 121 134
251 705 277 127 135 150
250 706 277 129 138 154
250 707 277 141 149 164
251 706 277 146 156 174
251 707 277 150 159 176
249 708 277 121 125 138
249 709 277 106 110 123
248 708 278 94 100 110
248 709 278 89 95 107
249 710 277 103 110 122
249 711 277 101 108 119
248 710 278 86 92 104
248 711 278 88 95 107
250 708 277 141 145 160
250 709 277 121 124 138
251 708 277 134 139 154
251 709 277 120 122 136
250 710 277 114 120 131
250 711 277 113 119 131
251 710 277 116 121 132
251 711 276 116 121 132
251 711 277 116 121 132
252 704 277 117 122 133
252 705 277 131 137 151
253 704 277 115 119 129
253 705 277 124 129 140
252 706 277 151 158 173
252 707 277 154 161 176
253 706 277 145 150 162
253 707 276 142 147 160
253 707 277 148 154 167
254 704 276 117 121 132
254 704 277 116 119 131
254 705 276 115 119 130
254 705 277 117 122 133
255 704 276 119 123 134
255 705 276 115 121 132
254 706 276 121 126 136
254 707 276 123 128 139
255 706 276 114 120 131
255 707 276 116 121 132
255 709 275 117 122 132
254 711 275 117 125 138
255 710 275 113 119 131
255 711 275 117 124 137
252 708 276 117 123 137
252 708 277 133 140 155
252 709 276 113 117 130
252 709 277 113 116 131
253 708 276 124 130 143
253 709 276 114 119 130
252 710 276 113 117 129
252 711 276 113 118 130
253 710 276 112 117 129
253 711 276 113 119 131
254 708 276 117 122 134
254 709 276 115 119 130
255 708 276 116 121 131
255 709 276 114 119 128
254 710 276 112 118 130
254 711 276 115 122 136
255 710 276 112 117 128
248 712 277 115 120 131
248 713 277 98 103 113
249 712 277 102 108 119
249 713 277 95 101 112
248 712 278 111 117 127
248 713 278 101 105 116
248 714 277 85 90 100
248 715 277 88 92 100
249 714 277 90 97 108
249 715 277 91 96 106
248 714 278 90 94 103
248 715 278 95 99 108
250 712 277 115 119 131
250 713 277 109 114 125
251 712 276 117 121 132
251 712 277 115 120 132
251 713 276 116 120 131
250 714 276 109 114 125
250 714 277 103 109 120
250 715 276 106 111 121
250 715 277 98 104 115
251 714 276 113 119 129
251 715 276 110 114 125
248 716 277 90 94 103
248 717 277 94 99 108
249 716 277 90 94 102
249 717 277 90 94 102
248 716 278 104 108 117
248 717 278 105 110 120
248 718 277 103 107 117
248 719 277 121 124 134
249 718 277 92 95 104
249 719 277 94 98 107
248 718 278 112 117 127
248 719 278 130 135 145
250 716 276 105 109 119
250 716 277 97 101 110
250 717 276 102 106 116
250 717 277 95 99 108
251 716 276 111 116 125
251 717 276 111 115 126
250 718 277 93 97 107
250 719 277 89 94 103
251 718 276 107 111 121
251 719 276 105 110 120
251 719 277 101 107 118
254 712 275 133 140 155
254 713 275 132 141 158
255 712 275 139 146 160
255 713 275 146 154 169
254 714 275 130 139 154
254 715 275 138 145 159
255 714 275 149 155 169
255 715 275 151 157 170
252 712 276 116 119 130
252 713 276 116 121 131
253 712 276 116 122 134
253 713 276 117 124 136
252 714 276 116 122 133
252 715 276 114 120 132
253 714 276 117 124 137
253 715 276 119 125 138
254 712 276 122 129 143
254 713 276 119 128 142
254 714 276 119 127 142
254 715 276 130 136 149
254 716 275 127 132 145
254 717 275 115 120 130
255 716 275 128 134 147
255 717 275 116 120 132
252 716 276 115 120 130
252 717 276 116 121 132
253 716 276 120 125 136
253 717 276 117 121 131
252 718 276 115 119 130
252 719 276 118 123 133
253 718 276 117 121 131
253 719 276 128 133 143
254 716 276 123 128 140
254 717 276 114 118 128
254 718 276 111 115 124
254 719 276 122 126 136
255 718 276 112 116 126
255 719 276 113 118 128
240 720 278 139 146 159
240 721 278 127 132 143
241 720 278 155 161 174
241 721 278 139 143 154
240 722 278 118 121 132
240 723 278 117 120 129
241 722 278 119 123 133
241 723 278 117 120 129
242 720 278 158 162 174
242 721 278 138 143 154
243 720 278 131 136 149
243 721 278 124 129 141
242 722 278 117 121 131
242 723 278 118 121 131
243 722 278 113 118 129
243 723 278 117 121 131
240 724 278 124 128 137
240 725 278 128 131 141
241 724 278 122 126 135
241 725 278 123 126 135
240 726 278 129 131 141
240 727 278 121 125 135
241 726 278 125 128 137
241 727 278 121 124 134
242 724 278 121 125 135
242 725 278 121 125 135
243 724 278 122 126 137
243 725 278 119 124 135
242 726 278 123 126 135
242 727 278 118 121 131
243 726 278 119 124 135
243 727 278 117 121 132
244 720 278 118 124 137
244 721 278 116 122 133
245 720 278 121 127 139
245 721 278 122 126 138
244 722 278 112 117 128
244 723 278 114 119 129
245 722 278 119 123 133
245 723 278 120 124 133
246 720 278 128 134 147
246 721 278 128 133 146
247 720 278 148 153 164
247 721 278 133 138 149
246 722 278 129 133 143
246 723 278 128 130 139
247 722 278 124 129 139
247 723 278 126 128 135
244 724 278 120 125 136
244 725 278 117 123 134
245 724 278 121 126 136
245 725 278 119 124 137
244 726 278 115 121 133
244 727 278 113 119 131
245 726 278 117 123 136
245 727 278 121 126 138
247 725 277 141 148 163
246 724 278 122 125 137
246 725 278 126 129 145
247 724 278 123 125 136
247 725 278 131 137 151
246 727 277 144 147 160
247 726 277 150 156 171
247 727 277 146 150 165
246 726 278 134 138 153
246 727 278 133 138 150
240 728 278 122 128 141
240 729 278 146 152 167
241 728 278 116 122 132
241 729 278 128 134 145
240 730 278 141 149 164
240 731 278 143 150 164
241 730 278 139 145 157
241 731 278 151 157 170
242 728 278 117 121 132
242 729 278 121 127 138
243 728 278 115 120 131
243 729 278 120 125 137
242 730 278 137 142 152
242 731 278 150 155 167
243 730 278 140 145 157
243 731 278 144 149 161
240 732 278 141 148 161
240 733 278 129 137 151
241 732 278 145 153 166
241 733 278 128 135 148
240 734 278 119 127 141
240 735 278 118 124 136
241 734 278 116 124 137
241 735 278 111 117 130
243 733 277 147 155 170
242 732 278 137 146 161
242 733 278 134 141 155
243 732 278 147 155 170
243 733 278 145 153 169
243 734 277 153 159 171
243 735 277 150 154 168
242 734 278 138 144 156
242 735 278 128 134 148
244 728 278 118 123 135
244 729 278 120 125 136
245 728 278 125 129 140
245 729 278 123 127 138
244 731 277 159 162 174
245 730 277 132 135 145
245 731 277 144 146 157
244 730 278 125 129 142
244 731 278 145 149 160
245 730 278 128 131 142
246 728 277 133 136 145
246 729 277 131 132 140
247 728 277 135 138 149
247 729 277 135 136 143
246 728 278 129 133 142
246 730 277 127 129 138
246 731 277 124 128 139
247 730 277 130 133 143
247 731 277 129 133 144
244 732 277 141 147 162
244 733 277 129 137 150
245 732 277 128 134 147
245 733 277 116 122 135
244 732 278 149 155 169
244 734 277 139 142 153
244 735 277 127 130 141
245 734 277 119 122 134
245 735 277 117 119 131
246 732 277 119 124 136
246 733 277 118 123 136
247 732 277 127 132 143
247 733 276 122 127 140
247 733 277 124 129 142
246 734 276 121 124 135
246 734 277 120 124 136
246 735 276 123 124 134
246 735 277 120 123 133
247 734 276 126 129 141
247 735 276 129 131 141
248 720 277 136 138 147
248 721 277 120 123 131
249 720 277 102 105 113
249 721 277 96 99 107
248 720 278 150 153 163
248 721 278 130 134 143
248 722 277 114 117 126
248 723 277 118 121 131
249 722 277 98 101 110
249 723 277 106 109 118
248 722 278 120 124 134
248 723 278 122 125 134
250 720 277 88 94 104
250 721 277 87 93 103
251 720 276 112 118 129
251 720 277 106 111 123
251 721 277 105 111 122
250 722 277 89 95 105
250 723 277 93 98 108
251 722 277 108 114 125
251 723 277 107 113 124
248 724 277 134 138 150
248 725 277 155 160 173
249 724 277 125 129 140
249 725 277 142 145 157
248 724 278 128 131 141
248 726 277 158 164 178
248 727 277 144 150 165
249 726 277 144 148 158
249 727 277 135 140 152
250 724 277 96 102 113
250 725 277 98 103 116
251 724 277 103 112 125
251 725 277 105 115 129
250 726 277 100 105 117
250 727 277 101 107 119
251 726 277 109 118 133
251 727 277 114 122 137
252 720 276 122 127 138
252 721 276 114 119 130
252 721 277 112 118 129
253 720 276 131 136 147
253 721 276 119 122 132
252 722 276 120 124 133
252 722 277 119 123 132
252 723 277 119 125 136
253 722 276 124 126 135
253 723 276 127 131 142
253 723 277 127 132 144
254 720 276 123 128 139
254 721 276 114 118 128
255 720 276 114 118 128
255 721 276 112 116 126
254 722 276 117 120 129
254 723 276 122 127 138
255 722 276 116 119 130
255 723 276 119 122 134
252 724 277 116 125 140
252 725 277 125 135 152
253 724 276 143 148 161
253 724 277 129 137 151
253 725 276 147 156 171
253 725 277 135 145 164
252 726 276 136 147 165
252 726 277 134 145 163
252 727 276 135 144 160
252 727 277 135 144 161
253 726 276 145 154 170
253 727 276 139 147 161
254 724 276 150 154 165
254 725 276 158 162 174
255 724 276 141 144 154
255 725 276 154 155 165
254 726 276 148 153 166
254 727 276 126 131 145
255 726 276 138 141 152
255 727 276 123 127 140
248 728 277 127 132 145
248 729 277 127 129 139
249 728 277 117 123 136
249 729 277 119 123 134
248 730 277 124 127 138
248 731 277 126 130 141
249 730 276 115 120 132
249 730 277 114 119 130
249 731 276 124 128 138
249 731 277 122 126 137
250 728 277 104 110 122
250 729 276 98 102 113
250 729 277 104 109 121
251 728 276 118 124 137
251 728 277 110 116 128
251 729 276 112 116 126
250 730 276 106 110 122
250 730 277 100 103 116
250 731 276 119 123 134
251 730 276 114 116 126
251 731 276 117 120 130
251 733 275 100 104 115
250 735 275 111 114 123
251 734 275 96 101 111
251 735 275 97 101 112
248 732 276 131 134 144
248 732 277 129 133 143
248 733 276 126 130 141
249 732 276 130 134 144
249 733 276 130 134 144
248 734 276 122 126 137
248 735 276 120 123 134
249 734 276 131 133 143
249 735 276 121 124 134
250 732 276 114 119 130
250 733 276 113 118 129
251 732 276 107 110 121
251 733 276 98 102 113
250 734 276 117 120 129
250 735 276 119 121 129
253 731 275 123 127 138
254 730 275 118 122 133
254 731 275 119 123 133
255 730 275 119 123 134
255 731 275 120 123 134
252 728 276 126 133 146
252 729 276 123 128 139
253 728 276 124 130 145
253 729 276 120 125 137
252 730 276 122 126 136
252 731 276 123 126 135
253 730 276 121 124 135
253 731 276 123 127 137
254 728 276 122 124 141
254 729 276 121 124 136
255 728 276 119 123 139
255 729 276 119 122 135
254 730 276 120 123 133
255 730 276 120 123 132
252 732 275 121 125 136
252 733 275 111 116 126
253 732 275 119 123 135
253 733 275 119 124 136
252 734 275 111 115 124
252 735 275 107 110 120
253 734 275 120 124 135
253 735 275 118 122 131
254 732 275 117 122 133
254 733 275 118 123 135
255 732 275 117 122 134
255 733 275 117 122 135
254 734 275 117 121 132
254 735 275 119 123 133
255 734 275 117 120 131
255 735 274 123 125 134
255 735 275 120 123 133
252 732 276 117 120 131
252 733 276 108 111 122
224 736 277 124 137 156
224 737 277 108 119 136
225 736 276 120 134 152
225 737 276 114 126 143
226 736 276 131 142 159
226 737 276 127 136 151
227 736 276 142 149 165
227 737 276 136 142 156
228 736 276 118 124 138
228 737 276 116 122 136
229 736 276 110 115 128
229 737 276 109 114 126
230 736 276 110 117 130
230 737 276 111 116 127
231 736 276 111 117 129
231 737 276 111 117 128
232 736 276 107 113 124
232 737 276 108 113 124
233 736 276 100 106 117
233 737 276 102 108 119
234 736 276 101 107 119
234 736 277 103 110 122
234 737 277 107 113 125
235 736 277 114 121 133
235 737 277 119 126 137
236 736 277 114 121 134
236 737 277 116 122 134
236 736 278 109 116 129
236 737 278 110 116 127
237 736 278 112 119 130
237 737 278 111 116 127
238 736 278 115 121 132
239 736 278 120 124 135
240 736 278 118 122 133
241 736 278 110 115 125
243 736 277 134 137 150
242 736 278 117 122 134
244 736 277 114 115 126
245 736 277 110 111 121
246 736 276 120 121 129
246 736 277 115 117 126
247 736 276 123 124 133
250 736 275 111 114 124
251 736 275 96 101 112
248 736 276 116 119 129
249 736 276 113 117 127
250 736 276 117 119 128
252 736 275 100 105 115
253 736 275 113 117 128
254 736 275 117 122 133
255 736 274 120 125 136
255 736 275 120 125 135
267 602 255 89 94 103
268 601 255 83 88 96
269 601 254 82 88 96
269 601 255 82 87 96
268 602 255 86 92 100
269 602 255 85 91 100
270 600 253 88 93 102
271 600 253 92 97 106
270 600 254 90 95 103
270 601 254 87 92 100
270 601 255 82 87 96
271 600 254 92 97 106
271 601 254 86 92 100
271 601 255 83 89 97
270 602 255 87 93 102
271 602 255 87 93 102
271 603 255 90 96 106
287 591 241 82 86 93
286 591 242 83 87 94
287 591 242 81 85 92
275 597 251 79 84 92
274 598 251 88 94 102
275 598 251 89 94 102
272 599 253 90 96 105
273 599 252 92 98 106
273 599 253 90 96 104
274 598 252 91 96 104
274 599 252 91 97 105
274 599 253 89 95 104
275 598 252 92 97 105
275 599 252 93 99 108
275 599 253 92 98 107
279 595 248 89 93 101
279 595 249 87 91 99
276 597 250 78 83 90
276 597 251 80 85 92
277 596 250 81 85 93
277 597 250 80 85 92
277 597 251 79 85 92
276 598 251 87 91 99
277 598 251 83 89 97
278 596 249 86 90 98
279 596 249 87 91 98
278 596 250 83 88 95
278 597 250 80 85 93
278 597 251 79 83 91
279 596 250 87 91 98
279 597 250 81 85 92
279 597 251 78 83 90
278 598 251 77 82 89
279 598 251 76 81 87
276 598 252 93 98 106
276 599 252 90 96 105
277 598 252 89 94 102
277 599 252 82 88 96
278 598 252 78 83 91
278 599 252 79 84 92
279 599 252 79 83 91
272 600 253 89 95 103
273 600 253 88 94 102
272 600 254 87 93 101
272 601 254 84 90 99
272 601 255 82 89 98
273 600 254 86 92 101
273 601 254 85 91 100
272 602 255 84 90 100
272 603 255 89 95 104
273 602 255 85 91 101
273 603 255 91 97 106
274 600 253 89 95 104
275 600 253 92 98 107
275 601 253 92 98 108
274 601 254 89 95 104
275 601 254 92 98 108
274 602 254 87 94 104
274 602 255 90 95 105
274 603 255 94 99 108
275 602 254 91 97 107
275 603 255 96 102 112
273 604 255 94 99 109
274 604 255 96 102 111
275 604 255 103 109 120
275 605 255 119 124 136
276 600 253 86 93 102
276 601 253 85 91 101
277 600 253 81 87 96
277 601 253 82 88 98
276 601 254 85 92 102
277 601 254 84 90 100
276 602 254 90 96 107
276 603 254 95 101 111
276 603 255 96 103 114
277 602 254 90 96 105
277 603 254 94 100 111
277 603 255 94 101 112
278 600 252 81 87 95
278 600 253 82 87 96
278 601 253 85 90 99
279 600 252 80 85 93
279 600 253 81 86 94
279 601 253 85 90 98
278 601 254 86 92 100
279 601 254 87 92 100
278 602 254 89 95 104
278 603 254 94 99 109
278 603 255 95 100 111
279 602 254 91 96 104
279 603 254 94 99 107
276 604 255 101 108 120
276 605 255 123 129 141
277 604 255 98 105 117
277 605 255 115 122 133
278 604 255 97 103 113
278 605 255 104 110 120
279 604 255 94 100 109
279 605 255 96 101 110
281 594 247 83 87 95
283 593 245 75 77 82
283 593 246 75 77 82
282 594 247 78 81 87
282 595 247 74 78 84
283 594 246 74 77 81
283 594 247 73 75 81
283 595 247 72 76 82
285 592 243 79 82 88
286 592 242 82 85 91
286 592 243 80 84 90
286 593 243 78 81 87
287 592 242 77 81 88
287 592 243 77 80 86
287 593 243 76 80 86
284 593 244 75 79 84
284 593 245 76 80 85
285 592 244 77 80 86
285 593 244 77 81 87
285 593 245 80 84 91
284 593 246 75 78 83
285 594 245 83 87 94
284 594 246 78 81 88
284 594 247 74 77 84
284 595 247 73 77 84
285 594 246 81 85 91
285 595 246 79 83 90
285 595 247 75 80 87
286 592 244 76 80 86
286 593 244 78 82 89
287 593 244 78 82 88
286 594 244 81 85 92
286 594 245 83 88 95
286 595 245 81 86 93
287 594 244 76 81 87
287 594 245 79 83 90
287 595 245 77 82 89
286 594 246 85 90 97
286 595 246 81 85 92
284 596 247 72 76 83
285 596 247 73 78 85
287 596 245 75 79 86
286 596 246 76 81 88
286 596 247 75 79 86
286 597 247 72 77 83
287 596 246 75 79 86
287 597 246 73 77 84
287 597 247 75 78 83
280 595 248 89 93 101
280 595 249 89 93 101
281 594 248 88 92 99
281 595 248 88 92 100
282 595 248 79 84 91
283 595 248 73 77 83
280 596 249 84 89 96
280 597 249 80 84 91
281 596 249 82 87 95
281 597 249 75 80 87
280 597 250 77 81 88
281 597 250 74 78 85
280 598 250 76 79 85
280 598 251 75 79 85
280 599 251 76 79 85
281 598 250 74 78 85
281 598 251 74 77 83
281 599 251 75 79 85
282 596 248 75 80 87
282 596 249 75 81 89
282 597 249 73 78 84
283 596 248 72 77 83
283 597 248 74 77 84
283 597 249 74 78 84
282 597 250 72 77 84
283 598 249 77 80 85
282 598 250 75 79 85
282 598 251 76 80 85
282 599 251 78 81 87
283 598 250 77 80 85
283 598 251 78 80 86
283 599 251 80 82 87
280 599 252 78 82 89
281 599 252 76 80 87
282 599 252 79 83 89
284 596 248 72 77 83
284 597 248 74 79 85
284 597 249 77 80 86
285 597 248 74 78 85
285 597 249 76 80 86
284 598 249 78 80 86
285 598 249 78 81 87
284 598 250 77 80 85
284 599 250 78 80 84
284 599 251 83 85 91
285 599 250 83 85 91
286 597 248 75 78 84
286 598 248 75 78 84
286 598 249 76 80 85
286 599 249 76 79 85
287 598 248 74 77 82
287 599 249 75 78 84
286 599 250 77 80 85
282 600 251 81 84 90
280 600 253 81 86 93
280 601 253 84 88 95
281 600 252 78 82 89
281 600 253 80 84 91
281 601 253 81 85 91
280 601 254 86 90 98
281 601 254 82 86 93
280 602 254 90 94 102
280 603 254 92 97 104
281 602 254 85 88 95
281 603 254 88 91 99
282 600 252 80 83 90
282 600 253 80 83 89
282 601 253 80 83 89
283 600 252 85 88 94
283 600 253 83 86 91
283 601 253 87 90 96
282 601 254 80 83 90
283 602 253 91 94 101
282 602 254 83 86 93
282 603 254 86 89 96
283 602 254 87 90 97
283 603 254 87 90 97
280 604 255 94 98 107
280 605 255 95 99 108
281 604 255 91 95 102
281 605 255 97 100 109
282 604 255 86 90 98
282 605 255 95 99 107
283 604 254 84 88 95
283 604 255 85 89 96
283 605 255 94 97 104
284 600 251 89 93 100
285 600 250 85 88 94
285 600 251 89 92 99
285 601 251 93 96 103
287 600 249 75 77 82
286 600 250 82 85 91
286 600 251 89 92 98
286 601 251 91 94 100
287 600 250 81 84 89
287 601 250 83 85 91
287 601 251 85 88 93
286 602 251 92 95 101
287 602 251 84 86 92
287 603 251 79 81 86
284 600 252 91 94 101
284 601 252 92 95 102
284 601 253 92 95 102
285 600 252 92 95 102
285 601 252 94 97 104
284 602 253 93 96 103
284 603 253 87 91 98
285 602 252 95 98 104
285 602 253 93 96 103
285 603 253 85 89 95
284 603 254 85 88 95
285 603 254 80 84 91
286 602 252 93 96 102
286 603 252 88 91 97
286 603 253 86 89 96
287 603 252 78 80 86
284 604 254 81 84 91
284 604 255 82 86 92
284 605 255 86 89 95
285 604 254 79 82 89
285 605 254 80 83 89
285 605 255 82 85 91
284 606 255 87 89 96
285 606 255 83 85 91
285 607 255 79 82 89
286 604 253 78 82 88
286 605 253 81 83 88
287 604 252 78 80 86
287 604 253 77 80 86
287 605 253 80 82 88
286 604 254 79 82 88
286 605 254 82 84 89
287 606 253 79 82 88
286 606 254 83 85 90
286 606 255 83 85 90
286 607 254 82 84 90
286 607 255 80 83 89
287 606 254 81 83 89
287 607 254 80 84 90
286 608 255 79 82 89
286 609 255 81 84 90
287 608 254 80 83 90
287 609 254 81 84 91
286 610 255 81 85 91
286 611 255 80 84 91
287 610 254 85 88 95
287 611 254 88 90 96
287 611 255 81 84 91
286 612 255 80 84 91
286 613 255 83 86 93
287 612 254 86 88 94
287 612 255 81 84 90
287 613 254 85 87 93
286 614 255 85 89 96
286 615 255 85 89 96
287 614 254 84 86 92
287 614 255 86 88 95
287 615 254 82 84 90
287 615 255 84 87 93
286 616 255 84 88 95
287 616 254 77 80 86
287 616 255 82 85 91
287 617 254 73 77 83
287 617 255 78 82 88
287 618 254 70 74 81
287 618 255 74 78 85
287 619 255 69 74 80
287 620 255 69 73 79
287 630 255 73 78 85
287 631 255 77 83 90
287 632 255 82 88 98
287 633 255 87 94 103
289 590 239 72 76 82
290 590 239 70 74 80
291 590 239 73 77 83
291 591 239 71 75 80
292 591 239 72 76 82
293 591 239 70 74 80
288 590 240 75 79 86
288 590 241 75 80 86
288 591 241 75 79 85
289 590 240 73 76 82
289 591 240 72 75 81
289 591 241 71 75 81
290 591 240 70 74 79
291 591 240 71 74 80
292 592 239 71 75 80
293 592 239 70 73 79
293 593 239 67 71 77
294 592 238 69 72 78
294 592 239 68 72 77
294 593 239 66 69 74
295 593 238 64 68 74
295 593 239 63 67 72
294 594 239 64 68 73
295 594 239 64 67 72
295 595 239 63 66 71
295 602 239 52 56 61
295 603 239 52 56 62
296 593 238 64 68 74
296 594 237 63 67 72
297 595 237 59 62 67
296 594 238 62 65 70
296 594 239 63 66 71
296 595 238 60 64 69
296 595 239 61 65 70
297 595 238 59 63 68
297 598 235 50 53 58
297 599 234 44 48 53
297 599 235 46 50 55
298 598 235 48 51 56
297 596 237 62 65 70
297 597 236 61 64 69
297 597 237 63 67 72
296 596 238 62 66 71
296 596 239 63 66 70
296 597 238 63 67 72
296 597 239 63 66 70
297 596 238 61 64 69
297 597 238 64 67 72
296 599 237 50 54 58
297 598 236 55 58 63
297 598 237 58 62 67
297 599 236 48 52 57
297 599 237 51 54 59
296 598 238 59 63 68
296 598 239 61 64 68
296 599 238 53 57 62
296 599 239 56 59 64
297 598 238 58 62 67
298 596 236 58 61 66
298 597 236 58 61 66
296 604 231 46 50 55
296 605 230 48 52 57
296 605 231 48 51 56
296 607 229 51 55 60
296 606 230 50 54 59
296 606 231 51 54 59
296 607 230 52 55 60
296 607 231 52 55 60
297 601 233 44 47 52
296 601 234 44 47 52
296 601 235 46 49 53
297 600 234 43 47 52
297 600 235 44 48 53
297 601 234 44 47 52
296 602 232 47 50 55
296 602 233 46 49 54
296 603 232 47 51 56
296 603 233 49 52 57
297 602 232 46 49 54
297 602 233 44 47 52
296 602 234 45 48 53
296 602 235 48 51 55
296 603 234 50 53 58
296 603 235 51 54 58
296 600 236 47 50 55
296 600 237 50 53 57
296 601 236 49 52 56
296 601 237 50 53 58
297 600 236 46 50 54
296 600 238 51 55 60
296 600 239 54 57 62
296 601 238 51 55 60
296 601 239 53 56 61
296 602 236 51 54 59
296 602 237 52 55 60
296 603 236 54 57 61
296 603 237 57 60 65
296 602 238 51 55 60
296 602 239 51 55 60
296 603 238 55 59 64
296 603 239 54 58 63
296 604 232 48 52 57
296 604 233 50 54 58
296 605 232 50 54 58
296 605 233 52 55 59
296 604 234 50 53 58
296 604 235 50 53 57
296 605 234 51 54 59
296 605 235 50 54 59
296 606 232 52 55 60
296 606 233 51 55 60
296 607 232 52 56 61
296 607 233 49 53 59
297 607 232 50 55 60
297 607 233 50 54 60
296 606 234 49 54 59
296 606 235 51 55 61
297 607 234 50 55 60
297 607 235 51 56 62
296 604 236 52 55 60
296 604 237 54 58 64
296 605 236 52 56 61
296 605 237 53 57 62
296 604 238 55 59 65
296 604 239 55 59 64
296 605 238 53 57 62
296 605 239 54 57 62
296 606 236 55 59 65
296 606 237 59 62 67
297 607 236 55 59 64
297 607 237 61 64 68
296 606 238 58 60 65
296 606 239 59 61 65
297 607 238 64 66 69
297 607 239 65 66 70
288 592 241 73 77 84
289 592 241 72 75 81
288 592 242 73 78 84
288 593 242 72 76 83
288 593 243 73 78 84
289 592 242 72 76 82
289 593 242 72 76 82
288 594 243 72 76 83
289 594 242 72 76 82
289 594 243 70 74 81
289 595 243 69 73 79
290 592 240 70 74 80
290 592 241 70 74 79
290 593 241 71 74 79
291 592 240 70 73 79
291 593 241 70 73 78
290 593 242 71 74 80
291 594 241 70 73 78
290 594 242 70 73 79
290 594 243 68 72 78
290 595 243 70 74 80
291 594 242 70 73 79
291 595 242 71 74 80
291 595 243 71 75 81
288 594 244 73 77 83
288 595 244 74 78 84
288 595 245 74 79 85
289 594 244 72 76 82
289 595 244 71 75 81
290 596 243 71 75 81
291 596 243 75 78 84
288 596 245 71 76 82
289 596 244 71 75 81
289 596 245 70 74 80
289 597 245 70 75 81
288 596 246 72 77 84
288 597 246 72 76 83
288 597 247 74 78 83
289 597 246 69 74 81
288 598 247 72 75 81
289 598 246 70 75 81
289 598 247 70 74 80
289 599 246 72 77 83
289 599 247 72 76 82
290 596 244 72 76 83
290 597 244 80 84 90
290 597 245 77 81 88
291 597 244 81 85 91
290 598 245 75 80 86
291 598 244 79 83 90
291 598 245 78 83 89
291 599 244 76 81 87
291 599 245 77 81 88
290 598 246 73 78 85
290 599 246 74 79 86
290 599 247 74 78 84
291 599 246 77 82 88
292 592 240 70 73 79
292 593 240 69 72 77
292 593 241 68 71 77
293 593 240 67 71 77
292 594 241 69 72 77
293 594 240 68 71 76
293 594 241 68 72 77
293 595 241 67 71 77
292 594 242 70 74 79
292 595 242 70 73 79
294 594 240 65 69 74
294 595 240 64 67 72
294 595 241 65 68 74
295 595 240 63 66 71
293 596 241 66 70 76
292 596 242 71 75 80
292 596 243 75 78 84
292 597 243 74 78 84
293 596 242 68 71 77
293 597 242 66 70 75
293 597 243 68 71 76
292 598 243 73 76 82
293 598 242 64 67 72
293 598 243 68 71 76
293 599 243 72 75 80
294 596 240 64 68 73
294 596 241 64 68 73
294 597 241 64 68 73
295 596 240 63 66 70
295 597 240 62 64 69
295 597 241 61 64 69
294 597 242 63 67 72
294 598 241 61 64 69
295 598 240 62 64 68
295 598 241 61 64 68
295 599 241 58 61 65
294 598 242 62 65 71
294 599 242 65 68 73
295 599 242 61 64 69
292 598 244 75 79 85
292 599 244 75 79 85
292 599 245 78 82 88
293 599 244 75 79 85
288 598 248 73 76 81
288 599 248 73 76 81
288 599 249 73 76 81
289 599 248 72 75 80
291 600 245 77 81 87
290 600 247 75 79 85
290 601 247 77 80 85
291 600 246 77 81 86
291 600 247 79 82 88
291 601 246 75 77 82
291 601 247 78 80 84
291 602 246 72 73 76
291 602 247 74 76 80
291 603 247 73 75 79
291 604 247 71 73 78
293 600 243 70 73 78
295 600 240 56 59 64
295 600 241 58 62 67
295 601 240 53 57 62
295 601 241 57 61 66
294 600 242 66 69 74
294 600 243 69 72 76
294 601 242 65 69 74
294 601 243 68 72 77
295 600 242 60 64 69
295 602 240 51 55 61
295 602 241 54 58 63
295 603 240 51 55 61
295 603 241 53 56 61
294 602 242 59 63 68
294 602 243 63 67 72
294 603 242 57 60 65
294 603 243 62 65 70
295 602 242 57 60 65
295 603 242 57 60 64
292 600 244 75 79 85
292 600 245 75 79 85
292 601 244 67 72 78
292 601 245 70 73 78
293 600 244 71 75 81
293 601 244 68 72 78
292 601 246 71 73 77
292 602 245 67 70 74
292 603 245 69 71 75
293 602 244 66 69 75
293 603 244 67 70 75
293 603 245 68 71 75
292 602 246 70 71 75
292 603 246 71 73 76
294 602 244 64 67 73
294 603 244 66 69 74
295 604 240 54 58 63
295 604 241 55 58 62
295 605 241 61 63 66
294 604 243 63 65 70
294 605 243 64 66 71
295 604 242 59 62 66
295 604 243 63 65 70
295 605 242 66 68 72
295 605 243 64 66 71
295 606 242 65 67 72
295 606 243 64 67 71
295 607 243 63 66 70
293 604 245 68 70 75
293 605 245 65 68 72
292 604 246 69 71 75
292 604 247 70 72 76
292 605 246 68 70 74
292 605 247 69 71 75
293 605 246 66 69 73
292 606 247 68 71 75
292 607 247 69 71 75
293 606 246 65 67 72
293 606 247 66 69 73
293 607 246 64 67 72
293 607 247 66 69 73
294 604 244 66 69 73
294 605 244 64 67 71
294 605 245 64 66 71
295 605 244 62 65 70
294 606 244 62 65 70
294 606 245 62 65 70
294 607 245 61 64 69
295 606 244 63 66 71
295 607 244 63 66 71
295 607 245 62 65 70
294 607 246 62 65 70
288 600 249 75 77 82
289 600 248 73 75 81
289 600 249 73 76 80
289 601 248 74 77 82
289 601 249 75 78 84
288 601 250 78 81 86
289 601 250 74 77 83
289 602 249 75 78 84
288 602 250 78 80 86
288 602 251 77 79 85
288 603 251 75 78 84
289 602 250 75 78 84
289 603 250 75 78 84
289 603 251 75 78 84
290 601 248 76 79 84
290 601 249 76 79 84
290 602 248 75 78 83
290 602 249 75 78 83
290 603 248 75 78 83
290 603 249 76 79 84
291 603 248 74 76 81
290 603 250 76 80 85
288 604 251 76 79 85
288 605 251 77 80 86
289 604 250 76 79 85
289 604 251 76 79 85
289 605 250 76 80 86
289 605 251 76 80 86
289 606 250 80 84 90
289 606 251 81 85 91
289 607 250 84 87 94
289 607 251 86 89 96
290 604 248 73 76 81
290 604 249 75 78 83
290 605 249 75 78 84
291 604 248 72 74 79
291 605 248 71 74 79
290 604 250 76 79 85
290 605 250 76 79 85
290 606 249 78 81 87
290 607 249 77 80 85
291 606 248 71 74 79
291 606 249 75 78 83
291 607 248 73 76 81
291 607 249 76 78 84
290 606 250 80 84 90
290 607 250 82 85 91
288 604 252 78 80 86
288 605 252 78 81 87
288 606 252 80 83 90
288 606 253 79 83 89
288 607 252 83 87 94
288 607 253 81 85 92
289 607 252 84 88 95
292 607 248 71 73 78
296 597 240 63 65 69
296 598 240 61 63 67
296 599 240 58 60 64
296 600 240 54 57 61
296 601 240 54 57 62
296 604 240 55 58 63
296 605 240 57 59 63
296 605 241 61 63 66
296 606 240 62 64 67
296 606 241 63 64 68
296 607 240 65 66 69
296 607 241 64 65 69
297 607 240 66 67 70
296 606 242 64 66 70
296 607 242 63 65 69
301 617 223 66 72 80
302 617 223 67 73 81
302 618 222 69 75 84
302 618 223 69 75 83
303 618 223 70 76 85
303 619 222 70 76 85
303 619 223 70 76 86
303 620 221 71 78 87
303 620 222 71 78 87
303 620 223 72 78 88
304 620 221 72 78 88
304 621 221 72 79 88
304 620 222 71 78 88
304 620 223 71 78 88
304 621 222 71 79 89
304 621 223 71 79 89
305 621 222 72 80 90
305 621 223 73 81 91
304 622 221 72 79 89
305 622 220 74 80 90
305 622 221 74 81 91
305 623 220 75 81 91
305 622 222 75 82 92
305 622 223 77 85 95
306 623 220 77 84 94
306 623 221 78 85 96
306 623 222 80 87 98
306 623 223 83 91 101
308 630 215 70 75 82
309 631 215 68 73 80
306 624 219 77 82 91
306 625 218 77 82 91
306 625 219 80 85 94
307 625 219 81 87 96
307 627 217 74 79 86
307 626 218 78 83 91
307 626 219 81 87 96
307 627 218 78 84 92
306 624 220 82 89 98
306 624 221 83 90 100
306 625 220 83 90 99
307 625 220 83 90 99
307 625 221 84 91 100
306 624 222 84 91 101
306 624 223 85 92 102
307 624 222 84 91 101
307 624 223 86 93 103
307 625 222 85 91 100
307 625 223 86 92 101
307 626 220 83 89 98
307 626 221 85 90 100
307 626 222 86 91 100
308 627 217 76 81 89
308 627 218 78 83 91
308 627 219 81 86 95
308 625 223 86 92 101
308 626 220 83 88 98
308 626 221 85 90 99
308 627 220 82 88 96
308 627 221 85 90 98
308 626 222 87 92 101
308 626 223 86 92 101
308 627 222 85 90 98
308 627 223 84 89 98
308 628 217 74 79 86
308 629 216 72 76 83
308 629 217 73 78 85
309 629 217 74 79 86
308 628 218 77 82 90
308 628 219 79 84 92
309 628 218 77 82 90
309 628 219 80 85 93
309 629 218 75 80 88
309 629 219 78 83 91
308 630 216 71 76 83
309 630 216 71 76 83
309 630 217 73 78 85
309 631 216 70 75 81
309 631 217 72 76 83
309 630 218 75 79 87
309 630 219 76 81 89
309 631 218 74 79 86
309 631 219 75 80 88
308 628 221 83 88 97
309 628 220 82 87 95
309 628 221 83 88 96
309 629 220 81 86 94
309 629 221 83 88 96
308 628 222 83 88 96
308 628 223 81 87 97
308 629 222 82 88 97
308 629 223 81 87 96
309 629 222 83 88 97
309 629 223 82 89 99
309 630 220 80 85 93
309 630 221 83 88 97
309 631 220 78 83 91
309 631 221 82 87 96
309 630 222 84 89 99
309 630 223 85 91 100
309 631 222 83 89 98
309 631 223 85 91 100
309 632 214 66 71 77
309 632 215 68 72 79
310 633 214 66 70 76
310 633 215 67 71 77
310 634 213 64 68 74
310 635 212 62 66 72
310 635 213 64 68 74
311 635 213 64 68 74
310 634 214 65 69 76
310 634 215 66 70 77
310 635 214 65 69 75
310 635 215 66 70 76
311 637 211 61 65 70
311 638 211 62 67 72
311 639 210 63 66 72
311 636 212 62 66 72
311 636 213 63 67 73
311 637 212 63 67 73
311 637 213 63 68 74
311 636 214 64 69 75
311 636 215 65 70 76
311 637 214 64 68 74
311 637 215 65 69 76
311 638 212 62 67 73
311 638 213 63 67 73
311 638 215 64 68 74
309 632 216 69 74 80
309 632 217 71 76 83
309 632 218 73 78 85
309 632 219 74 79 87
310 632 217 71 76 83
310 633 216 68 73 79
310 633 217 70 75 81
310 632 218 73 78 85
310 632 219 74 79 86
310 633 218 71 76 83
310 633 219 73 78 85
310 634 216 67 71 78
310 634 217 69 73 79
310 635 216 67 71 78
310 635 217 68 73 79
310 634 218 70 75 81
310 634 219 72 76 83
310 635 218 69 73 79
310 635 219 71 75 81
309 632 220 75 81 89
309 632 221 77 83 91
309 632 222 81 86 95
309 632 223 84 90 99
309 633 222 79 85 93
309 633 223 82 88 97
310 633 220 74 79 87
310 633 221 76 81 89
310 633 222 76 82 91
310 633 223 80 86 95
310 634 220 74 78 85
310 634 221 75 80 87
310 635 220 72 77 83
310 635 221 74 78 85
310 634 222 75 81 89
310 634 223 78 84 92
310 635 222 74 79 87
310 635 223 74 80 88
311 636 216 67 71 78
311 636 217 68 72 78
311 637 216 66 70 76
311 637 217 66 70 77
310 636 218 69 73 79
310 636 219 70 74 80
311 636 218 68 73 78
311 636 219 69 73 79
311 637 218 67 71 77
311 637 219 67 71 78
311 638 216 64 69 75
311 638 217 64 69 75
311 638 218 64 69 75
311 638 219 65 70 76
310 636 220 70 75 81
310 636 221 72 76 83
311 636 220 69 73 79
311 636 221 70 75 81
311 637 220 68 72 78
311 637 221 70 74 81
310 636 222 72 77 84
310 636 223 71 77 85
311 636 222 71 75 82
311 636 223 72 78 86
311 637 222 71 75 82
311 637 223 72 77 85
311 638 220 67 71 77
311 638 221 69 73 79
311 639 221 69 73 79
311 638 222 70 75 80
311 638 223 71 76 83
311 639 222 69 74 80
311 639 223 70 74 81
312 639 210 64 68 73
312 639 211 65 69 74
312 638 213 62 67 73
312 639 212 64 68 74
312 639 213 62 66 72
312 638 214 63 67 73
312 638 215 63 67 73
312 639 214 62 66 71
312 639 215 62 66 71
312 638 216 63 67 74
312 638 217 62 67 73
312 639 216 61 66 72
312 639 217 60 66 72
312 638 218 62 68 74
312 638 219 64 69 75
312 639 218 63 68 74
312 639 219 66 70 76
312 639 220 67 71 76
312 639 221 67 71 77
312 639 222 67 71 77
297 610 227 50 53 58
297 611 226 50 53 58
297 611 227 48 52 57
298 611 227 49 53 59
296 608 228 52 55 60
296 608 229 53 56 61
296 609 228 51 54 59
297 608 229 53 56 60
297 609 228 52 55 59
297 609 229 52 55 59
296 608 230 54 57 62
297 608 230 52 56 61
297 608 231 51 55 60
297 609 230 50 54 59
297 609 231 51 54 59
297 610 228 50 53 58
297 610 229 51 54 58
298 609 230 51 54 59
298 609 231 50 53 57
298 610 229 49 53 57
298 611 228 50 54 59
298 611 229 52 55 60
298 610 230 51 54 59
298 610 231 48 52 56
298 611 230 51 54 59
298 611 231 52 55 60
299 611 230 53 55 59
299 611 231 56 59 63
298 613 225 53 56 60
299 613 225 55 59 64
298 612 226 51 55 61
298 612 227 50 55 60
298 613 226 53 56 60
299 613 226 54 58 63
299 613 227 55 59 64
299 614 225 60 65 71
298 612 228 51 55 60
298 612 229 54 57 63
299 612 228 52 56 61
299 612 229 54 58 64
299 613 228 56 60 65
299 613 229 57 61 66
299 612 230 56 59 63
299 612 231 59 62 67
299 613 230 60 63 69
299 613 231 62 65 71
300 614 225 62 67 73
300 615 224 63 68 75
300 615 225 63 68 75
301 615 225 63 68 76
300 614 226 60 64 71
300 614 227 61 66 72
300 615 226 62 67 74
300 615 227 64 69 76
301 615 226 64 69 76
301 615 227 65 70 78
300 613 228 59 63 69
300 613 229 60 63 69
300 613 230 63 67 73
300 613 231 64 68 74
300 614 228 63 67 74
300 614 229 64 69 76
301 615 228 67 71 79
301 615 229 68 72 79
300 614 230 66 70 77
300 614 231 67 72 79
301 615 230 69 73 80
301 615 231 71 75 83
297 608 232 51 55 60
297 608 233 51 55 60
297 608 234 52 55 60
297 608 235 52 55 60
298 609 232 50 54 58
298 609 233 52 54 58
298 608 235 55 57 61
298 609 234 56 58 61
298 609 235 60 62 65
298 610 232 50 53 58
298 610 233 56 58 62
298 611 232 55 58 63
299 611 232 58 60 65
299 611 233 61 63 67
298 610 234 61 62 66
298 610 235 62 64 67
299 610 235 64 65 69
299 611 234 64 66 70
299 611 235 66 68 73
297 608 236 55 58 63
297 608 237 63 64 68
297 609 237 66 67 71
297 608 238 67 68 71
297 608 239 66 67 71
297 609 238 66 68 72
297 609 239 66 68 72
298 608 236 59 61 64
298 608 237 62 64 67
298 609 236 63 65 68
298 609 237 65 66 70
298 609 238 66 68 72
298 609 239 66 68 72
298 610 236 66 67 71
298 610 237 66 68 72
298 611 237 67 69 74
299 611 236 67 70 74
299 611 237 67 70 75
298 610 238 66 69 73
298 610 239 67 69 73
298 611 238 67 69 74
298 611 239 67 70 74
299 611 238 67 70 75
299 612 232 61 64 69
299 612 233 64 67 73
299 613 232 64 68 74
299 612 234 67 71 76
299 612 235 68 71 77
299 612 236 69 72 77
299 612 237 69 72 77
299 613 237 70 73 79
298 612 239 68 70 75
299 612 238 68 71 76
299 612 239 68 71 76
299 613 238 69 73 78
299 613 239 69 72 78
300 613 232 66 70 76
300 613 233 68 72 78
300 612 235 69 72 78
300 613 234 70 74 80
300 613 235 70 74 80
300 614 232 69 73 80
300 614 233 71 75 82
301 614 232 71 75 82
301 614 233 73 77 85
301 615 232 73 77 85
301 615 233 74 79 87
300 614 234 71 76 83
300 614 235 72 77 84
301 614 234 73 78 85
301 614 235 73 78 86
301 615 234 75 80 88
301 615 235 75 80 88
300 613 236 70 74 81
300 613 237 71 75 81
300 613 238 71 74 80
300 613 239 70 74 80
300 614 236 73 78 85
300 614 237 72 77 83
301 615 236 74 79 87
301 615 237 74 78 85
300 614 238 72 75 82
300 614 239 71 75 81
300 615 238 72 76 83
300 615 239 72 75 82
301 615 238 73 77 84
301 615 239 72 76 83
301 616 224 65 70 78
301 616 225 65 71 78
301 617 224 66 72 80
301 617 225 66 71 79
301 616 226 66 71 79
301 616 227 67 73 80
302 617 224 67 73 81
302 617 225 67 73 81
302 616 227 70 74 82
302 617 226 69 74 83
302 617 227 71 76 84
303 617 227 72 77 85
302 618 224 68 75 83
302 618 225 69 75 83
303 618 224 69 76 85
303 618 225 69 76 85
303 619 224 70 77 86
303 619 225 70 77 86
302 618 226 69 75 84
302 618 227 71 76 85
303 618 226 71 77 86
303 618 227 72 78 87
303 619 226 73 79 88
303 619 227 74 80 89
301 616 228 69 74 81
301 616 229 70 74 82
301 616 230 71 76 83
301 616 231 74 78 86
302 616 228 70 75 82
302 616 229 71 76 83
302 617 228 72 77 84
302 617 229 73 77 86
303 617 228 72 78 87
303 617 229 73 79 87
302 616 230 72 77 85
302 616 231 74 79 86
302 617 230 74 79 87
302 617 231 75 80 88
303 617 230 75 80 88
303 617 231 76 81 90
303 618 228 74 80 89
303 618 229 75 81 90
303 618 230 77 82 91
303 618 231 78 83 93
301 616 232 75 80 88
301 616 233 75 80 88
301 616 234 75 80 89
301 616 235 75 81 89
302 616 232 75 80 89
302 616 233 75 81 89
302 617 232 76 81 90
302 617 233 77 83 91
303 617 232 77 82 91
303 617 233 78 83 92
302 616 234 76 81 90
302 616 235 76 82 91
302 617 234 78 84 92
302 617 235 78 84 92
303 618 232 79 84 93
303 618 233 79 85 94
303 618 234 80 86 95
303 618 235 80 85 94
301 616 236 75 81 89
301 616 237 74 79 87
301 616 238 74 78 85
301 616 239 73 77 84
302 616 236 76 82 90
302 616 237 76 81 89
302 617 236 77 83 91
302 617 237 77 82 90
302 617 238 76 80 88
302 617 239 75 79 87
303 618 236 80 85 93
303 618 237 79 84 92
302 618 238 78 82 91
302 618 239 76 81 89
303 618 238 79 83 91
303 618 239 78 82 90
303 619 238 79 84 92
303 619 239 78 83 90
303 620 239 79 84 91
295 608 243 62 65 69
292 608 247 68 70 75
293 608 247 63 66 70
293 609 247 61 63 68
293 610 247 61 64 69
294 608 245 61 65 69
295 608 244 62 65 70
295 608 245 62 65 70
295 609 244 61 64 69
295 609 245 62 64 69
294 608 246 61 65 69
294 609 246 61 64 69
294 609 247 61 64 69
295 609 246 61 64 69
295 610 245 61 64 69
295 611 245 61 64 69
294 610 246 60 63 68
294 610 247 60 63 68
294 611 247 60 63 68
295 610 246 60 64 68
295 611 246 61 64 69
295 611 247 60 63 67
294 612 247 60 63 68
294 613 247 60 63 68
295 612 246 61 64 69
295 612 247 60 63 68
295 613 246 62 65 70
295 613 247 61 64 69
295 614 247 62 65 70
295 615 247 62 65 71
289 608 251 85 88 94
289 609 251 80 82 88
289 610 251 81 83 89
291 608 249 75 77 83
291 609 249 71 74 79
290 608 250 80 83 89
290 609 250 78 80 85
290 609 251 80 82 88
291 609 250 74 77 82
291 610 249 69 71 76
291 611 249 65 68 73
290 610 250 76 78 83
290 610 251 78 80 86
290 611 250 70 73 77
290 611 251 77 79 84
