ply
format ascii 1.0
comment PCL generated
element vertex 1985
property float x
property float y
property float z
property uchar red
property uchar green
property uchar blue
element camera 0
property float view_px
property float view_py
property float view_pz
property float x_axisx
property float x_axisy
property float x_axisz
property float y_axisx
property float y_axisy
property float y_axisz
property float z_axisx
property float z_axisy
property float z_axisz
property float focal
property float scalex
property float scaley
property float centerx
property float centery
property int viewportx
property int viewporty
property float k1
property float k2
end_header
366 787 235 95 101 111
367 786 234 98 106 118
367 787 234 98 104 114
365 784 237 136 139 149
365 785 237 109 114 124
364 784 238 130 135 145
364 784 239 119 124 135
364 785 239 112 117 126
365 784 238 137 141 152
365 785 238 106 112 122
365 786 237 95 100 110
365 787 237 95 101 110
364 786 239 107 111 121
364 787 239 108 113 123
365 786 238 98 104 115
365 787 238 102 107 116
366 784 236 103 108 119
366 785 236 101 106 115
366 786 236 101 105 114
366 786 237 98 102 111
366 787 236 97 102 112
366 787 237 96 101 110
367 788 233 102 107 117
367 789 233 103 108 118
366 788 235 96 101 110
366 789 235 97 104 116
367 788 234 101 106 117
367 789 234 101 107 118
367 790 233 99 105 117
367 791 233 105 111 122
366 790 235 125 133 145
366 791 235 127 135 149
367 790 234 110 118 129
367 791 234 125 131 142
365 788 237 103 108 118
365 789 237 109 115 125
364 788 239 105 111 121
364 789 239 100 106 116
365 788 238 106 110 120
365 789 238 110 114 124
365 790 237 112 117 128
365 791 237 107 114 126
364 790 239 94 99 110
364 791 239 83 88 98
365 790 238 109 113 124
365 791 238 102 107 118
366 788 236 98 102 111
366 788 237 100 105 115
366 789 236 103 109 120
366 789 237 109 115 126
366 790 236 119 128 142
366 790 237 110 118 131
366 791 236 128 138 153
366 791 237 113 122 136
367 792 233 116 121 132
367 793 233 105 110 121
366 792 235 142 151 167
366 793 235 130 137 151
367 792 234 138 143 154
367 792 235 141 147 160
367 793 234 135 139 151
367 793 235 135 140 151
367 794 233 100 105 115
367 795 233 107 113 122
366 794 235 109 114 125
366 795 235 101 106 116
367 794 234 114 119 130
367 794 235 115 119 130
367 795 234 108 112 123
365 792 237 115 122 135
365 793 237 103 110 124
364 792 239 72 78 89
364 793 239 79 85 95
365 792 238 93 98 111
365 793 238 78 84 98
365 793 239 74 80 90
365 794 237 85 93 106
365 795 237 83 90 102
364 794 239 97 102 111
364 795 239 100 104 113
365 794 238 77 85 97
365 794 239 91 96 105
365 795 238 98 102 111
365 795 239 103 107 115
366 792 236 150 159 174
366 792 237 140 147 161
366 793 236 134 141 157
366 793 237 127 133 149
366 794 236 103 109 123
366 794 237 96 100 116
366 795 236 90 96 108
366 795 237 80 86 99
367 796 233 111 116 127
367 797 232 112 118 129
367 797 233 107 111 124
366 796 235 89 95 105
366 797 234 86 90 101
366 797 235 84 88 98
367 796 234 101 106 117
367 797 234 92 96 109
367 798 232 107 114 132
367 798 233 91 94 111
367 799 232 96 104 125
367 799 233 94 101 119
366 798 234 84 89 100
366 798 235 77 82 92
366 799 234 80 86 96
366 799 235 82 88 97
367 798 234 89 93 105
367 799 234 89 95 107
365 796 237 80 87 98
365 797 237 95 99 107
364 796 239 99 105 115
364 797 239 101 107 117
365 796 238 99 103 112
365 796 239 103 107 116
365 797 238 99 104 114
365 797 239 97 102 112
365 798 237 103 106 115
365 799 236 101 105 115
365 799 237 99 104 113
364 798 239 109 116 127
364 799 238 107 112 123
364 799 239 116 121 133
365 798 238 100 106 116
365 799 238 101 107 117
366 796 236 80 87 98
366 796 237 71 78 90
366 797 236 78 83 92
366 798 236 89 93 102
366 799 236 98 103 112
359 784 246 98 103 114
359 784 247 95 101 112
359 785 247 90 95 105
359 786 247 89 95 104
359 787 247 94 98 108
359 788 247 98 102 112
359 789 247 96 105 117
359 790 247 103 112 126
352 784 255 121 125 136
352 785 254 127 132 144
352 785 255 132 136 147
353 784 254 105 109 120
353 784 255 108 112 122
353 785 254 116 121 132
352 787 253 134 140 153
353 787 253 132 138 150
352 786 254 131 137 149
352 787 254 131 137 151
353 786 254 121 127 139
353 787 254 126 132 143
355 784 253 83 88 98
355 785 253 83 88 98
354 784 254 92 97 107
354 785 254 103 108 118
355 784 254 79 85 95
354 786 253 103 108 119
354 787 253 118 125 138
355 786 253 85 91 102
355 787 253 99 107 119
354 786 254 111 117 127
352 791 251 134 139 153
353 790 251 129 136 152
353 791 251 135 140 153
354 791 251 136 141 154
355 791 251 124 131 144
352 788 253 135 141 155
352 789 252 133 139 156
353 788 253 140 148 164
353 789 252 143 150 167
353 789 253 152 161 177
352 790 252 135 141 157
353 790 252 138 144 160
353 791 252 131 138 153
354 788 253 146 154 170
354 789 252 157 161 175
354 789 253 159 166 181
355 788 252 125 132 144
355 788 253 125 134 148
355 789 252 141 147 159
354 790 252 145 151 164
354 791 252 136 143 158
355 790 252 137 143 157
355 791 252 130 137 152
357 784 250 94 98 108
357 784 251 100 103 116
357 785 250 86 92 102
357 785 251 94 97 109
357 786 251 100 104 113
357 787 251 100 104 114
358 784 248 93 99 110
358 784 249 94 99 109
358 785 248 101 106 115
358 785 249 99 103 113
359 784 248 94 100 111
359 785 248 96 100 110
358 784 250 92 96 106
358 785 250 92 97 107
358 786 249 101 105 114
358 787 249 96 100 110
359 786 248 96 101 110
359 787 248 94 99 108
358 786 250 99 103 112
358 787 250 103 107 116
356 784 252 98 102 112
356 784 253 93 98 107
356 785 252 93 97 108
356 785 253 88 93 102
357 784 252 97 99 111
357 785 252 97 100 112
356 786 252 90 95 106
356 786 253 82 88 99
356 787 252 85 92 103
357 786 252 99 102 112
357 787 252 96 100 110
356 789 251 102 109 120
357 788 250 97 101 110
357 788 251 89 94 104
357 789 250 91 96 105
357 789 251 84 90 100
356 790 251 113 120 131
356 791 250 111 114 123
356 791 251 116 122 133
357 790 250 86 94 105
357 790 251 93 100 111
357 791 250 100 106 116
357 791 251 100 106 116
358 788 249 96 103 115
358 789 249 106 113 126
359 788 248 95 100 112
359 789 248 103 109 121
358 788 250 101 106 116
358 789 250 96 103 114
358 790 249 123 130 141
358 791 249 115 122 134
359 790 248 120 125 136
359 791 248 117 123 135
358 790 250 96 104 115
358 791 250 98 105 117
356 788 252 96 103 113
356 789 252 109 116 128
356 790 252 122 129 142
352 796 247 163 170 184
352 797 247 142 148 163
353 796 247 161 168 183
353 797 247 148 154 169
352 798 246 126 130 148
352 798 247 129 134 151
352 799 246 124 131 147
353 798 246 136 140 157
353 798 247 137 142 158
353 799 246 133 139 154
354 797 247 150 155 170
355 797 247 143 147 161
354 798 246 139 145 159
354 798 247 139 144 159
354 799 246 141 147 161
355 798 246 137 143 158
355 798 247 139 144 158
355 799 246 141 147 161
359 794 247 126 134 148
359 795 247 121 129 142
356 797 247 138 143 157
357 796 247 129 135 147
357 797 247 135 141 154
357 799 245 149 156 172
356 798 246 138 144 159
356 798 247 137 143 157
356 799 246 141 147 164
357 798 246 139 144 158
357 798 247 139 144 158
357 799 246 140 146 160
358 796 247 125 131 143
358 797 246 127 132 145
358 797 247 131 136 149
359 796 247 114 120 133
359 797 246 123 128 140
358 798 245 141 146 158
358 799 245 150 154 168
359 798 245 131 136 149
359 799 244 127 134 150
359 799 245 138 143 159
358 798 246 133 138 151
359 798 246 128 133 146
352 793 249 141 147 161
352 792 250 138 143 156
352 793 250 140 146 160
353 792 250 142 146 159
353 792 251 139 143 154
353 793 250 142 148 163
352 794 249 150 158 175
352 795 248 153 162 178
353 794 249 154 163 179
353 795 248 166 173 189
354 792 250 141 146 159
354 792 251 140 143 155
354 793 250 141 147 162
355 792 250 130 135 146
355 792 251 124 130 143
355 793 250 134 140 152
354 794 249 146 155 171
354 795 248 161 168 183
354 795 249 152 161 177
355 794 249 137 146 162
355 795 248 144 150 164
355 795 249 138 146 161
354 794 250 141 149 164
355 794 250 137 143 158
352 796 248 166 173 188
353 796 248 168 174 189
354 796 248 168 173 187
355 796 248 146 152 164
357 793 249 111 118 131
356 792 250 118 122 131
356 793 250 125 129 140
357 792 250 107 112 122
357 793 250 115 120 132
356 794 249 132 138 151
356 795 248 135 141 154
356 795 249 135 141 153
357 794 249 122 129 141
357 795 248 129 135 148
357 795 249 130 136 149
356 794 250 132 138 150
358 792 249 104 112 125
358 793 249 112 120 133
359 792 248 108 117 131
359 793 248 111 122 137
358 794 248 124 133 147
358 794 249 116 125 139
358 795 248 126 133 147
359 794 248 124 134 149
356 796 248 136 142 155
357 796 248 132 138 151
358 796 248 125 131 144
361 784 243 114 121 133
361 785 243 110 116 128
361 786 243 87 98 112
361 787 243 110 119 135
363 784 241 105 112 125
363 785 241 104 110 122
362 784 242 100 106 123
362 784 243 105 111 125
362 785 242 120 126 138
362 785 243 118 123 135
363 786 241 110 116 128
363 787 241 93 97 111
362 786 242 113 119 132
362 786 243 91 100 114
362 787 242 94 103 119
362 787 243 100 110 126
360 784 245 91 98 110
360 785 245 96 103 114
361 784 244 96 104 119
361 785 244 92 101 114
360 784 246 96 102 113
360 785 246 98 103 113
360 786 245 100 105 116
360 787 245 95 101 111
361 786 244 93 103 118
361 787 244 115 123 137
360 786 246 95 100 109
360 787 246 93 98 108
360 787 247 98 103 112
361 788 243 136 143 156
363 788 241 81 85 98
363 789 241 78 83 94
362 788 242 88 94 107
362 788 243 125 131 143
362 789 242 93 99 109
362 789 243 107 114 125
363 790 241 88 92 101
363 791 241 95 99 107
362 790 242 100 104 114
362 790 243 96 101 116
362 791 242 96 100 109
362 791 243 90 95 110
363 790 242 104 108 116
363 791 242 100 104 113
360 788 245 91 101 116
360 789 245 107 115 132
361 788 244 116 123 136
361 789 244 107 114 127
361 789 245 103 113 129
360 788 246 99 106 119
360 788 247 100 106 117
360 789 246 113 121 134
360 789 247 99 107 121
360 790 245 127 135 149
361 790 244 127 132 144
361 790 245 134 142 155
361 791 244 123 130 144
361 791 245 133 144 160
360 790 246 133 140 152
360 790 247 108 118 133
360 791 246 129 139 154
360 791 247 124 134 149
362 790 244 103 108 122
362 791 244 101 108 122
364 784 240 116 120 130
364 785 240 112 115 124
364 786 240 106 110 121
364 787 240 101 106 117
364 788 240 94 99 109
364 789 240 91 95 105
364 790 240 77 82 92
364 791 240 74 79 88
363 792 241 98 101 108
363 793 241 95 99 108
362 792 242 91 96 106
362 792 243 96 103 115
362 793 243 104 111 122
363 792 242 95 100 109
363 793 242 100 105 115
363 794 241 96 101 110
363 795 241 108 113 124
362 794 243 107 113 124
362 795 243 101 108 121
363 794 242 105 111 121
363 795 242 103 110 123
361 792 244 124 133 148
361 792 245 128 140 157
361 793 245 120 131 147
360 792 246 119 130 147
360 792 247 114 124 141
360 793 246 107 118 134
360 793 247 101 110 126
361 792 246 107 122 141
361 793 246 108 121 138
361 794 245 116 124 139
361 795 244 109 113 125
361 795 245 100 107 121
360 794 246 94 101 115
360 794 247 104 112 126
360 795 246 96 101 114
360 795 247 102 110 122
361 794 246 101 110 126
362 792 244 116 125 139
362 793 244 115 123 137
362 794 244 121 126 139
362 795 244 109 114 125
360 799 243 117 122 133
361 798 243 103 111 124
361 799 242 107 116 130
361 799 243 109 116 129
363 796 241 132 138 151
363 797 240 120 127 141
363 797 241 134 141 155
362 796 242 123 131 146
362 796 243 112 119 133
362 797 242 141 148 161
362 797 243 116 123 136
363 796 242 125 134 148
363 797 242 158 164 179
362 798 241 111 119 132
362 799 241 110 116 129
363 798 240 116 123 136
363 798 241 111 118 132
363 799 240 117 122 134
363 799 241 113 119 130
362 798 242 113 122 135
362 798 243 111 119 132
362 799 242 110 118 132
360 796 245 102 108 121
360 797 245 114 118 127
361 796 244 105 110 121
361 796 245 102 107 119
361 797 244 103 109 120
361 797 245 104 108 118
360 796 246 105 112 124
360 797 246 112 118 130
360 798 244 116 122 135
360 798 245 119 123 135
360 799 244 118 124 136
361 798 244 109 114 126
362 796 244 106 111 124
364 792 240 81 86 95
364 792 241 97 100 108
364 793 240 95 99 109
364 794 240 94 99 109
364 795 240 96 102 112
364 796 240 104 110 121
364 797 240 109 116 128
364 798 240 115 122 134
364 799 240 119 125 137
371 768 231 99 107 119
371 769 231 102 112 126
371 770 231 116 124 138
371 771 231 119 130 145
371 772 231 123 132 147
371 773 231 129 136 149
371 774 230 119 124 135
371 774 231 107 114 126
371 775 230 104 110 121
371 775 231 101 108 120
372 768 230 136 145 160
372 768 231 104 114 128
372 769 230 135 145 163
372 769 231 108 118 133
372 771 229 130 143 162
372 770 230 125 136 156
372 771 230 127 141 160
372 772 229 120 131 151
372 773 229 113 119 137
373 773 229 107 116 133
372 772 230 137 146 162
372 773 230 128 133 148
372 774 229 102 109 123
372 775 229 107 113 124
373 774 229 102 110 124
373 775 229 106 112 124
372 774 230 107 114 127
372 775 230 105 110 121
369 768 234 102 109 120
369 768 235 98 105 117
369 769 234 102 108 119
369 769 235 101 107 118
369 770 234 102 108 119
369 770 235 103 110 121
369 771 234 101 107 118
369 771 235 109 115 127
370 768 233 105 110 123
370 769 233 103 109 119
371 768 232 101 107 119
371 769 232 101 108 119
370 768 234 102 109 121
370 769 234 99 106 118
370 770 233 105 111 122
370 771 233 103 109 119
371 770 232 100 107 119
371 771 232 104 110 122
370 770 234 102 109 120
370 771 234 102 108 119
368 768 236 96 102 113
368 768 237 98 103 112
368 769 236 99 105 116
368 769 237 98 103 112
369 768 236 98 105 116
368 770 236 107 112 122
368 770 237 102 107 116
368 771 236 131 136 147
368 771 237 122 128 139
368 773 235 149 155 168
369 772 234 105 111 122
369 772 235 125 131 143
369 773 234 117 123 135
369 773 235 143 149 162
368 774 235 142 150 165
368 775 235 127 134 148
369 774 234 111 118 129
369 774 235 136 143 157
369 775 234 100 107 119
369 775 235 107 116 130
370 772 232 103 110 121
370 772 233 103 108 118
370 773 232 105 110 121
370 773 233 103 108 117
371 772 232 104 111 124
371 773 232 100 109 122
370 772 234 104 109 120
370 773 234 103 108 118
370 774 232 104 109 119
370 774 233 105 108 117
370 775 232 104 109 120
370 775 233 104 108 118
371 774 232 99 106 118
371 775 232 101 107 119
370 774 234 103 108 117
368 772 236 129 137 150
368 772 237 139 146 161
368 773 236 144 151 165
368 773 237 138 147 162
368 774 236 140 148 164
368 774 237 144 153 168
368 775 236 126 134 148
370 777 231 112 119 132
371 776 230 107 113 124
371 776 231 103 110 123
371 777 230 109 115 126
371 777 231 110 118 130
370 778 231 123 129 143
370 779 231 134 141 154
371 778 230 107 113 124
371 778 231 118 125 137
371 779 230 103 108 119
371 779 231 116 123 135
371 783 227 103 109 119
369 782 231 118 123 134
369 783 231 109 114 128
371 780 229 100 107 118
371 781 229 102 109 120
370 780 231 134 141 154
370 781 230 110 114 124
370 781 231 120 127 139
371 780 230 106 111 122
371 781 230 105 111 122
370 783 229 103 109 119
371 782 228 105 111 123
371 782 229 106 112 123
371 783 228 103 109 120
371 783 229 106 112 123
370 782 230 111 115 126
370 782 231 112 118 130
370 783 230 109 114 126
370 783 231 111 115 128
371 782 230 104 110 121
371 783 230 107 112 123
372 776 229 108 112 123
372 777 229 112 117 128
372 776 230 108 113 124
372 777 230 110 115 126
372 778 228 108 113 124
372 778 229 111 117 127
372 779 228 104 110 121
372 779 229 107 112 123
372 778 230 107 113 124
372 780 228 104 110 121
372 780 229 103 109 120
372 781 228 105 111 123
372 781 229 101 108 119
372 782 228 106 112 123
372 783 228 104 110 121
369 776 233 104 110 121
369 777 233 105 112 123
368 776 235 104 109 121
368 777 234 107 111 121
368 777 235 105 109 119
369 776 234 103 109 120
369 777 234 106 111 121
369 778 233 112 118 130
369 779 233 114 121 134
368 778 234 110 115 125
368 778 235 106 113 125
368 779 234 109 115 125
368 779 235 105 111 123
369 778 234 111 116 125
369 779 234 111 116 127
370 776 232 104 110 121
370 776 233 103 109 119
370 777 232 105 112 124
370 777 233 105 112 124
370 778 232 122 128 141
370 778 233 116 122 132
370 779 232 129 137 152
368 776 236 106 113 125
368 777 236 107 112 122
368 780 233 107 117 132
368 781 233 106 112 130
369 780 232 134 143 158
369 780 233 122 129 145
369 781 232 118 125 139
369 781 233 117 124 142
368 780 234 107 114 125
368 780 235 103 109 122
368 781 234 103 110 124
369 780 234 108 118 132
368 782 233 109 116 130
368 783 232 136 142 154
368 783 233 131 139 154
369 782 232 115 121 132
369 782 233 108 114 129
369 783 232 119 125 137
368 782 234 104 112 126
370 780 232 130 139 154
370 781 232 138 145 159
371 784 227 107 112 123
371 785 227 107 114 126
370 787 227 157 166 183
371 786 227 112 121 138
371 787 227 140 150 167
368 785 231 125 130 141
369 784 230 116 122 133
369 784 231 112 119 131
369 785 230 107 112 124
369 785 231 111 117 128
369 786 229 100 111 126
369 787 229 114 124 140
368 786 231 116 121 133
368 787 230 103 109 120
368 787 231 104 109 122
369 786 230 105 111 125
369 787 230 103 110 123
370 784 229 106 112 123
370 785 228 108 115 127
370 785 229 105 111 124
371 784 228 106 111 122
371 784 229 105 111 122
371 785 228 108 114 126
370 784 230 111 117 129
370 785 230 105 111 123
370 786 228 119 128 143
370 786 229 106 114 129
370 787 228 149 159 176
370 787 229 125 135 152
371 786 228 104 112 125
369 791 227 127 136 150
370 788 227 136 147 166
370 789 226 146 155 171
370 789 227 129 142 160
371 789 226 149 156 170
370 790 226 137 148 165
370 790 227 133 142 161
370 791 226 114 127 147
370 791 227 117 129 145
371 790 226 156 163 178
369 788 229 114 125 141
369 789 228 138 148 163
369 789 229 129 138 152
368 788 230 104 109 120
368 788 231 101 107 117
368 789 230 102 109 121
368 789 231 101 106 117
369 788 230 103 111 122
369 789 230 109 117 130
369 790 228 137 144 159
369 790 229 122 133 149
369 791 228 136 144 158
369 791 229 139 147 162
368 790 230 100 109 123
368 790 231 99 105 117
368 791 230 102 111 126
368 791 231 99 106 117
369 790 230 112 122 137
369 791 230 119 127 144
370 788 228 132 146 165
370 789 228 140 151 168
370 790 228 142 149 163
372 784 227 107 112 122
372 785 227 109 116 128
368 784 232 135 143 157
368 784 233 145 157 175
368 785 232 135 143 157
368 785 233 122 137 155
368 786 232 121 128 143
368 786 233 115 126 142
368 787 232 100 107 121
368 788 232 101 106 116
368 789 232 105 109 117
368 790 232 104 108 117
368 791 232 99 103 113
368 791 233 96 101 110
369 792 227 110 117 130
369 793 226 101 107 120
369 793 227 102 107 120
369 795 225 100 108 120
369 794 226 100 108 121
369 794 227 99 106 117
369 795 226 98 105 117
369 795 227 100 105 115
370 792 226 118 125 141
370 792 227 109 119 133
370 793 226 110 114 128
370 794 225 128 135 149
370 795 225 104 111 124
370 794 226 109 118 131
370 795 226 101 109 122
369 792 228 122 129 141
369 792 229 138 144 157
369 793 228 107 111 123
369 793 229 113 118 131
368 792 230 109 117 131
368 792 231 106 112 123
368 793 230 97 104 117
368 793 231 103 108 118
369 792 230 133 139 155
369 793 230 105 111 125
369 794 228 103 108 118
369 794 229 102 106 117
369 795 228 101 106 116
369 795 229 100 105 115
368 794 230 97 102 112
368 794 231 96 102 112
368 795 230 94 100 110
368 795 231 93 98 107
369 794 230 98 104 114
369 796 225 101 108 121
369 797 225 115 122 134
369 796 226 99 106 117
369 796 227 100 106 117
369 797 226 103 109 121
369 797 227 98 105 115
369 798 225 126 133 146
369 799 224 95 102 114
369 799 225 96 103 114
369 798 226 101 108 119
369 798 227 97 103 113
369 799 226 94 99 109
369 799 227 94 100 109
370 796 225 112 119 132
370 797 225 133 141 154
368 796 229 99 106 117
368 797 229 102 106 114
369 796 228 98 104 115
369 796 229 98 104 114
369 797 228 95 101 111
369 797 229 95 100 109
368 796 230 100 107 119
368 796 231 103 109 119
368 797 230 115 122 134
368 797 231 117 126 139
368 798 229 125 127 135
368 799 229 129 132 142
369 798 228 99 103 112
369 798 229 103 106 114
369 799 228 106 109 118
368 798 230 133 139 152
368 798 231 134 143 158
368 799 230 148 154 167
368 799 231 120 130 146
368 792 232 100 105 114
368 792 233 97 102 111
368 793 232 101 105 114
368 793 233 97 102 112
368 794 232 99 104 113
368 794 233 95 100 110
368 795 232 100 105 114
368 796 232 108 113 123
368 797 232 111 119 131
368 798 232 119 127 140
356 807 239 129 138 156
357 807 239 130 137 150
359 805 239 123 131 146
358 806 239 117 122 138
358 807 238 124 129 143
358 807 239 123 128 143
359 806 238 130 139 155
359 806 239 121 129 145
359 807 238 128 134 147
352 809 239 134 141 155
353 808 239 122 129 144
353 809 239 132 144 161
352 811 237 163 174 192
353 811 237 167 176 193
352 810 238 148 159 177
352 810 239 150 159 175
352 811 238 148 160 179
353 810 238 160 171 189
353 811 238 165 175 192
354 808 239 122 129 146
354 809 238 150 161 179
354 809 239 141 151 168
355 808 239 129 135 152
355 809 238 137 144 160
354 810 237 156 167 185
354 811 236 160 169 185
354 811 237 167 177 194
355 810 237 137 145 165
355 811 236 148 155 172
355 811 237 149 158 176
354 810 238 150 162 180
355 810 238 137 145 165
352 814 235 123 128 140
352 815 235 120 127 141
353 814 235 126 130 143
353 815 235 118 126 141
354 813 235 133 137 151
355 812 235 131 137 152
355 813 234 125 129 143
355 813 235 131 136 148
354 814 234 122 127 142
354 814 235 128 132 144
355 814 234 119 124 140
352 812 237 157 166 183
352 813 236 122 129 147
352 813 237 131 140 156
353 812 236 147 155 172
353 812 237 160 169 185
353 813 236 128 135 151
352 814 236 123 128 142
354 812 236 150 158 175
354 813 236 136 142 158
355 812 236 138 146 162
357 811 235 140 145 158
359 811 233 116 122 136
358 811 234 130 134 147
358 811 235 136 140 155
359 810 235 139 142 159
359 811 234 120 123 139
359 811 235 127 129 146
357 809 237 133 138 153
356 808 238 139 144 157
356 808 239 136 142 157
356 809 238 137 141 157
357 808 238 139 144 157
357 808 239 140 146 158
357 809 238 138 142 156
356 810 237 129 133 152
356 811 236 132 139 156
356 811 237 133 140 158
357 810 236 129 135 153
357 810 237 129 134 150
357 811 236 133 140 155
358 808 237 138 145 159
358 809 236 139 145 160
358 809 237 136 143 159
359 808 236 139 146 162
359 808 237 138 145 159
359 809 236 156 161 175
358 808 238 133 139 153
359 808 238 136 142 155
358 810 236 136 142 157
359 810 236 153 157 171
356 812 235 132 138 152
356 813 234 124 128 142
356 813 235 131 136 148
357 812 234 129 134 147
357 812 235 137 142 155
357 813 234 124 129 144
356 814 234 116 122 139
358 812 233 118 124 139
359 812 233 118 123 137
358 812 234 124 129 142
359 812 234 115 121 135
356 812 236 133 141 157
367 800 231 112 120 136
367 801 231 134 140 155
367 803 229 100 104 115
367 802 230 120 123 133
367 802 231 117 122 134
367 803 230 102 105 118
367 803 231 87 95 109
365 806 231 112 120 135
365 807 230 121 129 143
365 807 231 119 128 143
367 804 228 95 100 111
367 804 229 94 97 108
367 805 228 84 91 107
367 805 229 85 92 104
366 804 231 135 141 153
366 805 230 143 148 160
366 805 231 129 135 149
367 804 230 84 90 106
367 804 231 106 113 127
367 805 230 106 113 125
366 806 229 129 134 146
366 807 229 111 117 130
367 806 229 108 114 128
366 806 230 128 134 147
366 806 231 111 119 133
366 807 230 116 123 137
361 803 239 117 124 139
363 800 239 107 113 125
363 801 238 129 134 145
363 801 239 116 122 134
363 803 237 121 127 141
362 802 239 118 125 139
362 803 238 121 129 144
362 803 239 118 127 141
363 802 238 122 128 140
363 802 239 118 126 139
363 803 238 120 127 141
363 805 235 149 159 176
363 807 233 143 151 168
362 807 235 140 151 171
363 806 234 160 168 184
363 806 235 151 162 179
363 807 234 138 148 168
363 807 235 134 147 167
361 805 237 158 167 184
360 805 239 136 147 164
361 804 239 130 139 154
361 805 238 165 175 195
361 805 239 147 158 175
360 807 237 144 151 168
361 806 237 146 157 175
361 807 236 139 149 168
361 807 237 148 158 176
360 806 238 152 163 180
360 806 239 148 159 176
360 807 238 137 147 163
361 806 238 152 165 185
362 805 237 147 157 175
363 804 236 134 142 159
363 804 237 125 132 151
363 805 236 136 146 163
363 805 237 135 144 162
362 804 238 133 141 157
362 805 238 151 161 178
363 804 238 120 127 142
362 806 236 155 166 184
362 806 237 152 162 180
362 807 236 149 161 180
363 806 236 150 161 178
365 803 234 111 116 126
365 803 235 112 116 127
366 801 233 82 89 101
367 800 232 124 131 147
367 800 233 101 108 122
367 801 232 121 129 144
367 801 233 88 96 110
366 800 234 82 87 97
366 800 235 98 103 111
366 801 234 96 101 111
366 801 235 105 109 118
367 800 234 85 92 104
366 802 233 98 105 117
366 803 232 118 124 137
366 803 233 108 115 128
367 802 232 89 97 112
367 802 233 85 94 110
367 803 232 95 103 117
366 802 234 103 108 118
366 802 235 106 111 120
366 803 234 104 109 120
364 801 237 120 126 139
365 800 236 99 105 115
365 800 237 107 112 123
365 801 236 107 113 124
365 801 237 116 123 135
364 800 238 114 120 131
364 800 239 113 119 130
364 801 238 124 129 141
365 800 238 107 113 124
364 802 237 116 122 135
364 803 236 122 129 142
364 803 237 118 126 140
365 802 236 113 118 130
365 803 236 117 123 135
364 802 238 123 128 139
366 800 236 100 105 115
366 801 236 103 108 118
365 804 233 120 127 140
365 805 233 132 138 151
364 804 235 120 128 146
364 805 234 167 174 190
364 805 235 144 154 171
365 804 234 124 130 143
365 804 235 117 122 135
365 805 234 148 154 169
364 806 233 141 145 160
364 807 232 124 129 145
364 807 233 135 140 157
365 806 232 115 123 137
365 806 233 122 127 142
365 807 232 120 126 142
364 806 234 162 168 184
366 804 232 135 141 153
366 804 233 112 119 132
366 805 232 120 127 140
366 805 233 121 128 141
364 804 236 127 134 150
363 809 231 135 143 157
364 808 231 134 141 156
364 809 231 142 148 162
365 808 230 135 142 156
365 808 231 128 136 151
361 809 233 111 119 132
360 809 235 138 143 157
361 808 234 110 119 138
361 808 235 122 130 149
361 809 234 111 119 134
361 809 235 119 126 139
360 811 232 128 133 145
360 811 233 117 123 137
361 810 232 123 128 143
361 810 233 119 125 139
361 811 232 130 136 149
361 811 233 121 127 141
360 810 234 118 121 137
360 810 235 135 138 154
360 811 234 116 123 138
361 810 234 116 121 135
362 808 233 123 133 149
362 809 232 116 125 143
362 809 233 123 132 147
363 808 232 132 139 152
363 808 233 145 153 168
363 809 232 133 139 155
362 808 234 126 135 153
362 808 235 131 138 160
363 808 234 139 149 166
362 810 232 120 127 144
360 808 236 147 156 173
360 808 237 140 149 166
360 809 236 155 161 176
361 808 236 129 139 157
364 808 232 127 133 147
364 808 233 137 141 155
352 803 243 127 135 152
353 803 243 141 147 161
354 802 243 144 150 164
354 803 243 143 148 161
355 802 243 141 148 163
355 803 243 140 146 162
352 800 245 129 134 149
352 801 244 126 132 146
352 801 245 129 134 149
353 800 245 138 144 158
353 801 244 133 138 154
353 801 245 139 145 159
352 802 244 127 132 147
353 802 244 133 138 153
354 800 245 146 151 166
354 801 244 140 145 163
354 801 245 147 152 169
355 800 245 143 149 164
355 801 244 143 150 166
355 801 245 143 149 167
354 802 244 141 147 162
355 802 244 146 153 167
353 805 241 123 129 144
352 804 242 159 164 177
352 804 243 149 155 170
352 805 242 143 149 163
353 804 242 134 138 153
353 804 243 138 143 157
353 805 242 127 131 146
352 806 241 119 125 141
352 807 241 114 119 134
353 806 241 121 127 141
353 807 240 125 129 141
353 807 241 123 128 141
352 806 242 126 132 148
354 805 241 128 134 149
355 805 241 132 139 154
354 804 242 135 141 157
354 804 243 138 143 158
354 805 242 129 135 151
355 804 242 149 156 170
354 806 241 128 135 148
354 807 240 127 131 147
355 806 240 133 140 155
355 806 241 135 142 156
355 807 240 127 134 151
356 802 243 137 146 163
356 803 243 143 150 165
357 802 243 147 153 169
357 803 242 146 151 165
357 803 243 145 150 165
358 801 243 138 144 160
359 800 243 128 135 149
359 801 243 132 138 152
359 803 241 125 129 142
358 802 242 129 135 149
358 802 243 137 142 158
358 803 242 133 138 151
359 802 242 127 132 144
359 802 243 128 134 147
359 803 242 128 133 145
356 800 245 140 149 168
356 801 244 152 160 176
356 801 245 142 152 171
357 800 245 153 163 183
357 801 244 160 168 185
357 801 245 148 160 179
356 802 244 150 158 173
357 802 244 168 173 188
358 800 244 162 169 184
358 800 245 159 165 182
358 801 244 164 169 183
359 800 244 139 146 160
356 805 241 152 158 172
357 804 241 137 143 157
357 805 240 137 143 157
357 805 241 148 154 168
356 804 242 166 171 184
357 804 242 149 154 168
356 806 240 140 146 161
356 806 241 142 148 162
356 807 240 127 134 153
357 806 240 135 140 156
357 807 240 127 136 152
358 804 241 131 137 149
358 805 240 122 130 145
358 805 241 132 138 152
359 804 240 122 129 143
359 804 241 125 131 145
359 805 240 120 128 142
358 804 242 133 139 152
358 806 240 122 128 144
352 808 240 114 120 133
353 808 240 122 127 139
354 808 240 124 128 145
361 800 241 114 121 134
361 801 241 122 127 139
360 800 243 120 127 139
360 801 242 128 133 146
360 801 243 131 137 148
361 800 242 115 123 137
361 800 243 111 119 132
361 801 242 119 127 140
360 802 241 123 128 140
360 803 240 120 125 138
360 803 241 125 129 141
361 802 240 122 127 138
361 802 241 125 129 140
361 803 240 116 121 134
360 802 242 124 129 141
362 800 241 113 119 130
362 801 240 114 119 131
362 801 241 115 119 131
363 800 240 113 117 129
363 801 240 110 114 126
362 802 240 120 126 138
360 804 240 119 125 138
360 805 240 119 126 140
361 804 240 118 124 137
369 800 224 95 102 112
369 800 225 93 100 110
369 801 225 96 102 112
368 801 227 127 130 140
369 800 226 93 99 109
369 800 227 100 106 116
369 801 226 104 109 120
369 801 227 115 119 129
368 802 227 118 122 131
368 803 226 115 122 135
368 803 227 105 110 124
369 802 226 118 122 132
369 802 227 120 123 133
368 800 228 117 120 130
368 800 229 125 129 139
368 801 228 124 128 139
368 801 229 116 120 133
369 800 228 111 115 124
368 800 230 123 127 141
368 800 231 111 118 134
368 801 230 111 115 130
368 801 231 128 134 148
368 802 228 108 112 123
368 802 229 102 106 119
368 803 228 102 107 119
368 803 229 101 105 115
368 802 230 116 119 130
368 804 227 109 117 132
368 804 228 99 103 115
303 769 267 118 124 137
302 770 267 120 125 137
302 771 267 120 125 136
303 770 267 117 122 136
303 771 267 114 119 131
303 768 268 117 122 135
303 769 268 117 121 133
303 773 265 138 146 161
302 772 266 121 124 134
302 772 267 122 125 136
302 773 266 120 124 135
303 772 266 114 119 131
303 772 267 117 121 132
303 773 266 121 128 141
302 775 265 121 126 138
303 774 265 137 144 159
303 775 265 137 143 157
302 774 266 120 125 137
302 775 266 118 123 134
303 774 266 124 131 144
303 779 263 113 118 129
301 783 263 108 113 127
302 781 263 111 117 128
303 780 263 110 116 127
303 781 263 113 118 130
302 782 263 114 119 131
302 783 263 110 115 127
303 782 263 110 117 128
303 783 262 114 119 129
303 783 263 112 118 128
301 777 265 118 126 140
301 778 265 129 138 154
301 779 264 151 158 172
301 779 265 145 155 171
302 776 265 118 123 135
302 777 264 113 120 136
302 777 265 115 122 137
303 776 264 114 121 134
303 776 265 114 121 135
303 777 264 111 116 129
302 778 264 133 140 155
302 778 265 116 126 142
302 779 264 142 148 162
303 778 264 115 121 133
303 779 264 117 122 134
301 780 264 127 134 148
301 781 264 130 135 147
301 782 264 124 130 142
301 783 264 111 115 130
302 780 264 115 122 134
302 781 264 110 117 129
303 780 264 114 119 130
301 784 263 103 109 122
301 785 263 113 120 132
300 786 263 135 143 158
300 787 263 129 137 151
301 786 262 159 163 175
301 786 263 147 153 166
301 787 262 129 135 147
301 787 263 156 163 177
302 784 263 108 113 123
302 785 262 115 119 131
302 785 263 116 121 132
303 784 262 115 119 129
303 785 262 112 115 125
303 787 261 110 117 128
302 786 262 139 143 154
302 787 262 121 126 139
303 786 262 116 120 131
303 787 262 112 118 130
300 788 262 114 118 129
300 788 263 112 117 129
300 789 262 111 115 125
300 789 263 109 114 124
301 788 262 107 111 121
301 789 262 105 109 119
301 790 261 108 113 123
301 791 261 109 114 124
300 790 262 108 112 122
300 791 262 106 110 120
301 790 262 106 111 121
301 791 262 112 116 125
302 789 261 106 111 121
303 788 261 111 116 127
303 789 261 110 115 125
302 788 262 107 111 122
302 789 262 104 109 120
302 790 261 104 110 121
302 791 261 108 113 124
303 790 261 110 115 125
303 791 260 112 117 128
303 791 261 109 114 124
299 798 261 136 144 157
299 799 261 142 150 164
303 794 259 107 112 124
303 795 259 105 112 124
300 792 261 101 106 117
300 793 261 104 109 119
301 792 261 104 110 121
301 793 261 105 110 121
300 792 262 103 108 118
300 793 262 101 106 117
300 794 261 109 116 128
300 795 261 135 145 160
301 794 261 106 112 122
301 795 260 114 120 132
301 795 261 125 131 144
300 794 262 108 115 127
300 795 262 153 161 177
302 792 260 108 112 123
302 792 261 109 113 124
302 793 260 103 108 119
302 793 261 102 106 119
303 792 260 110 115 125
303 793 260 106 112 122
302 794 260 100 106 116
302 795 260 108 113 125
303 794 260 102 107 118
303 795 260 116 122 133
303 796 259 129 136 149
303 797 259 141 149 163
302 798 259 115 128 146
302 799 259 125 135 150
303 798 259 137 145 160
303 799 258 128 132 144
303 799 259 135 143 158
300 796 261 132 145 162
300 797 261 129 141 157
301 796 260 115 125 140
301 796 261 135 144 159
301 797 260 143 153 169
300 798 260 111 124 143
300 798 261 137 147 163
300 799 260 113 123 143
300 799 261 130 140 156
301 798 260 134 145 162
301 799 260 121 129 148
302 796 260 120 129 144
302 797 260 135 146 162
303 796 260 140 147 160
302 798 260 123 135 153
302 799 260 115 126 141
308 775 263 117 123 135
309 774 263 117 122 135
309 775 263 116 120 133
310 774 263 123 127 142
310 775 263 120 124 137
311 774 263 121 127 141
311 775 263 123 128 141
304 768 267 141 148 162
304 769 267 132 138 151
305 768 267 151 159 174
305 769 267 142 149 163
304 770 266 117 120 131
304 770 267 120 124 137
304 771 266 114 118 129
304 771 267 113 116 128
305 770 266 121 125 136
305 770 267 121 126 137
305 771 266 119 123 135
306 768 267 141 148 165
306 769 266 122 125 141
306 769 267 134 138 153
307 768 267 118 123 140
307 769 266 118 123 138
307 769 267 117 121 138
307 771 265 118 123 138
306 770 266 117 122 134
306 771 266 119 125 137
307 770 266 116 120 132
307 771 266 120 124 137
304 768 268 123 130 143
304 773 265 140 148 165
305 772 265 131 140 155
305 773 265 160 167 182
304 772 266 116 122 136
304 773 266 124 133 150
305 772 266 117 125 139
304 774 265 145 152 169
304 775 264 138 145 160
304 775 265 142 148 164
305 774 265 153 161 178
305 775 264 134 142 157
306 772 265 133 142 157
306 773 265 161 169 185
307 772 265 122 131 147
307 773 264 157 164 178
307 773 265 153 162 178
306 772 266 120 128 142
306 774 264 159 166 180
306 774 265 165 172 188
306 775 264 131 137 150
307 774 264 150 156 169
307 775 264 124 129 141
308 768 267 123 128 143
308 769 266 122 127 141
309 768 266 128 132 144
309 768 267 128 133 145
309 769 266 126 131 144
308 771 265 118 123 136
309 770 265 122 128 141
309 771 265 123 129 142
308 770 266 119 123 136
309 770 266 122 128 142
310 768 266 131 135 147
310 768 267 131 135 147
310 769 266 131 136 148
311 768 266 129 134 149
311 768 267 128 133 148
311 769 266 131 136 150
310 770 265 128 134 147
310 771 265 127 134 147
311 770 265 132 138 150
311 771 265 137 143 156
310 770 266 127 133 146
311 770 266 133 138 152
308 772 265 120 126 140
308 773 264 124 130 144
308 773 265 124 131 145
309 772 265 123 129 143
309 773 264 121 127 139
308 774 264 119 125 138
308 775 264 119 125 136
309 774 264 117 122 133
310 772 264 134 140 153
310 772 265 131 137 151
310 773 264 126 133 147
311 772 264 153 159 173
311 772 265 150 156 170
311 773 264 133 140 153
310 774 264 123 129 144
305 777 263 117 122 133
304 778 263 114 119 129
304 779 263 111 115 126
305 778 263 118 122 132
305 779 263 114 118 127
306 776 263 113 116 131
306 777 263 118 123 135
307 776 263 110 116 129
307 777 263 119 124 136
306 778 263 121 126 136
306 779 262 115 120 129
306 779 263 117 121 131
307 778 262 132 136 147
307 778 263 124 129 140
307 779 262 120 125 137
304 780 263 104 110 121
304 781 262 106 112 123
304 781 263 109 114 126
305 780 262 112 116 125
305 780 263 109 113 123
305 781 262 106 110 120
305 783 261 107 113 123
304 782 262 110 116 127
304 783 262 112 117 128
305 782 262 108 113 123
305 783 262 107 113 123
307 781 261 114 121 135
306 780 262 114 118 128
306 781 262 113 118 128
307 780 262 115 121 134
307 781 262 114 120 132
306 782 261 110 115 126
306 783 261 108 114 124
307 782 261 114 120 133
307 783 260 108 114 127
307 783 261 110 115 127
306 782 262 113 117 127
308 776 263 116 121 133
308 777 262 122 129 141
308 777 263 121 127 138
309 776 263 115 120 132
309 777 262 120 127 140
309 779 261 159 168 185
308 778 262 130 136 149
308 779 262 137 145 160
309 778 262 128 136 152
309 779 262 149 158 175
310 776 262 121 127 140
310 776 263 120 124 135
310 777 262 125 132 145
311 776 262 120 125 137
311 776 263 122 128 140
311 777 262 121 127 140
310 779 261 150 158 174
311 779 261 145 151 165
310 778 262 147 154 169
310 779 262 155 163 179
311 778 262 138 143 157
310 783 259 117 122 135
311 783 259 122 127 138
308 780 261 134 144 161
308 781 261 147 155 171
309 780 261 154 163 179
309 781 260 145 154 171
309 781 261 158 166 181
308 780 262 120 130 145
308 782 260 128 135 149
308 782 261 138 144 159
308 783 260 114 120 134
308 783 261 115 120 135
309 782 260 132 139 154
309 783 260 115 122 135
310 780 261 156 165 180
310 781 260 154 162 180
310 781 261 157 167 184
311 780 261 160 167 181
311 781 260 151 158 173
310 782 260 132 140 157
310 783 260 118 123 138
311 782 260 135 142 156
311 783 260 122 128 141
304 776 264 122 129 144
304 777 264 110 116 130
305 776 264 116 121 135
305 777 264 113 119 131
304 778 264 112 117 128
306 776 264 113 117 131
307 776 264 113 116 130
312 774 263 131 137 150
312 775 263 127 133 146
313 774 263 135 141 154
313 775 263 127 133 146
314 774 263 133 139 152
314 775 263 128 134 146
315 775 263 129 135 149
316 775 263 146 153 167
312 768 266 141 148 163
312 768 267 142 147 163
312 769 266 144 149 163
313 768 266 152 159 173
313 768 267 149 155 170
313 769 266 148 153 165
312 770 265 134 138 151
312 771 265 141 146 159
313 770 265 137 141 152
313 771 265 138 143 155
313 770 266 137 141 152
314 768 266 148 153 166
314 768 267 145 151 164
314 769 266 143 147 159
315 768 266 133 137 148
315 768 267 133 137 149
315 769 266 132 135 147
314 770 265 135 139 150
314 771 265 132 137 150
315 770 265 130 135 147
315 771 265 133 138 151
314 770 266 134 137 149
315 770 266 127 132 143
312 772 264 159 164 178
312 772 265 152 158 172
312 773 264 148 153 166
313 772 264 144 152 166
313 772 265 140 147 161
313 773 264 147 153 166
312 774 264 138 143 156
313 774 264 141 147 160
314 772 264 132 141 156
314 772 265 128 136 151
314 773 264 136 142 156
315 772 265 131 137 151
315 773 264 132 138 151
315 773 265 134 139 151
314 774 264 136 142 155
315 774 264 133 138 150
315 775 264 133 139 153
316 768 266 129 132 143
316 768 267 127 130 141
316 769 266 128 133 143
317 768 266 127 131 141
317 768 267 127 131 140
317 769 266 123 128 140
316 771 265 131 137 149
317 771 265 132 137 149
316 770 266 128 133 145
317 770 266 127 132 144
318 768 266 124 129 141
318 769 266 121 126 138
319 768 266 123 130 143
319 769 266 117 124 136
318 771 265 128 132 143
319 770 265 122 126 137
319 771 265 123 127 138
318 770 266 125 129 140
319 770 266 119 125 136
316 772 265 135 140 151
316 773 264 132 137 148
316 773 265 137 141 152
317 772 265 138 142 154
317 773 264 131 136 148
317 773 265 136 140 151
316 774 264 134 140 153
316 775 264 143 150 164
317 774 264 140 146 159
317 775 264 164 170 184
318 772 265 130 134 145
318 773 264 125 130 142
318 773 265 129 133 145
319 772 265 123 126 138
319 773 264 121 125 137
319 773 265 123 127 139
318 774 264 133 139 152
318 775 264 152 158 172
319 774 264 123 128 140
319 775 264 128 135 148
312 776 262 123 128 141
312 776 263 123 129 142
312 777 262 120 125 137
313 776 262 126 130 142
313 776 263 125 131 144
313 777 262 123 126 138
312 779 261 125 131 145
313 779 261 118 123 136
312 778 262 121 126 138
313 778 262 121 125 137
314 776 263 128 132 145
314 777 262 128 131 143
315 776 263 129 135 149
315 777 262 130 135 148
315 777 263 134 138 152
314 779 261 123 127 140
315 779 261 124 130 144
314 778 262 126 129 142
314 779 262 125 129 141
315 778 262 127 132 144
315 779 262 124 130 142
312 783 259 126 129 140
313 783 259 119 124 135
314 783 259 125 130 142
315 783 259 127 134 148
312 780 260 146 151 164
312 780 261 141 148 161
312 781 260 130 136 149
313 780 260 123 128 141
313 780 261 117 123 136
313 781 260 122 128 139
312 782 260 126 131 142
313 782 260 123 127 138
314 780 261 122 127 139
314 781 260 126 130 142
315 780 261 123 129 143
315 781 260 121 126 140
315 781 261 121 126 140
314 782 260 124 129 141
315 782 260 121 127 140
315 783 260 128 134 148
316 776 263 142 148 162
316 777 262 136 144 160
316 777 263 140 147 162
317 776 263 156 162 177
317 777 263 146 156 173
316 779 261 135 143 158
317 779 261 141 149 165
316 778 262 135 143 158
316 779 262 142 149 164
317 778 262 147 156 173
317 779 262 146 154 170
318 776 263 152 161 176
318 777 263 153 163 181
319 776 263 140 151 167
319 777 263 156 165 182
318 778 262 146 155 172
318 778 263 156 164 181
318 779 262 138 147 163
319 778 262 148 157 172
319 778 263 158 166 181
319 779 262 140 149 166
316 783 259 134 140 155
316 780 261 126 134 149
316 781 260 122 126 142
316 781 261 122 127 143
317 780 261 130 137 152
317 781 261 124 129 144
316 782 260 127 133 146
316 783 260 133 138 151
317 782 260 132 136 149
317 783 260 135 139 153
318 780 261 129 137 152
318 781 261 126 133 149
319 780 261 137 146 162
319 781 261 141 148 164
318 780 262 135 143 159
319 780 262 142 151 168
318 782 260 132 136 149
318 782 261 130 136 150
318 783 260 130 134 146
319 782 261 136 141 156
319 783 260 131 135 146
319 783 261 130 135 147
307 787 259 113 119 132
304 784 261 110 115 126
304 785 261 109 113 123
305 784 261 107 112 123
305 785 261 110 116 127
304 784 262 113 118 128
304 785 262 112 116 126
304 786 261 109 113 123
304 787 261 110 115 126
305 786 260 124 132 146
305 786 261 112 119 131
305 787 260 116 123 136
305 787 261 108 116 128
304 786 262 113 117 127
306 784 261 106 112 124
306 785 260 120 130 145
306 785 261 107 116 129
307 784 260 107 115 127
307 785 260 125 134 148
306 786 260 142 152 167
306 787 260 115 122 137
307 786 260 152 160 175
307 787 260 131 139 154
305 790 259 109 114 125
305 791 259 126 132 145
306 788 259 105 110 123
306 789 259 102 107 121
307 788 259 107 112 124
307 789 259 106 113 127
306 790 259 107 113 126
306 791 258 129 140 156
306 791 259 128 136 149
307 790 258 132 140 155
307 790 259 113 122 136
307 791 258 147 156 173
304 788 260 109 114 124
304 788 261 115 119 130
304 789 260 113 117 127
304 789 261 113 118 127
305 788 260 107 112 124
305 789 260 107 112 123
304 790 260 113 118 129
304 791 260 110 116 128
305 790 260 110 115 127
306 788 260 104 110 122
308 785 259 114 119 132
309 784 259 116 121 133
309 785 259 111 115 128
308 786 259 121 127 140
308 787 258 116 120 130
308 787 259 115 120 132
309 786 259 107 111 126
309 787 258 111 115 128
309 787 259 109 113 128
310 784 259 119 123 134
310 785 259 115 120 132
311 784 259 124 128 138
311 785 258 117 121 131
311 785 259 117 123 134
311 787 257 112 117 129
310 786 258 109 114 128
310 786 259 107 112 126
310 787 258 111 114 127
311 786 258 112 117 127
311 787 258 109 114 126
308 784 260 114 119 131
308 785 260 121 126 138
309 784 260 115 121 133
309 789 257 109 115 127
308 788 258 114 117 128
308 788 259 110 114 126
308 789 258 111 118 131
309 788 258 109 114 125
309 789 258 109 115 127
308 790 257 146 155 172
308 791 257 147 157 173
309 790 257 128 135 149
309 791 257 133 140 153
308 790 258 133 142 157
308 791 258 143 153 170
310 788 257 115 119 129
310 789 257 112 117 128
311 788 257 117 120 130
311 789 257 117 121 131
310 788 258 114 116 127
310 790 257 113 118 130
310 791 256 116 120 131
310 791 257 115 120 132
311 790 256 112 117 129
311 790 257 114 118 129
311 791 256 112 117 129
304 792 259 110 117 130
304 793 259 115 121 132
305 792 259 123 130 145
305 793 259 128 135 148
304 794 259 110 115 128
304 795 259 103 110 123
305 794 258 107 113 126
305 794 259 109 116 128
305 795 258 107 112 123
307 792 257 145 154 172
307 793 257 121 129 144
306 792 258 132 142 159
306 792 259 136 145 162
306 793 258 134 142 157
307 792 258 139 149 166
307 793 258 135 143 158
307 794 257 111 115 126
307 795 257 109 114 125
306 794 258 118 123 135
306 795 258 110 114 123
307 794 258 121 124 135
304 792 260 110 116 128
304 793 260 111 117 128
304 796 258 119 124 135
304 796 259 122 127 137
304 797 258 133 137 147
304 797 259 150 154 165
305 796 258 109 115 126
305 797 258 110 116 126
305 798 257 103 109 119
305 799 257 105 111 121
304 798 258 111 116 127
304 799 258 104 109 121
305 798 258 102 107 117
305 799 258 102 108 119
306 796 257 109 114 124
306 797 257 108 113 123
307 796 257 107 114 125
307 797 256 107 113 124
307 797 257 107 113 125
306 796 258 110 114 124
306 797 258 108 113 123
306 798 257 104 109 120
306 799 257 105 110 120
307 798 256 105 112 124
307 798 257 106 112 124
307 799 256 103 109 120
308 792 257 136 145 162
308 793 257 109 118 134
309 792 256 106 114 128
309 792 257 117 125 138
309 793 256 106 113 127
309 793 257 108 116 131
308 794 256 107 113 126
308 794 257 108 114 127
308 795 256 110 115 127
308 795 257 108 114 126
309 794 256 107 112 124
309 795 256 110 114 125
310 792 256 109 115 128
310 793 256 108 113 125
311 792 256 114 119 131
311 793 256 111 115 126
310 794 256 108 111 122
308 796 256 109 115 126
308 797 256 105 111 123
309 796 256 113 119 130
308 798 256 103 110 122
312 784 258 125 129 139
312 784 259 128 131 141
312 785 258 120 124 135
313 784 258 124 128 140
313 784 259 124 128 139
313 785 258 122 127 140
312 787 257 116 121 135
313 786 257 134 139 153
313 787 257 120 126 140
312 786 258 117 121 135
312 787 258 114 119 133
313 786 258 125 130 143
314 784 258 132 137 151
314 784 259 128 134 147
314 785 258 132 137 152
315 784 259 137 142 159
315 785 258 140 145 160
314 787 257 125 131 144
315 787 257 129 133 146
314 786 258 139 144 158
315 786 258 148 152 166
315 787 258 140 143 157
312 788 257 124 128 139
312 789 256 138 144 157
312 789 257 127 132 144
313 788 257 131 136 148
313 789 256 151 156 169
313 789 257 146 150 162
312 790 256 121 127 143
312 791 256 112 116 134
313 790 256 140 146 161
313 791 256 122 127 144
314 788 257 125 131 143
314 789 256 143 149 162
315 788 257 124 130 142
315 789 256 128 135 148
315 789 257 122 128 141
314 790 256 147 153 167
314 791 256 130 136 151
315 790 256 133 139 154
316 784 259 137 140 157
316 785 258 143 147 161
316 785 259 142 145 160
317 784 259 129 131 149
317 785 259 133 138 151
316 787 257 124 128 139
316 786 258 141 144 157
316 787 258 129 132 144
317 786 258 129 134 146
317 786 259 126 131 143
317 787 258 124 128 139
318 784 259 126 129 145
318 785 259 126 131 145
319 785 259 133 139 152
318 786 259 123 129 142
318 787 258 129 133 145
318 787 259 127 131 145
319 786 259 126 132 146
319 787 258 132 137 150
319 787 259 128 133 146
318 784 260 132 134 148
319 784 260 136 140 153
319 785 260 142 147 160
316 788 257 124 128 139
316 789 257 119 125 138
317 788 257 125 130 141
317 789 257 123 127 140
317 788 258 126 130 141
316 790 256 123 129 142
316 791 256 126 132 144
317 790 256 126 130 143
317 790 257 124 128 141
317 791 256 124 130 143
318 788 257 129 133 144
318 789 257 128 131 143
319 789 257 129 133 145
318 788 258 130 134 146
319 788 258 130 135 147
319 789 258 128 132 145
318 790 256 128 132 145
318 790 257 127 131 143
318 791 256 127 132 145
319 790 257 129 134 146
319 791 256 129 134 146
318 792 256 135 141 154
319 792 256 143 148 161
319 793 256 144 150 163
299 803 259 109 114 126
299 800 261 150 157 170
299 801 261 131 136 149
299 802 260 108 113 124
299 802 261 113 117 129
299 803 260 106 111 123
298 805 259 121 126 138
299 804 259 111 116 129
299 805 258 107 113 125
299 805 259 110 116 129
299 807 257 105 110 121
298 806 258 130 136 149
298 806 259 131 137 150
298 807 258 128 135 149
298 807 259 141 148 163
299 806 258 110 116 127
299 807 258 111 116 127
301 800 259 108 118 137
301 801 259 102 110 130
300 802 259 113 118 130
300 803 259 113 118 130
301 802 259 109 115 128
301 803 258 112 117 129
