ply
format ascii 1.0
comment PCL generated
element vertex 2254
property float x
property float y
property float z
property uchar red
property uchar green
property uchar blue
element camera 0
property float view_px
property float view_py
property float view_pz
property float x_axisx
property float x_axisy
property float x_axisz
property float y_axisx
property float y_axisy
property float y_axisz
property float z_axisx
property float z_axisy
property float z_axisz
property float focal
property float scalex
property float scaley
property float centerx
property float centery
property int viewportx
property int viewporty
property float k1
property float k2
end_header
89 378 212 44 53 63
89 378 213 46 55 64
89 379 212 43 53 63
89 379 213 44 53 63
89 378 214 47 56 65
89 378 215 47 55 65
89 379 214 45 54 64
89 379 215 45 54 64
89 380 208 44 51 59
89 380 209 45 53 62
89 381 208 44 51 59
89 381 209 45 52 61
89 380 210 45 54 63
89 380 211 45 54 64
89 381 210 43 52 61
89 381 211 43 52 62
89 382 208 44 51 59
89 382 209 44 52 60
89 383 208 44 51 59
89 383 209 44 52 61
89 382 210 43 52 61
89 382 211 43 52 62
89 383 210 43 52 61
89 383 211 43 52 62
89 380 212 46 55 65
89 380 213 46 55 65
89 381 212 43 53 63
89 381 213 45 54 64
89 380 214 45 54 64
89 380 215 44 54 64
89 381 214 45 54 64
89 381 215 45 54 64
89 382 212 43 52 62
89 382 213 44 53 63
89 383 212 42 52 61
89 383 213 43 52 62
89 382 214 45 54 63
89 382 215 45 54 64
89 383 214 43 53 62
89 383 215 45 54 64
88 376 216 44 53 62
88 376 217 46 54 63
89 376 216 45 54 63
89 376 217 47 55 64
89 377 216 45 54 64
89 377 217 47 56 66
88 376 218 47 55 64
89 376 218 47 56 65
89 376 219 46 55 64
89 377 218 49 58 67
89 377 219 47 56 65
89 378 216 46 55 65
89 378 217 48 57 66
89 379 216 45 54 64
89 379 217 46 56 66
89 378 218 48 57 67
89 378 219 47 56 65
89 379 218 48 57 67
89 379 219 47 56 66
89 376 220 44 53 63
89 376 221 43 52 61
89 377 220 44 53 63
89 377 221 43 52 61
89 376 222 44 52 60
89 376 223 44 52 60
89 377 222 44 52 60
89 377 223 45 52 60
89 378 220 44 53 63
89 378 221 41 51 61
89 379 220 43 53 63
89 379 221 42 51 61
89 378 222 42 51 60
89 378 223 44 51 59
89 379 222 43 52 61
89 379 223 45 53 61
89 380 216 45 55 65
89 380 217 47 57 67
89 381 216 44 54 64
89 381 217 46 56 66
89 380 218 48 58 68
89 380 219 47 57 67
89 381 218 48 57 67
89 381 219 48 57 67
89 382 216 45 55 65
89 382 217 45 55 66
89 383 216 46 56 66
89 383 217 47 57 67
89 382 218 45 55 65
89 382 219 45 55 65
89 383 218 47 56 67
89 383 219 44 55 65
89 380 220 44 54 64
89 380 221 43 52 62
89 381 220 46 55 65
89 381 221 45 54 64
89 380 222 44 53 62
89 380 223 46 54 63
89 381 222 46 54 63
89 381 223 46 54 64
89 382 220 44 54 64
89 382 221 44 54 64
89 383 220 44 54 64
89 383 221 45 54 64
89 382 222 45 54 64
89 382 223 45 54 64
89 383 222 46 55 64
90 380 223 47 55 64
90 381 223 46 55 64
90 382 223 46 55 64
90 383 222 47 55 65
90 383 223 46 55 65
89 352 224 43 52 61
89 352 225 43 51 60
89 353 224 44 53 62
89 353 225 43 51 60
89 352 226 43 50 58
89 352 227 44 51 58
89 353 226 43 51 59
89 353 227 45 51 59
88 355 224 43 52 62
89 354 224 43 52 61
89 354 225 42 51 60
89 355 224 42 51 61
89 355 225 41 50 59
89 354 226 42 50 58
89 354 227 44 51 59
89 355 226 40 49 57
89 355 227 42 50 58
90 352 228 46 52 60
90 352 229 46 54 62
90 353 228 46 52 60
90 353 229 45 53 62
90 352 230 46 55 64
90 353 230 46 54 64
91 352 230 46 55 65
91 352 231 49 58 69
91 353 230 46 55 65
91 353 231 49 58 69
90 354 228 47 54 62
90 354 229 47 55 65
90 355 228 44 52 60
90 355 229 45 54 64
91 354 230 45 55 66
91 355 230 46 56 67
88 356 224 43 52 61
88 357 224 42 51 60
89 356 224 43 51 61
89 356 225 42 50 59
89 357 224 41 50 59
89 357 225 41 50 58
89 356 226 41 50 58
89 356 227 44 51 60
89 357 226 42 50 59
89 357 227 44 52 60
89 358 224 40 49 58
89 358 225 39 48 57
89 359 224 42 50 59
89 359 225 40 49 57
89 358 226 41 49 58
89 358 227 43 51 60
89 359 226 41 49 58
89 359 227 44 52 61
90 356 228 46 54 63
90 356 229 45 54 64
90 357 228 46 54 63
90 357 229 45 55 65
91 357 229 46 56 66
91 356 230 45 56 67
91 357 230 46 56 67
90 358 228 46 55 64
90 358 229 46 56 66
90 359 228 47 56 66
90 359 229 49 58 69
91 358 229 46 56 67
91 359 229 49 58 69
91 358 230 47 57 69
91 359 230 48 58 69
92 352 231 49 59 70
92 353 231 48 59 70
92 354 231 48 59 70
92 355 231 49 59 71
93 355 231 52 62 73
92 356 231 50 60 72
92 357 230 48 58 69
92 357 231 49 60 72
93 356 231 53 63 74
93 357 231 52 62 74
92 358 230 48 59 70
92 358 231 48 59 70
92 359 230 50 59 70
92 359 231 49 59 70
93 358 231 50 60 72
93 359 231 50 60 71
92 352 232 50 61 72
92 353 232 49 60 71
93 352 232 53 63 75
93 352 233 53 64 77
93 353 232 54 64 75
93 353 233 54 66 78
93 354 232 53 63 75
93 354 233 53 64 77
93 355 232 52 63 74
94 352 233 52 64 77
94 353 233 54 65 78
94 352 234 50 62 75
94 353 234 52 64 77
95 352 234 48 62 75
95 352 235 47 61 74
95 353 234 51 63 76
94 354 233 52 64 76
94 355 233 49 61 74
95 354 234 51 63 76
95 355 234 47 60 73
93 356 232 53 64 75
93 357 232 52 63 74
93 358 232 51 61 72
93 359 232 48 58 69
94 356 233 51 62 74
94 357 232 49 60 72
94 357 233 49 60 72
95 356 233 50 61 73
95 357 233 48 60 72
95 356 234 49 61 73
95 357 234 49 60 72
94 358 232 49 60 71
94 358 233 47 59 70
94 359 232 47 57 68
94 359 233 47 57 68
95 358 233 48 59 70
95 359 233 48 58 69
95 358 234 49 59 70
89 360 224 42 51 59
89 360 225 43 51 60
89 361 224 42 51 60
89 361 225 43 51 60
89 360 226 44 52 61
89 360 227 44 53 62
89 361 226 43 52 61
89 361 227 44 53 62
89 362 224 42 51 60
89 362 225 42 51 60
89 363 224 42 51 60
89 363 225 42 51 60
89 362 226 43 52 61
89 362 227 44 53 62
89 363 226 42 51 61
90 360 227 44 53 63
90 361 227 43 53 63
90 362 227 46 55 65
90 363 227 45 55 65
90 360 228 46 55 66
90 360 229 47 57 68
90 361 228 44 55 66
90 361 229 47 57 68
91 360 229 48 58 69
91 361 229 48 58 70
91 360 230 48 59 70
90 362 228 48 57 68
90 363 228 48 58 69
91 362 229 48 58 69
91 363 229 48 58 69
89 364 224 42 51 60
89 364 225 44 52 61
89 365 224 43 52 62
89 365 225 44 53 62
89 364 226 43 52 62
89 365 226 45 53 63
89 366 224 43 53 62
89 366 225 43 52 62
89 367 224 43 52 62
89 367 225 43 52 62
89 366 226 45 54 63
89 367 226 44 54 64
90 364 226 44 53 63
90 364 227 45 55 65
90 365 226 45 55 65
90 365 227 47 56 66
90 366 226 47 56 66
90 366 227 50 59 69
90 367 226 46 56 66
90 367 227 49 59 69
90 364 228 48 57 68
90 365 228 48 58 68
91 364 229 48 58 68
91 365 228 49 59 69
91 365 229 49 58 69
90 366 228 51 60 71
91 366 228 51 60 70
91 366 229 50 60 70
91 367 228 49 59 70
91 367 229 48 58 69
92 360 230 49 59 70
92 361 230 47 58 69
93 360 231 49 59 70
93 361 231 48 58 69
92 362 230 49 58 69
92 363 230 48 58 68
93 362 231 47 57 67
93 363 230 47 57 67
93 363 231 46 56 67
92 364 230 47 57 67
92 365 230 49 58 69
93 364 230 47 57 67
93 364 231 46 56 67
93 365 230 48 58 68
93 365 231 49 58 68
92 366 229 48 58 68
92 367 229 47 57 68
92 366 230 50 59 69
92 367 230 47 57 68
93 366 230 49 58 69
93 366 231 49 58 68
93 367 230 48 57 68
93 367 231 47 56 66
94 365 231 49 58 69
94 366 231 47 56 67
94 367 231 46 55 65
93 360 232 49 59 69
93 361 232 49 58 69
94 360 232 48 58 69
94 361 232 48 57 67
95 360 233 48 58 68
95 361 233 46 56 67
94 362 232 46 55 66
94 363 232 46 56 66
95 362 233 47 56 67
95 363 232 47 57 67
95 363 233 48 57 67
94 364 232 46 57 67
94 365 232 48 57 68
95 364 232 47 56 67
95 364 233 47 57 67
95 365 232 47 57 67
95 365 233 47 57 67
94 366 232 46 56 66
94 367 232 45 55 65
95 366 232 46 56 66
95 367 232 45 55 65
89 368 224 44 53 62
89 368 225 44 53 63
89 369 224 43 52 62
89 369 225 45 53 63
89 370 224 42 51 60
89 370 225 41 51 61
89 371 224 43 52 61
89 371 225 43 52 62
90 368 226 47 56 67
90 368 227 49 58 69
90 369 226 48 56 66
90 369 227 51 60 70
91 369 227 50 60 71
90 370 226 47 55 65
90 370 227 50 59 69
90 371 226 47 56 65
90 371 227 51 60 69
91 370 227 50 60 70
91 371 227 52 61 71
91 368 228 48 58 69
91 368 229 47 57 68
91 369 228 48 59 70
91 370 228 47 58 69
91 371 228 48 58 69
89 372 224 44 53 62
89 372 225 45 54 64
89 373 224 44 53 62
89 373 225 44 54 64
89 374 224 44 53 62
89 374 225 45 54 64
89 375 224 46 54 62
89 375 225 45 54 63
90 373 225 45 55 65
90 372 226 47 56 66
90 372 227 51 59 69
90 373 226 48 57 67
90 373 227 49 58 69
91 373 227 48 57 68
90 374 225 45 55 65
90 375 225 44 54 64
90 374 226 46 56 67
90 374 227 47 57 67
90 375 226 45 55 66
90 375 227 46 56 66
91 374 227 46 56 66
91 375 227 46 55 66
91 372 228 47 58 69
91 373 228 46 56 67
91 374 228 45 55 65
91 375 228 46 55 65
92 368 229 46 57 67
92 369 229 45 56 67
92 368 230 46 56 67
93 368 230 47 56 67
93 368 231 46 56 66
93 369 230 45 55 66
93 369 231 44 53 64
92 370 229 45 55 66
92 371 229 46 56 67
93 370 230 44 54 64
93 371 230 44 54 64
94 368 231 45 54 64
94 369 231 45 54 64
94 370 231 45 54 63
94 371 231 46 54 64
92 372 229 44 55 66
92 373 229 42 53 64
93 372 229 44 54 65
93 373 229 43 53 63
93 372 230 45 54 64
93 373 230 43 52 62
92 374 229 44 53 63
92 375 228 45 54 64
92 375 229 46 54 63
93 374 229 43 52 62
93 375 229 46 54 62
93 374 230 44 52 61
93 375 230 46 53 62
94 372 231 45 53 63
94 373 230 43 52 61
94 373 231 43 52 61
95 372 231 43 53 63
95 373 231 43 51 61
94 374 230 45 53 62
94 374 231 44 52 61
94 375 230 45 53 62
94 375 231 43 51 60
95 374 231 43 51 60
95 375 231 43 51 60
94 368 232 46 55 65
95 368 232 45 54 64
95 369 232 44 53 63
95 370 232 45 54 64
95 371 232 45 54 64
95 372 232 43 53 63
95 373 232 42 52 61
95 374 232 42 50 60
89 376 224 45 52 61
89 377 224 46 53 62
89 378 224 44 52 60
90 376 225 43 52 62
90 377 224 46 54 63
90 377 225 46 54 64
90 376 226 44 54 64
90 376 227 46 55 66
90 377 226 46 55 65
90 377 227 46 55 65
91 376 227 47 56 66
91 377 227 45 54 64
90 378 224 46 53 62
90 378 225 46 54 63
90 379 224 44 52 61
90 379 225 45 53 63
90 378 226 47 55 65
90 379 226 46 55 65
91 378 227 46 55 65
91 379 227 45 54 64
91 376 228 47 56 65
91 377 228 45 54 64
91 378 228 44 53 63
91 379 228 44 53 63
90 380 224 46 54 63
90 380 225 45 54 64
90 381 224 47 55 65
90 381 225 46 55 65
90 380 226 46 55 65
90 381 226 45 54 64
91 380 227 45 55 65
91 381 227 44 53 63
90 382 224 46 55 65
90 382 225 46 55 65
90 383 224 47 56 66
90 383 225 47 56 66
90 382 226 46 55 65
90 383 226 46 55 65
91 382 226 45 54 64
91 382 227 44 53 63
91 383 226 46 55 64
91 383 227 45 53 63
91 380 228 45 54 64
91 381 228 43 52 61
91 382 228 45 53 62
92 376 228 47 55 64
92 376 229 46 54 63
92 377 228 45 54 63
92 377 229 46 54 63
93 376 229 46 54 62
93 377 229 45 53 62
93 376 230 46 53 62
93 377 230 44 52 61
92 378 228 44 53 62
92 378 229 45 53 62
92 379 228 44 53 62
92 379 229 44 53 62
93 378 229 44 52 61
93 379 229 44 52 61
93 378 230 43 51 60
93 379 230 43 51 60
94 376 230 44 52 61
94 376 231 43 51 60
94 377 230 43 51 61
95 376 231 42 50 59
95 377 231 41 50 59
94 378 230 42 51 60
94 378 231 41 50 60
94 379 230 43 51 60
94 379 231 42 50 59
95 378 231 41 50 59
95 379 231 42 50 59
92 380 228 44 53 63
92 380 229 43 51 61
92 381 228 43 51 61
92 381 229 44 51 60
93 380 229 43 51 60
93 381 229 44 51 60
93 380 230 43 51 60
93 381 230 44 52 61
92 382 228 45 52 61
92 383 228 46 53 62
92 383 229 45 52 60
93 382 229 45 52 60
93 383 229 45 52 60
93 382 230 45 52 61
93 383 230 45 52 60
94 380 230 42 51 59
94 380 231 42 50 59
94 381 230 44 52 60
95 380 231 42 51 59
95 381 231 43 51 60
94 382 230 44 52 60
94 383 230 44 52 60
95 382 231 42 50 59
95 383 231 43 51 60
95 380 232 42 51 60
95 381 232 42 50 59
95 382 232 42 50 59
95 383 232 43 51 60
96 320 247 53 67 80
96 321 247 50 65 79
96 322 247 52 66 80
96 323 246 51 65 79
96 323 247 54 68 82
97 323 247 57 71 85
96 325 245 51 64 78
96 324 246 50 64 78
96 324 247 55 70 84
96 325 246 52 67 81
97 324 247 59 73 87
97 325 247 58 73 88
96 326 245 51 65 79
96 327 245 54 67 81
96 326 246 53 68 82
96 327 246 60 73 88
97 326 246 56 71 86
97 326 247 60 75 91
97 327 246 62 76 91
97 327 247 65 80 95
98 326 247 63 79 95
98 327 247 65 81 97
96 320 248 55 69 83
96 321 248 53 67 82
97 320 248 58 73 87
97 320 249 60 74 89
97 321 248 57 72 87
97 322 248 57 71 86
97 323 248 59 74 89
98 320 249 62 77 91
98 321 249 60 75 90
98 320 250 62 77 92
98 321 250 61 76 91
99 320 250 61 77 92
99 320 251 62 78 94
99 321 250 60 76 91
98 322 248 59 74 89
98 322 249 62 76 92
98 323 248 60 76 92
98 323 249 62 77 93
99 323 249 63 78 94
99 322 250 61 77 92
99 323 250 62 77 93
97 324 248 60 75 91
97 325 248 62 77 92
98 324 248 60 77 93
98 324 249 60 77 93
98 325 248 63 79 95
99 324 249 61 77 94
99 325 249 64 81 98
98 326 248 64 80 97
98 327 248 65 82 99
99 326 248 63 81 98
99 326 249 64 81 99
99 327 248 65 82 99
100 320 251 61 77 94
100 321 251 61 77 94
100 322 250 62 78 94
100 322 251 59 77 93
100 323 250 64 80 96
100 323 251 62 79 96
101 322 251 60 78 95
101 323 251 62 80 97
102 323 251 63 81 98
100 320 252 62 79 95
101 320 252 63 80 97
101 321 252 62 79 97
101 322 252 60 78 96
102 320 252 64 82 100
102 320 253 66 84 102
102 321 252 63 81 99
103 320 253 67 85 103
103 321 252 65 84 103
103 321 253 67 85 103
102 322 252 62 81 99
102 323 252 63 82 100
103 322 252 64 84 102
103 323 252 64 83 102
100 325 249 63 81 98
100 324 250 62 79 95
100 324 251 63 80 97
100 325 250 61 80 97
101 324 251 64 81 98
101 325 250 62 81 100
101 325 251 62 81 99
100 326 249 65 82 100
100 327 249 64 82 100
100 326 250 66 84 101
101 326 250 65 84 102
101 327 250 61 82 100
102 324 251 65 83 100
102 325 251 63 82 101
103 325 251 68 86 104
102 326 250 66 85 103
102 326 251 68 85 104
102 327 250 62 82 101
103 326 251 68 86 104
103 327 250 62 82 101
103 327 251 63 83 101
102 324 252 66 84 102
103 324 252 65 84 102
103 325 252 65 84 102
96 328 244 54 66 78
96 328 245 58 71 84
96 329 244 56 68 80
96 329 245 59 71 85
97 329 245 60 74 88
97 328 246 63 77 92
97 328 247 66 81 97
97 329 246 62 77 92
96 330 244 57 70 83
96 330 245 59 72 87
96 331 244 57 72 87
97 330 245 60 75 90
97 331 245 58 75 91
97 330 246 62 77 93
98 328 247 67 82 99
98 329 247 64 81 98
99 329 247 65 82 99
98 331 245 60 77 95
98 330 246 62 79 96
98 330 247 64 81 99
98 331 246 60 79 96
99 330 247 65 82 99
99 331 246 62 80 98
99 331 247 65 83 100
96 332 243 55 70 86
96 333 243 61 76 91
96 334 242 59 73 88
96 334 243 60 76 92
96 335 242 58 73 89
96 335 243 59 75 92
97 334 243 59 76 93
97 335 243 60 77 94
98 335 243 61 78 96
96 332 244 59 74 90
96 333 244 63 78 94
97 332 244 62 78 94
97 332 245 61 78 95
97 333 244 65 81 97
97 334 244 60 78 95
98 332 245 62 80 97
98 333 245 64 81 98
99 333 245 65 82 100
98 332 246 63 80 98
99 332 246 64 82 100
99 333 246 65 83 101
98 334 244 61 79 96
98 334 245 64 81 98
98 335 244 62 80 97
99 334 244 63 80 98
99 334 245 66 83 101
99 335 244 63 81 98
99 335 245 64 81 99
100 330 247 65 82 100
100 331 247 64 82 100
100 332 246 65 83 100
100 332 247 64 82 101
100 333 246 67 85 103
101 332 247 65 84 103
101 333 246 69 87 106
101 333 247 68 86 106
100 334 245 70 87 104
100 335 245 66 84 102
101 335 245 65 84 102
100 334 246 69 86 104
101 334 246 67 85 104
102 332 247 65 85 104
102 333 247 67 86 106
103 332 247 64 84 103
103 333 247 65 85 104
102 335 245 62 81 100
102 334 246 67 85 104
102 335 246 65 84 103
103 334 246 66 85 104
103 334 247 67 86 105
103 335 246 62 82 101
99 328 248 68 84 101
99 329 248 66 82 100
99 330 248 65 82 99
100 328 248 68 85 103
100 328 249 67 85 103
100 329 248 64 83 100
100 329 249 66 84 102
101 328 249 66 85 104
101 329 249 64 83 103
101 328 250 63 84 103
100 330 248 62 82 100
100 331 248 60 80 99
101 330 248 63 83 102
101 330 249 61 81 101
101 331 248 63 83 102
102 329 249 64 84 104
103 329 249 65 85 104
102 328 250 64 84 104
102 329 250 66 85 104
103 328 250 64 84 103
103 329 250 67 86 105
102 330 248 63 83 102
102 330 249 63 83 103
102 331 248 65 84 104
103 330 249 65 84 104
103 331 248 66 86 104
102 332 248 64 84 103
103 332 248 65 85 104
104 320 253 75 91 108
104 321 253 73 90 107
105 320 253 76 91 109
105 321 253 73 90 107
104 322 252 69 86 104
104 322 253 71 88 105
104 323 252 70 87 105
105 322 253 73 89 107
105 323 252 72 89 106
105 323 253 73 89 107
106 320 253 77 93 110
106 321 253 74 91 108
107 320 253 75 92 110
107 321 253 73 90 108
106 322 253 74 91 108
106 323 252 71 88 106
106 323 253 71 88 106
107 322 253 72 89 107
107 323 253 68 86 104
104 326 251 67 86 105
104 327 251 66 86 105
105 327 251 70 89 108
106 327 251 72 92 111
104 324 252 70 88 106
104 325 252 71 89 107
105 324 252 70 88 107
105 325 252 70 89 108
104 326 252 70 89 107
105 326 252 69 89 108
106 324 252 69 88 107
106 325 252 70 89 108
107 324 252 69 88 106
107 324 253 68 87 105
107 325 252 71 90 109
106 326 252 72 91 111
106 327 252 72 91 110
107 326 252 74 93 112
107 327 252 73 92 112
108 320 253 71 89 107
108 321 253 70 88 106
109 320 253 70 88 106
109 321 253 71 88 106
108 322 253 69 87 105
108 323 253 64 83 102
109 322 253 68 87 105
109 323 253 65 84 102
110 320 253 70 87 105
110 321 253 70 87 105
111 320 253 70 86 102
111 321 253 69 86 103
110 322 253 68 86 104
110 323 253 66 85 103
111 322 253 68 85 103
111 323 253 66 84 102
108 324 253 66 85 103
108 325 252 71 90 108
108 325 253 70 88 106
109 324 253 66 85 103
109 325 253 71 89 107
108 326 252 74 92 111
108 327 252 70 90 110
109 326 252 72 91 109
109 326 253 72 90 109
109 327 252 68 88 108
110 324 253 67 86 104
110 325 253 71 89 108
111 324 253 67 86 104
111 325 253 71 89 107
110 326 252 72 90 109
110 326 253 74 92 110
110 327 252 70 89 108
111 326 253 73 91 109
111 327 253 70 89 108
104 333 247 67 86 105
105 333 247 65 84 103
104 334 246 66 85 104
104 334 247 67 86 104
104 335 246 63 83 102
105 334 247 66 85 103
105 335 246 65 84 103
106 334 247 66 86 105
106 335 246 61 82 101
106 335 247 63 82 101
107 334 247 67 86 105
107 335 247 65 85 103
108 334 247 71 89 107
108 335 247 70 89 107
104 328 250 68 88 107
104 328 251 69 88 107
104 329 250 69 88 107
105 328 251 74 92 112
105 329 250 74 92 111
104 330 249 67 86 105
104 331 248 69 87 106
104 331 249 67 85 103
105 330 249 68 88 107
105 331 248 70 89 107
105 331 249 67 86 105
105 330 250 72 91 110
106 328 251 73 92 112
106 329 250 73 92 112
106 329 251 75 94 114
107 328 251 74 93 113
107 329 250 73 93 112
107 329 251 75 94 113
106 330 249 67 87 107
106 331 248 70 89 107
106 331 249 69 88 107
107 330 249 68 88 108
107 331 249 69 88 107
106 330 250 71 90 110
107 330 250 70 90 110
107 328 252 71 91 112
104 332 248 71 89 107
105 332 248 70 88 107
105 333 248 67 86 105
106 332 248 71 89 107
106 333 248 67 86 106
107 332 248 71 90 108
107 332 249 73 91 110
107 333 248 68 88 107
107 334 248 68 87 106
108 328 251 73 92 112
108 329 251 74 93 113
109 329 251 72 92 111
108 331 249 70 90 109
109 331 249 71 90 109
108 330 250 69 89 109
108 330 251 71 91 111
108 331 250 69 89 108
109 330 250 67 88 107
109 330 251 69 89 109
109 331 250 69 88 107
110 329 251 72 91 111
110 330 250 66 86 106
110 330 251 69 89 108
110 331 250 68 87 106
111 330 251 71 90 109
111 331 250 69 88 107
111 331 251 70 89 108
108 328 252 70 90 111
109 328 252 70 90 110
109 329 252 72 91 111
110 328 252 72 91 110
110 329 252 73 92 111
111 328 252 71 91 110
111 328 253 70 90 110
111 329 252 72 92 112
111 330 252 71 91 111
108 332 248 72 91 110
108 332 249 73 91 110
108 333 248 71 90 109
109 332 249 72 91 109
109 333 248 70 89 108
109 333 249 72 91 109
108 334 248 70 89 107
109 334 248 70 88 106
109 335 248 70 88 106
110 332 249 70 89 107
110 333 249 68 87 105
111 333 249 65 85 104
110 332 250 68 87 106
111 332 250 68 87 106
111 333 250 67 86 105
110 334 248 68 86 104
110 334 249 67 86 104
110 335 248 67 86 104
111 334 249 67 85 103
111 335 248 67 85 103
111 335 249 71 88 105
96 341 239 56 72 88
96 342 239 55 71 87
96 343 238 57 73 88
96 343 239 56 72 88
96 345 237 52 68 84
96 344 238 57 72 87
96 344 239 60 75 90
96 345 238 52 68 84
97 344 239 61 76 91
97 345 238 53 70 85
97 345 239 56 72 87
96 346 237 55 70 85
96 347 237 57 72 87
96 346 238 54 69 85
96 347 238 57 71 86
97 346 238 55 70 85
97 346 239 55 71 86
97 347 238 57 72 87
98 344 239 60 75 91
98 345 239 56 72 87
98 346 239 57 72 87
98 347 238 60 74 88
98 347 239 60 74 88
99 346 239 57 72 87
99 347 239 59 74 88
96 351 235 49 63 77
96 348 236 55 69 84
96 348 237 56 70 85
96 349 236 55 69 84
96 349 237 57 70 85
97 348 237 55 69 84
97 349 237 53 68 83
97 348 238 56 71 85
97 349 238 53 68 83
96 350 236 52 66 81
96 350 237 53 67 82
96 351 236 50 64 78
97 350 237 53 67 82
97 351 236 50 64 78
97 351 237 51 66 80
98 348 238 56 71 85
98 348 239 59 73 88
98 349 238 54 69 83
99 348 239 57 71 86
99 349 238 54 69 84
99 349 239 54 69 84
98 351 237 54 67 81
98 350 238 54 69 83
98 351 238 56 69 82
99 350 238 56 70 84
99 350 239 57 70 84
99 351 238 54 67 81
100 348 239 55 70 85
100 349 239 54 68 83
100 350 239 55 69 83
100 351 239 51 65 79
96 336 241 58 73 88
96 337 241 59 76 92
96 336 242 58 75 92
96 337 242 60 77 94
97 336 242 58 76 93
97 336 243 58 76 94
97 337 242 62 79 97
96 338 240 59 75 90
96 338 241 61 78 96
96 339 240 57 73 90
96 339 241 60 77 95
97 338 241 65 82 99
97 339 241 62 79 97
97 338 242 66 83 100
97 339 242 65 82 99
98 336 243 57 76 94
98 337 242 65 82 100
98 337 243 60 78 96
99 337 243 61 79 98
98 338 242 66 83 100
98 338 243 66 83 100
98 339 242 64 81 98
99 338 243 64 81 99
99 339 242 61 79 96
99 339 243 61 79 97
98 336 244 60 78 96
99 336 244 60 78 96
99 337 244 61 79 97
96 340 240 55 72 89
96 340 241 59 75 93
96 341 240 56 72 89
97 340 241 59 77 94
97 341 240 56 73 90
97 341 241 57 73 91
96 342 240 56 73 89
97 342 240 57 73 90
97 342 241 58 74 91
97 343 240 58 74 90
98 341 241 58 75 92
98 340 242 61 77 95
98 341 242 57 74 92
99 340 242 57 75 93
99 340 243 57 76 94
99 341 242 57 75 92
98 342 241 60 75 92
98 343 240 60 76 92
98 343 241 60 76 92
99 342 241 59 74 91
99 343 241 59 75 92
99 342 242 59 75 92
100 337 243 63 81 99
100 338 243 67 83 101
100 339 243 65 82 99
101 339 243 69 86 103
100 336 244 63 81 99
100 336 245 65 83 102
100 337 244 65 83 100
101 336 245 65 83 101
101 337 244 67 84 102
101 337 245 66 84 102
100 338 244 69 86 103
101 338 244 71 88 105
101 339 244 70 87 104
102 336 245 64 83 101
102 337 244 66 84 102
102 337 245 63 81 99
103 336 245 61 80 99
103 337 245 61 81 99
102 338 244 70 86 104
102 339 244 69 86 103
103 338 244 67 84 102
103 338 245 65 83 101
103 339 244 67 84 101
100 340 243 62 80 97
100 341 242 58 76 93
100 341 243 62 79 96
101 340 243 66 83 100
101 341 243 64 81 98
100 343 241 58 74 91
100 342 242 60 76 93
100 342 243 63 79 96
100 343 242 59 75 92
101 342 243 64 80 97
101 343 242 62 78 94
101 343 243 63 79 96
102 341 243 65 82 99
102 342 243 63 80 96
102 343 243 62 78 94
103 342 243 60 77 93
103 343 243 60 75 91
101 340 244 69 85 102
102 340 244 68 84 102
102 341 244 65 82 99
103 340 244 66 83 100
103 341 244 62 79 97
103 342 244 60 77 93
103 343 244 58 75 91
97 344 240 62 76 92
98 344 240 61 76 92
98 345 240 57 73 88
99 344 240 59 75 92
99 344 241 58 75 92
99 345 240 57 73 89
99 346 240 56 72 87
100 344 241 57 74 91
100 345 240 56 72 88
100 345 241 55 71 88
101 345 241 56 71 88
100 344 242 58 74 91
101 344 242 60 76 92
101 345 242 59 74 90
100 346 240 54 70 86
100 346 241 53 70 86
100 347 240 56 71 86
101 346 241 55 70 86
101 347 240 56 71 86
101 347 241 56 71 86
102 344 242 61 76 92
102 344 243 60 76 92
102 345 242 59 73 89
103 344 243 58 73 89
103 345 242 59 73 88
103 345 243 58 73 88
102 346 241 58 73 88
102 347 241 58 72 87
102 346 242 59 73 88
102 347 242 60 74 88
103 346 242 59 73 88
103 346 243 59 73 87
103 347 242 59 73 87
100 348 240 55 70 85
100 349 240 52 67 82
101 348 240 53 68 83
101 348 241 56 70 85
101 349 240 52 67 81
100 350 240 53 68 82
101 350 240 52 67 81
101 351 240 51 65 78
102 348 241 56 70 84
102 349 241 54 68 82
103 349 241 54 68 82
103 348 242 54 68 83
103 349 242 54 68 81
102 350 240 54 67 81
102 350 241 54 68 82
102 351 240 52 65 78
102 351 241 55 67 80
103 350 241 56 70 83
103 351 241 55 68 81
103 350 242 56 69 82
103 351 242 55 68 81
104 336 245 61 81 100
104 337 245 63 82 100
105 337 245 64 83 101
104 336 246 62 82 101
105 336 246 63 83 102
105 337 246 62 82 100
104 338 245 69 85 103
104 339 244 67 84 101
104 339 245 66 83 100
105 338 245 67 85 102
105 339 245 66 83 100
106 336 246 61 81 100
106 337 246 63 82 101
107 336 246 62 82 101
107 336 247 64 83 102
107 337 246 65 84 102
107 337 247 65 84 103
106 338 245 64 82 99
106 339 245 65 83 100
106 338 246 65 83 101
107 338 246 66 84 102
107 339 246 68 84 102
104 340 244 63 80 97
104 340 245 62 79 96
104 341 244 60 77 94
104 341 245 62 78 94
105 340 245 63 80 97
105 341 245 62 78 95
104 342 244 59 75 91
104 343 244 58 74 89
105 342 245 61 76 92
105 343 245 61 76 91
106 340 245 64 81 98
106 341 245 62 78 95
107 340 246 66 82 99
107 341 246 63 79 95
106 342 245 61 77 93
106 343 245 63 77 92
107 342 246 63 78 94
107 343 246 62 77 92
108 336 247 69 87 106
108 337 247 68 86 105
109 336 247 68 87 105
109 337 247 66 85 104
108 338 246 69 86 104
108 338 247 68 86 104
108 339 246 69 86 103
108 339 247 69 86 103
109 338 247 66 85 103
109 339 247 67 84 102
110 337 247 65 84 102
110 338 247 65 83 101
110 339 247 65 83 101
108 340 246 67 83 99
108 340 247 67 83 99
108 341 246 66 81 96
108 341 247 65 80 96
109 340 247 66 83 99
109 341 247 65 80 96
108 342 246 65 80 95
108 342 247 64 79 93
108 343 247 64 78 93
109 342 247 63 78 93
109 343 247 63 77 91
110 340 247 65 82 98
110 341 247 63 79 95
110 342 247 63 78 93
109 336 248 69 87 106
110 336 248 67 85 103
110 337 248 66 84 102
111 336 248 68 86 104
111 336 249 71 88 106
111 337 248 67 85 102
110 338 248 64 82 100
110 339 248 64 82 99
111 338 248 65 83 100
111 339 248 67 84 100
110 340 248 63 80 97
110 341 248 63 79 95
111 340 248 67 82 98
111 341 248 65 79 94
110 342 248 63 78 92
110 343 248 60 74 88
111 342 248 63 76 91
111 342 249 59 73 87
111 343 248 59 73 87
111 343 249 57 71 86
104 344 243 56 72 88
104 345 243 56 71 86
104 346 243 56 70 85
104 347 243 56 69 83
104 344 244 57 72 87
104 345 244 56 71 86
105 344 244 58 73 88
105 344 245 59 73 88
105 345 244 57 71 86
105 345 245 57 71 85
104 346 244 55 69 83
104 347 244 54 68 82
105 346 244 55 70 84
105 346 245 56 70 84
105 347 244 54 68 82
105 347 245 54 68 82
106 344 245 60 74 88
106 345 245 57 71 85
107 344 246 59 74 88
107 345 246 57 71 85
107 345 247 56 70 84
106 346 245 56 69 83
106 347 245 55 68 82
107 346 246 55 69 82
107 346 247 54 69 83
107 347 246 55 69 82
107 347 247 56 69 83
104 348 243 53 67 81
104 349 242 54 67 81
104 349 243 53 67 80
104 350 242 57 69 82
104 350 243 56 69 81
104 351 242 56 68 81
104 351 243 56 68 81
105 351 243 56 69 82
104 348 244 53 67 81
105 348 244 54 68 81
105 349 244 55 68 82
105 350 244 57 70 83
105 351 244 57 71 84
106 348 245 56 69 82
106 349 245 57 70 84
107 348 246 57 70 83
107 348 247 57 71 85
107 349 246 58 71 85
107 349 247 60 74 88
106 350 244 57 71 84
106 350 245 58 72 85
106 351 244 58 72 86
106 351 245 60 73 87
107 351 245 60 74 88
107 350 246 60 74 88
107 351 246 63 77 92
108 344 247 60 75 89
108 345 247 57 71 85
109 344 247 59 73 88
109 345 247 57 72 86
108 346 247 55 70 84
108 347 247 59 72 85
108 348 247 61 74 88
108 349 247 63 77 91
108 350 247 65 79 93
108 351 246 67 81 96
108 351 247 67 81 97
109 350 247 68 82 97
109 351 247 69 84 100
109 344 248 56 70 85
109 345 248 57 71 86
109 346 248 58 72 86
109 347 248 62 75 89
110 344 248 56 71 85
110 345 248 57 71 85
111 344 248 55 70 84
111 344 249 58 72 86
111 345 249 60 74 88
110 346 248 59 74 89
110 347 248 62 77 91
111 346 249 62 76 91
111 347 249 62 77 93
109 348 248 65 78 93
109 349 248 66 80 95
109 350 248 67 82 98
109 351 248 68 84 100
110 348 248 63 78 94
110 349 248 62 79 95
111 348 249 63 79 96
111 349 249 65 82 99
110 350 248 64 82 98
110 351 248 65 82 100
111 350 249 66 83 100
111 351 248 64 82 100
111 351 249 65 83 100
112 320 253 68 83 99
112 321 253 69 85 101
113 320 253 67 82 98
113 321 253 69 84 100
112 322 253 69 85 102
112 323 253 70 87 103
113 322 253 70 85 101
113 323 253 72 88 105
114 320 253 69 84 100
114 321 253 68 83 99
114 321 254 68 83 99
115 320 254 70 85 101
115 321 254 70 85 101
114 322 253 71 86 102
114 323 253 72 88 105
114 322 254 71 86 102
114 323 254 72 88 104
115 322 254 71 86 102
115 323 254 72 88 104
112 324 253 71 88 105
112 325 253 74 90 108
113 324 253 74 90 107
113 325 253 76 92 110
112 326 253 74 91 110
112 327 253 70 89 109
113 326 253 75 93 111
113 327 253 72 91 110
114 324 253 77 92 109
114 325 253 76 93 110
114 324 254 79 94 110
115 324 254 78 93 110
115 325 254 77 93 110
114 326 253 77 93 111
114 327 253 76 93 112
115 326 253 76 93 110
115 327 253 77 93 111
116 320 254 70 86 102
116 321 254 69 85 101
117 320 254 70 86 103
117 321 254 69 85 101
116 322 254 70 85 101
116 323 254 71 87 103
117 322 254 69 84 101
117 323 254 69 86 102
118 320 254 69 86 102
118 321 254 68 85 101
119 320 254 69 85 102
119 321 254 69 85 102
118 322 254 68 85 101
118 323 254 70 86 102
119 322 254 68 84 101
119 323 254 71 87 103
116 324 254 77 92 109
116 325 254 79 94 111
117 324 254 76 91 108
117 325 254 78 94 110
116 326 253 76 92 110
116 327 253 77 93 111
117 326 253 76 92 110
117 327 253 76 94 112
119 325 253 77 93 109
118 324 254 80 94 109
118 325 254 78 93 110
119 324 254 80 94 110
119 325 254 79 94 110
118 326 253 75 92 110
118 327 253 75 93 113
119 326 253 75 92 109
119 327 253 77 95 113
112 331 251 69 89 108
113 331 251 72 90 109
112 328 253 71 91 111
112 329 252 71 92 112
112 329 253 69 90 111
113 328 253 71 91 111
113 329 253 72 92 112
112 330 252 70 91 111
113 330 252 71 91 111
113 330 253 72 93 113
113 331 252 72 90 109
114 328 253 74 92 112
114 329 253 74 93 112
115 328 253 77 95 113
115 329 253 73 92 111
114 330 252 71 91 111
114 330 253 74 93 113
114 331 252 71 90 109
115 330 253 74 93 112
115 331 252 71 90 109
115 331 253 72 91 111
112 332 250 70 89 108
112 332 251 71 90 108
112 333 250 67 87 105
113 332 251 71 90 108
113 333 250 67 87 105
113 333 251 69 88 106
112 334 249 69 87 105
112 335 249 70 87 105
113 335 249 68 86 104
112 334 250 68 86 105
113 334 250 68 86 104
113 335 250 69 86 104
114 332 251 70 88 107
114 333 250 66 85 104
114 333 251 69 87 105
115 333 251 67 86 104
114 334 250 66 85 103
114 334 251 67 85 102
114 335 250 67 85 103
115 334 251 65 84 102
115 335 250 65 82 100
115 335 251 65 83 101
114 332 252 72 90 108
115 332 252 74 91 109
115 333 252 68 87 106
116 328 253 78 95 112
116 329 253 75 93 111
117 328 253 77 94 113
117 329 253 77 94 112
116 330 253 74 92 111
116 331 253 74 93 112
117 330 253 74 92 111
117 331 253 74 93 112
118 328 253 74 94 114
118 329 253 72 92 113
119 328 253 74 93 113
119 329 253 69 91 112
119 328 254 73 93 112
119 329 254 70 92 112
118 330 253 70 91 111
118 331 253 72 91 111
119 330 253 68 90 111
119 331 253 72 93 112
119 330 254 69 91 112
116 334 251 68 86 104
116 335 251 68 86 103
117 334 251 66 84 103
117 335 251 63 82 100
116 332 252 75 92 110
116 332 253 73 92 111
116 333 252 70 88 107
117 332 252 73 91 110
117 332 253 74 92 111
117 333 252 71 89 108
116 334 252 70 88 106
117 334 252 67 85 103
118 332 253 74 92 111
118 333 252 71 90 108
118 333 253 71 90 109
119 332 253 73 92 112
119 333 253 73 92 110
118 334 252 66 85 103
118 335 252 59 78 96
119 334 252 66 84 101
119 334 253 69 87 105
119 335 252 63 80 97
119 335 253 61 76 92
120 320 254 72 87 104
120 321 254 68 85 102
121 320 254 73 88 104
121 321 254 70 86 102
120 322 254 68 84 101
120 323 254 69 86 103
121 322 254 67 84 101
121 323 254 67 85 102
122 320 254 72 87 103
122 321 254 68 84 101
123 320 254 71 86 103
123 321 254 66 83 100
122 322 254 65 83 100
122 323 254 66 84 101
123 322 254 65 82 99
123 323 254 65 83 101
120 325 253 76 92 108
120 324 254 78 93 109
120 325 254 77 92 108
121 324 254 77 92 108
121 325 254 75 90 107
120 326 253 75 91 109
120 326 254 75 91 109
120 327 254 78 95 113
121 326 254 75 91 108
121 327 254 79 95 113
122 324 254 74 90 107
122 325 254 73 89 106
123 324 254 72 88 106
123 325 254 72 89 105
122 326 254 74 90 106
122 327 254 78 94 111
123 326 254 73 89 105
123 327 254 76 91 108
124 320 254 70 85 102
124 321 254 66 83 100
125 320 254 68 84 101
125 321 254 65 82 99
124 322 254 65 82 99
124 323 254 67 84 101
125 322 254 65 82 100
125 323 254 69 86 103
126 320 254 65 82 99
126 321 254 67 84 101
127 320 254 64 81 97
127 321 254 69 85 101
126 322 254 64 82 100
126 323 254 69 87 104
127 322 254 66 83 100
127 323 254 68 85 101
124 324 254 71 88 105
124 325 254 71 87 104
125 324 254 67 85 102
125 325 254 67 84 102
124 326 254 73 89 105
124 327 254 74 89 106
125 326 254 69 86 102
125 327 254 72 87 103
126 324 254 66 84 102
126 325 254 65 83 101
127 324 254 70 86 103
127 325 254 67 84 101
126 326 254 67 85 102
126 327 254 70 86 104
127 326 254 69 86 103
127 327 254 72 89 106
120 328 254 75 94 114
120 329 254 71 92 112
121 328 254 78 96 114
121 329 254 73 93 113
120 331 253 74 94 114
121 331 253 75 95 115
120 330 254 70 91 112
120 331 254 72 93 113
121 330 254 72 92 113
121 331 254 74 95 115
122 328 254 77 94 112
122 329 254 74 93 112
123 328 254 76 92 109
123 329 254 73 91 109
122 330 254 73 93 113
122 331 254 75 95 115
123 330 254 73 92 112
123 331 254 75 94 113
120 332 253 76 95 114
120 333 253 74 93 112
121 332 253 78 97 116
121 333 253 76 94 113
121 332 254 77 97 116
120 334 253 72 91 109
120 335 253 68 86 104
121 334 253 74 93 112
121 335 253 71 91 109
122 332 253 77 96 115
122 333 253 75 94 113
123 333 253 72 91 110
122 332 254 77 96 115
123 332 254 75 94 113
122 334 253 72 92 111
122 335 253 69 89 108
123 334 253 71 90 109
123 335 253 67 87 106
124 328 254 74 90 106
124 329 254 71 89 106
125 328 254 70 86 102
125 329 254 69 86 103
124 330 254 72 91 109
124 331 254 72 91 111
125 330 254 68 87 105
125 331 254 67 87 105
126 328 254 68 85 103
126 329 254 67 85 102
127 328 254 70 87 105
127 329 254 69 86 104
126 330 254 66 84 102
126 331 254 65 84 102
127 330 254 66 85 103
127 331 254 67 86 104
124 333 253 70 89 108
125 333 253 66 86 104
124 332 254 73 92 111
125 332 254 67 87 105
124 334 253 68 87 105
124 335 253 66 85 103
125 334 253 64 83 102
125 335 253 65 84 102
126 333 253 68 86 104
127 333 253 70 87 105
126 332 254 65 84 103
127 332 254 66 85 103
126 334 253 67 86 104
126 335 253 66 85 103
127 334 253 70 88 105
127 335 253 69 86 104
112 336 249 69 86 104
112 337 249 67 84 102
113 336 249 69 87 105
113 337 249 66 84 102
112 338 249 67 84 101
112 339 249 70 85 101
113 338 249 67 83 100
113 339 249 67 83 100
114 336 250 67 85 102
114 337 250 66 84 101
115 336 250 65 82 100
115 336 251 65 83 101
115 337 250 64 82 99
114 338 250 67 83 100
114 339 250 65 81 97
115 338 250 63 80 96
115 338 251 60 78 94
115 339 250 62 78 94
115 339 251 59 76 92
112 340 249 70 84 99
112 341 249 64 78 93
113 340 249 66 81 96
113 341 249 61 76 91
113 341 250 59 74 89
112 342 249 59 74 88
112 343 249 55 71 85
113 342 249 57 73 87
113 343 249 55 71 87
113 342 250 56 72 88
113 343 250 54 71 87
114 340 250 61 77 93
114 341 250 57 73 88
115 340 250 59 75 91
115 340 251 58 74 90
115 341 251 53 70 85
114 342 250 53 69 85
114 342 251 52 68 83
114 343 250 52 69 85
114 343 251 55 71 87
115 342 251 52 69 84
115 343 251 58 73 89
116 336 251 69 86 103
116 337 251 65 83 100
117 336 251 64 82 100
117 337 251 60 79 96
116 338 251 61 78 95
116 339 251 58 75 91
117 338 251 60 77 94
117 339 251 57 74 90
117 338 252 57 74 91
117 339 252 58 75 91
118 336 252 59 78 95
118 337 252 59 77 93
119 336 252 62 78 94
119 337 252 65 81 97
118 338 252 59 76 92
118 339 252 60 76 92
119 338 252 64 81 97
119 339 252 65 81 97
116 340 251 58 74 90
116 341 251 55 71 87
116 342 251 54 71 87
116 343 251 62 77 92
116 341 252 54 71 87
117 340 252 57 73 89
117 341 252 55 72 88
116 342 252 58 74 90
116 343 252 65 80 96
117 342 252 60 77 92
117 343 252 64 81 97
118 340 252 59 75 90
118 341 252 60 77 93
119 340 252 62 79 95
119 341 252 65 82 99
118 342 252 67 83 100
118 343 252 68 86 104
119 342 252 72 89 107
119 343 252 71 91 109
112 344 249 58 73 88
112 345 249 65 80 95
112 345 250 66 82 97
113 344 250 60 76 92
113 345 250 66 82 98
112 346 249 66 82 98
112 347 249 65 82 99
112 346 250 67 82 99
112 347 250 65 82 99
113 346 250 65 83 100
113 347 250 64 82 100
114 344 250 58 75 92
114 344 251 59 77 93
114 345 250 64 82 99
114 345 251 62 80 97
115 344 251 62 78 93
115 345 251 65 81 97
114 346 250 63 82 100
114 346 251 61 80 99
114 347 250 63 82 101
114 347 251 64 83 101
115 346 251 66 83 100
115 347 251 67 85 102
112 348 249 65 83 100
112 349 249 67 84 102
112 348 250 66 83 101
112 349 250 68 86 103
113 348 250 66 85 103
113 349 250 68 86 104
112 350 249 70 87 104
112 351 249 67 85 102
113 351 249 67 85 102
112 350 250 71 87 104
113 350 250 69 86 104
113 351 250 68 85 103
114 348 250 66 85 103
114 348 251 66 85 103
114 349 250 67 85 103
114 349 251 65 84 103
115 348 251 67 85 103
115 349 251 64 83 102
114 350 250 68 86 103
114 350 251 65 84 102
114 351 250 68 86 104
115 350 251 64 84 103
115 351 250 65 84 103
115 351 251 64 83 102
116 344 251 66 81 97
116 345 251 68 83 99
116 346 251 71 86 102
116 347 251 70 86 102
116 344 252 69 84 100
116 345 252 70 85 101
117 344 252 67 84 102
117 345 252 68 85 103
116 346 252 71 86 102
116 347 252 69 85 102
117 346 252 67 85 102
117 347 252 67 85 102
118 344 252 67 87 107
118 345 252 66 86 106
119 344 252 69 90 110
119 345 252 69 90 110
118 346 252 65 86 105
118 347 252 68 87 106
119 346 252 73 92 110
119 347 252 74 92 110
116 348 251 68 85 103
116 349 251 64 83 102
116 350 251 66 84 103
116 351 251 65 84 102
117 350 251 66 84 102
117 351 251 67 84 101
118 351 251 70 86 103
116 348 252 68 85 102
117 348 252 69 86 103
117 349 252 66 84 102
117 350 252 66 83 101
118 348 252 71 88 106
118 349 252 69 86 103
119 348 252 75 91 108
119 349 252 71 88 106
118 350 252 68 85 102
118 351 252 68 85 103
119 350 252 69 87 104
119 351 252 70 87 105
120 336 253 68 86 104
120 337 253 69 85 103
121 336 253 70 90 109
121 337 253 73 91 109
120 338 253 69 86 103
120 339 252 68 84 101
120 339 253 69 86 103
121 338 253 72 89 108
121 339 253 70 87 105
122 336 253 69 89 108
122 337 253 73 91 110
123 336 253 67 87 105
123 337 253 71 89 107
122 338 253 72 90 108
122 339 253 70 88 106
123 338 253 73 90 107
123 339 253 70 88 106
120 340 252 65 82 99
120 341 252 69 86 104
121 340 253 68 86 104
121 341 252 72 90 108
121 341 253 70 88 106
120 342 252 76 93 111
120 343 252 75 94 113
121 342 252 75 93 112
121 343 252 75 94 113
122 340 253 69 87 106
122 341 253 71 89 108
123 340 253 70 88 105
123 341 253 72 90 108
122 342 252 72 91 110
122 342 253 71 90 109
122 343 252 73 92 111
123 342 252 71 91 110
123 342 253 72 91 109
123 343 252 72 91 110
124 336 253 65 84 102
124 337 253 69 86 104
125 336 253 65 83 100
125 337 253 67 84 102
124 338 253 72 88 105
124 339 253 71 87 104
125 338 253 72 87 104
125 339 253 70 86 103
126 336 253 64 84 102
126 337 253 66 85 104
127 336 253 66 85 104
127 337 253 67 86 104
126 338 253 70 89 107
126 339 253 69 88 107
127 338 253 70 89 107
127 339 253 69 88 107
124 340 253 70 87 104
124 341 253 73 90 108
125 340 253 69 86 103
125 341 253 73 90 107
124 342 253 73 91 109
124 343 253 72 90 109
125 342 253 73 90 108
125 343 253 72 90 108
126 340 253 68 88 107
126 341 253 72 91 109
127 340 253 69 88 107
127 341 253 72 90 109
126 342 253 73 91 110
126 343 253 72 90 108
127 342 253 73 91 109
127 343 253 72 90 107
120 344 252 73 93 113
120 345 252 75 94 113
121 344 252 73 92 112
121 345 252 75 94 112
120 346 252 76 94 112
120 347 252 76 93 111
121 346 252 74 92 111
121 347 252 73 91 109
122 344 252 71 91 110
122 345 252 73 92 110
123 344 252 70 89 108
123 345 252 72 90 108
122 346 252 72 90 109
122 347 252 71 89 107
123 346 252 71 89 107
123 347 252 69 87 105
123 347 253 69 87 105
120 348 252 75 91 109
120 349 252 72 89 107
121 348 252 74 91 109
121 349 252 73 90 108
121 349 253 74 91 109
120 350 252 70 88 106
120 351 252 72 89 107
121 350 252 72 90 108
121 350 253 73 90 108
121 351 252 72 90 107
121 351 253 74 90 107
122 348 252 72 90 108
122 348 253 71 89 107
122 349 253 71 89 107
123 348 253 70 88 106
123 349 253 69 87 105
122 350 253 72 89 107
122 351 253 73 89 106
123 350 253 71 88 106
123 351 253 72 89 106
124 344 252 71 90 109
124 344 253 71 90 108
124 345 252 72 91 109
124 345 253 72 91 109
125 344 253 70 89 108
125 345 253 70 89 107
124 346 252 71 89 108
124 346 253 70 89 106
124 347 253 70 87 105
125 346 253 68 86 104
125 347 253 69 86 103
126 344 253 71 89 107
126 345 253 70 87 105
127 344 253 70 87 105
127 345 253 69 86 103
126 346 253 69 86 103
126 347 253 70 86 103
127 346 253 69 85 102
127 347 253 72 87 103
124 348 253 70 87 105
124 349 253 69 87 104
125 348 253 68 85 102
125 349 253 68 85 103
124 350 253 71 88 105
124 351 253 72 89 107
125 350 253 67 85 102
125 351 253 70 87 105
126 348 253 68 85 102
126 349 253 68 85 102
127 348 253 72 88 104
127 349 253 71 87 104
126 350 253 67 85 102
126 351 253 70 88 107
127 350 253 71 88 105
127 351 253 71 89 107
96 352 235 48 62 75
96 353 235 51 64 76
96 354 235 51 63 75
96 355 234 49 61 73
96 355 235 48 61 73
96 352 236 49 63 77
96 353 236 51 64 77
97 352 236 50 63 77
97 352 237 50 63 77
97 353 236 52 64 77
97 354 236 52 64 77
97 355 236 50 63 75
98 352 237 51 64 78
98 353 237 52 64 77
99 353 237 50 63 76
99 352 238 50 63 77
99 353 238 50 62 75
98 354 236 51 63 76
98 354 237 52 64 77
98 355 236 50 63 75
98 355 237 51 63 76
99 354 237 51 63 76
99 355 237 51 64 76
99 354 238 50 63 75
99 355 238 51 63 76
96 356 234 50 62 74
96 356 235 48 60 72
96 357 234 48 60 71
96 357 235 47 59 71
97 356 235 48 61 73
97 357 235 47 59 71
96 358 234 48 59 70
96 358 235 47 59 70
96 359 234 47 58 69
96 359 235 46 58 69
97 358 235 48 60 72
97 359 235 47 58 70
98 359 235 46 58 70
97 356 236 49 61 74
97 357 236 48 60 72
98 356 236 49 62 74
98 356 237 50 62 75
98 357 236 49 61 74
99 356 237 50 62 75
99 357 237 50 62 75
98 358 236 49 61 74
98 359 236 47 59 71
99 358 237 49 62 74
99 359 236 47 60 73
99 359 237 48 61 73
100 352 238 47 61 75
100 352 239 48 62 75
100 353 238 48 61 74
100 353 239 48 62 75
101 352 239 49 62 76
101 353 239 50 64 77
100 354 238 49 62 75
100 354 239 49 63 76
100 355 238 49 62 75
100 355 239 48 62 75
101 354 239 50 64 77
101 355 239 50 63 77
100 356 238 47 61 74
100 356 239 47 61 74
100 357 238 48 61 74
101 356 239 49 62 76
101 357 239 49 63 77
100 358 237 49 62 74
100 359 237 49 62 74
100 358 238 49 63 76
100 359 238 50 63 76
101 358 239 51 65 78
101 359 238 52 65 78
101 359 239 52 65 79
102 358 239 53 66 80
102 359 239 52 66 79
96 360 233 48 58 69
96 361 233 47 57 68
96 360 234 48 59 70
96 361 234 48 58 68
97 360 235 47 58 69
97 361 234 46 57 68
97 361 235 46 57 69
96 362 233 48 57 68
96 363 233 47 57 67
96 362 234 48 57 68
96 363 234 47 56 67
97 362 234 45 56 67
97 362 235 45 56 67
97 363 234 45 56 66
97 363 235 45 56 67
98 360 235 47 58 70
98 361 235 47 58 69
98 362 235 45 56 67
98 363 235 45 56 67
98 360 236 48 60 72
98 361 236 48 59 71
99 360 236 49 61 73
99 360 237 48 61 73
99 361 236 48 60 72
99 362 236 46 58 69
99 363 236 46 57 69
96 364 233 46 56 67
96 365 233 46 57 67
96 364 234 46 56 66
96 365 234 46 57 67
97 364 234 45 55 66
97 365 234 45 56 67
96 366 233 45 56 67
96 367 233 46 56 66
96 366 234 46 56 67
97 366 234 46 56 67
97 367 234 46 56 67
98 364 235 45 56 67
98 365 235 45 56 67
99 365 235 47 57 69
98 366 235 44 55 66
98 367 235 46 56 67
99 366 235 46 57 68
99 367 235 47 58 69
99 364 236 47 58 69
99 365 236 47 58 69
99 366 236 47 58 70
99 367 236 47 59 70
100 360 237 50 62 75
100 361 237 49 61 73
100 360 238 51 64 76
101 360 238 52 65 77
101 360 239 54 67 80
101 361 238 51 64 77
100 362 236 47 58 70
100 362 237 48 60 72
100 363 236 47 59 70
100 363 237 49 61 73
101 362 238 50 63 76
101 363 238 49 62 75
102 360 239 54 67 80
102 361 239 54 67 80
102 362 238 52 65 79
102 362 239 54 67 80
102 363 238 51 65 78
102 363 239 53 66 79
103 362 239 56 68 81
103 363 239 55 67 80
100 364 236 48 59 70
100 364 237 49 60 73
100 365 236 49 59 71
100 365 237 49 61 73
101 365 237 49 62 75
101 364 238 48 62 75
101 365 238 49 62 76
100 366 236 48 59 71
100 366 237 50 61 73
100 367 236 48 59 70
100 367 237 51 61 73
101 366 237 51 64 76
101 367 237 53 64 77
101 366 238 51 64 77
101 367 238 51 64 76
102 364 238 50 64 77
102 364 239 52 66 79
102 365 238 50 64 77
102 365 239 52 66 79
103 364 239 54 67 80
103 365 239 54 67 80
102 366 238 52 65 78
102 366 239 53 66 79
102 367 238 52 65 78
103 366 239 54 67 80
103 367 239 54 67 80
101 352 240 49 63 77
101 353 240 51 65 78
101 354 240 51 65 78
101 355 240 51 64 77
102 352 240 52 64 77
102 352 241 53 66 79
102 353 240 54 66 79
102 353 241 54 67 79
103 352 241 53 66 79
103 353 241 54 66 80
103 352 242 52 65 78
102 354 240 54 66 79
102 355 240 54 66 79
103 354 241 54 68 81
103 355 241 57 69 83
102 356 240 52 66 79
102 357 240 54 67 80
103 356 240 57 69 82
103 356 241 57 70 83
103 357 240 57 69 82
103 357 241 58 71 84
102 358 240 55 68 81
102 359 240 55 68 80
103 358 240 57 69 83
103 358 241 57 70 84
103 359 240 58 71 83
103 359 241 58 71 84
102 360 240 56 68 81
103 360 240 57 69 83
103 361 240 56 68 82
103 362 240 56 69 82
103 363 240 56 68 81
103 364 240 56 69 82
104 352 242 52 65 78
104 352 243 52 66 80
104 353 242 53 66 80
104 353 243 54 67 81
105 352 243 55 68 82
105 353 243 56 70 83
104 355 241 57 70 84
104 354 242 51 66 81
104 355 242 55 69 83
105 354 243 54 69 84
105 355 243 56 71 86
106 355 243 60 75 90
105 352 244 56 70 84
105 353 244 57 71 86
105 354 244 55 71 86
106 352 244 56 71 85
106 353 244 56 72 87
107 352 245 59 74 89
107 353 245 59 74 89
107 352 246 62 76 92
107 353 246 63 78 94
106 354 244 55 72 87
106 355 244 59 74 90
107 354 245 60 76 92
107 355 244 64 79 95
107 355 245 65 80 96
107 354 246 64 79 95
104 356 241 57 70 84
104 357 241 57 71 84
104 356 242 57 71 85
104 357 242 56 71 85
105 356 243 60 74 88
105 357 242 59 73 88
105 357 243 61 75 90
104 358 241 57 71 85
104 359 241 58 71 85
104 358 242 57 71 85
104 359 242 57 71 85
105 358 242 59 73 87
105 358 243 60 74 89
105 359 242 57 72 86
105 359 243 57 72 87
106 356 243 62 76 92
106 357 243 61 76 91
106 358 243 60 74 89
106 359 243 58 73 88
106 356 244 62 77 93
106 357 244 62 77 92
107 356 244 65 79 95
107 356 245 66 81 97
107 357 244 61 77 93
107 357 245 61 78 94
106 358 244 60 75 90
107 358 244 59 75 91
107 358 245 60 77 93
107 359 244 58 74 90
107 359 245 59 76 92
108 352 246 65 80 95
108 352 247 66 82 98
108 353 246 67 82 97
109 352 247 68 84 100
109 353 247 67 83 99
108 355 245 68 83 99
108 354 246 68 83 99
108 355 246 67 83 99
109 354 246 67 82 98
109 354 247 67 83 99
109 355 246 66 82 98
109 355 247 66 82 99
110 352 247 65 82 99
110 353 247 64 82 99
110 354 247 64 81 98
110 355 247 63 80 97
111 355 247 63 80 98
108 356 245 65 82 98
108 357 245 63 80 96
108 356 246 67 83 99
108 357 246 65 81 97
109 356 246 68 83 99
109 357 246 66 82 98
108 358 245 63 79 96
108 359 245 62 78 94
109 358 246 64 81 97
109 359 246 61 78 94
110 356 247 66 82 98
110 357 247 66 82 98
111 356 247 64 82 99
111 357 247 65 82 98
110 358 246 64 80 97
110 358 247 64 80 97
110 359 246 60 78 94
110 359 247 59 77 93
111 358 247 62 79 96
111 359 247 59 77 94
110 352 248 64 82 99
110 353 248 64 82 99
111 352 248 62 81 99
111 352 249 65 83 100
111 353 248 64 82 99
111 354 248 65 82 100
111 355 248 63 80 98
111 356 248 64 81 98
111 357 248 64 81 98
111 358 248 61 78 95
111 359 248 60 77 93
104 360 241 56 69 84
104 361 240 56 69 83
104 361 241 56 70 84
104 360 242 55 70 84
105 360 242 57 72 86
105 361 242 58 72 87
104 362 240 57 70 83
104 362 241 58 71 85
104 363 240 58 70 83
104 363 241 58 71 85
105 362 241 58 72 86
105 363 241 58 71 86
105 362 242 59 73 87
105 363 242 58 72 87
106 360 243 57 72 87
106 361 242 57 72 87
106 361 243 58 73 87
107 360 243 57 72 88
107 361 243 58 73 88
106 362 242 57 72 86
106 362 243 56 71 86
106 363 242 57 72 86
107 362 243 56 71 87
107 363 243 56 71 86
107 360 244 58 74 90
107 361 244 59 74 90
107 362 244 57 73 88
107 363 244 54 71 86
104 364 240 56 70 83
104 364 241 56 70 84
104 365 240 55 68 82
104 365 241 55 69 83
105 364 241 56 71 85
105 365 241 56 70 85
104 366 240 55 69 83
104 367 240 55 68 81
105 366 241 56 70 85
105 367 241 55 70 84
106 364 242 57 72 87
106 365 242 58 73 87
107 364 242 57 72 87
107 364 243 56 71 86
107 365 242 58 73 87
107 365 243 58 72 87
106 366 241 57 72 86
106 367 241 57 71 86
106 366 242 58 72 87
106 367 242 58 72 86
107 366 242 59 73 88
107 366 243 58 72 87
107 367 242 57 71 86
107 367 243 57 72 86
108 360 245 61 77 93
108 361 244 61 76 92
108 361 245 62 78 93
