ply
format ascii 1.0
comment PCL generated
element vertex 2278
property float x
property float y
property float z
property uchar red
property uchar green
property uchar blue
element camera 0
property float view_px
property float view_py
property float view_pz
property float x_axisx
property float x_axisy
property float x_axisz
property float y_axisx
property float y_axisy
property float y_axisz
property float z_axisx
property float z_axisy
property float z_axisz
property float focal
property float scalex
property float scaley
property float centerx
property float centery
property int viewportx
property int viewporty
property float k1
property float k2
end_header
114 409 164 49 58 68
114 410 164 50 59 69
114 411 164 50 59 69
114 412 163 49 58 68
115 412 162 49 58 67
115 412 163 48 57 67
115 413 163 48 57 67
115 414 163 48 57 67
115 415 163 48 57 66
112 412 165 46 56 66
113 412 165 46 56 66
113 413 165 46 55 65
112 412 166 45 55 66
112 413 166 46 56 66
112 413 167 47 56 66
113 414 165 46 55 65
113 415 165 46 55 65
112 414 166 46 55 65
112 414 167 47 56 65
112 415 166 46 55 64
112 415 167 46 55 64
113 415 166 46 55 64
114 412 164 48 57 67
114 413 164 48 57 67
114 414 164 47 56 66
114 415 164 47 56 66
116 408 161 49 59 68
116 409 161 50 59 68
117 408 160 49 58 68
117 408 161 49 58 68
117 409 160 49 58 67
117 409 161 49 58 67
116 408 162 49 58 68
116 409 162 50 59 69
116 410 161 50 59 68
116 411 161 50 58 67
117 410 160 48 57 66
117 410 161 49 58 67
117 411 160 48 56 66
117 411 161 49 58 67
116 410 162 50 59 68
116 411 162 49 58 68
118 408 160 49 58 68
118 409 160 49 58 67
118 410 160 48 57 66
118 411 160 48 57 66
116 412 161 49 58 67
116 413 161 48 57 67
117 412 161 49 57 66
117 413 161 48 57 66
116 412 162 49 58 67
116 413 162 48 57 67
116 414 161 48 57 67
116 415 161 47 56 66
117 414 161 48 57 67
117 415 161 47 57 67
116 414 162 48 57 67
116 415 162 47 56 66
118 412 160 48 57 66
118 413 160 47 56 66
118 414 160 47 56 66
118 415 160 47 57 66
118 416 159 47 57 66
118 417 159 47 57 66
119 416 159 47 56 66
119 417 158 48 57 66
119 417 159 47 57 66
118 418 159 46 56 65
118 419 159 46 56 66
119 418 158 47 56 66
119 418 159 47 56 65
119 419 158 46 55 65
119 419 159 46 55 65
118 420 159 46 56 65
118 421 159 47 56 65
119 420 158 46 55 65
119 420 159 46 55 65
119 421 158 47 56 65
119 421 159 46 56 65
118 422 159 46 55 65
118 423 159 46 55 64
119 422 158 46 55 64
119 422 159 46 55 64
119 423 158 47 55 64
117 426 159 47 55 63
117 427 159 48 55 63
119 425 157 47 55 63
118 424 159 46 54 63
118 425 158 47 55 63
118 425 159 47 55 63
119 424 158 47 55 63
119 425 158 47 54 63
119 426 157 48 55 63
119 427 157 48 55 63
118 426 158 47 55 63
118 426 159 47 55 63
118 427 158 48 55 63
118 427 159 48 55 63
119 426 158 47 55 62
119 427 158 48 55 63
119 430 155 51 57 65
119 431 155 49 56 64
116 429 159 47 54 62
117 428 159 48 55 63
117 429 158 48 55 63
117 429 159 47 54 62
117 431 157 48 56 65
116 430 159 48 55 63
116 431 159 48 56 64
117 430 158 49 56 64
117 430 159 48 56 64
117 431 158 49 57 65
118 429 157 49 56 64
119 428 156 49 56 64
119 428 157 48 56 63
119 429 156 50 57 65
119 429 157 49 56 64
118 428 158 48 55 63
118 428 159 48 55 63
118 429 158 48 55 63
118 430 156 50 58 66
118 430 157 50 57 65
118 431 156 49 57 65
118 431 157 49 57 65
119 430 156 50 58 66
119 431 156 49 56 65
118 430 158 49 56 64
127 419 151 46 53 61
125 422 151 48 54 62
125 423 151 49 56 63
126 420 151 46 53 61
126 421 151 46 53 60
127 420 150 46 53 61
127 420 151 46 53 61
127 421 150 47 54 61
127 421 151 46 53 60
127 422 149 48 54 61
127 423 149 49 55 63
126 422 150 49 55 62
126 422 151 47 54 61
126 423 150 49 55 63
126 423 151 49 56 63
127 422 150 48 54 61
127 423 150 49 55 63
123 417 155 47 55 64
122 419 155 47 55 63
123 418 155 47 54 63
123 419 155 46 54 62
121 416 157 46 55 65
121 417 157 46 55 64
120 416 158 46 55 65
120 417 158 46 55 65
121 416 158 45 55 64
120 418 157 46 55 64
120 419 157 47 55 64
121 418 156 46 55 64
121 418 157 46 54 64
121 419 156 46 54 63
121 419 157 46 55 63
120 418 158 47 56 65
120 419 158 46 55 65
122 416 156 47 56 65
122 416 157 47 56 65
122 417 156 47 55 64
122 417 157 46 55 65
123 416 156 47 55 64
123 417 156 47 55 64
122 418 156 47 55 64
122 419 156 47 55 64
123 418 156 47 55 64
121 423 155 47 54 62
122 420 155 46 54 62
122 421 155 47 55 63
123 420 154 47 54 62
123 420 155 47 54 62
123 421 154 47 54 62
123 421 155 46 54 62
123 423 153 47 54 62
122 422 155 48 55 63
122 423 155 47 54 62
123 422 154 47 55 62
123 422 155 48 55 63
123 423 154 47 54 62
120 420 157 47 55 64
120 421 157 47 55 64
121 420 156 47 55 63
121 420 157 48 55 64
121 421 156 48 55 63
121 421 157 47 55 64
120 420 158 47 55 64
120 421 158 48 56 65
120 422 157 47 55 64
120 423 157 47 55 63
121 422 156 47 55 63
121 422 157 47 55 63
121 423 156 47 54 63
120 422 158 47 55 64
120 423 158 47 55 64
122 420 156 47 55 63
124 416 155 47 55 64
124 417 155 47 55 63
125 416 154 46 55 63
125 416 155 46 55 63
125 417 154 46 54 62
125 418 153 45 53 61
125 419 153 46 53 61
124 418 154 47 55 63
124 418 155 47 55 63
124 419 154 47 55 63
125 418 154 46 54 62
125 419 154 47 55 63
126 416 153 47 55 63
126 417 153 46 54 62
127 416 152 45 53 61
127 416 153 46 54 63
127 417 152 46 54 62
126 416 154 47 55 64
126 418 152 46 54 62
126 418 153 46 54 62
126 419 152 46 53 61
126 419 153 46 53 61
127 418 152 47 54 62
127 419 152 47 54 62
124 416 156 48 56 65
124 420 153 47 54 62
124 421 153 47 54 62
125 420 152 46 53 61
125 420 153 46 54 62
125 421 152 46 53 61
125 421 153 47 54 62
124 420 154 47 54 62
124 421 154 46 54 62
124 422 152 47 54 62
124 422 153 47 54 62
124 423 152 47 54 62
124 423 153 46 54 61
125 422 152 47 54 61
125 422 153 46 53 61
125 423 152 48 55 63
126 420 152 45 53 61
126 421 152 45 52 60
123 429 151 52 59 67
122 431 151 48 56 65
123 430 151 49 57 66
123 431 150 49 57 65
123 431 151 48 56 65
127 426 147 48 55 63
127 427 147 47 55 63
124 425 151 49 56 64
125 424 151 49 56 63
125 425 151 49 56 64
124 426 151 49 57 65
124 427 151 49 57 65
125 426 150 48 56 64
125 426 151 49 56 64
125 427 150 48 56 64
125 427 151 49 56 64
126 425 149 50 57 65
127 424 148 49 56 64
127 424 149 48 55 63
127 425 148 49 56 64
127 425 149 49 56 64
126 424 150 49 56 63
126 424 151 49 56 63
126 425 150 49 56 64
126 426 149 49 56 64
126 427 148 46 54 63
126 427 149 47 55 64
127 426 148 48 56 64
127 426 149 49 56 64
127 427 148 47 54 63
126 426 150 49 56 64
127 428 147 46 54 62
127 429 146 45 52 60
127 429 147 46 54 62
126 430 147 47 54 62
126 431 147 49 55 62
127 430 146 47 54 62
127 430 147 47 54 61
127 431 146 54 59 66
127 431 147 52 57 64
125 428 149 47 55 63
125 429 149 47 55 63
124 428 151 50 57 66
124 429 150 48 56 64
124 429 151 50 58 66
125 428 150 48 55 64
125 429 150 47 55 63
124 431 149 48 56 64
125 430 148 46 53 61
125 430 149 46 54 63
125 431 148 47 54 61
125 431 149 48 55 63
124 430 150 48 56 65
124 430 151 50 58 66
124 431 150 48 56 65
125 430 150 47 55 63
126 428 148 46 54 63
126 428 149 46 54 63
126 429 148 46 54 62
126 429 149 47 54 62
127 428 148 46 54 63
126 430 148 46 53 61
126 431 148 47 53 61
121 424 155 48 55 63
121 425 155 48 55 63
120 427 155 49 56 63
121 426 155 49 56 64
121 427 155 50 56 64
123 424 153 48 55 63
123 425 153 50 57 64
122 424 154 46 53 61
122 424 155 47 54 62
122 425 154 49 56 64
122 425 155 48 55 63
123 424 154 47 54 62
123 425 154 49 56 63
122 427 153 51 58 65
123 426 152 52 59 66
123 426 153 51 58 66
123 427 152 52 58 66
123 427 153 51 58 66
122 426 154 50 57 65
122 426 155 49 56 64
122 427 154 51 58 65
120 424 156 47 55 62
120 424 157 47 55 63
120 425 156 48 55 63
120 425 157 48 55 63
121 424 156 47 54 63
121 425 156 48 55 63
120 426 156 48 55 62
120 426 157 48 55 63
120 427 156 48 55 63
120 427 157 48 55 63
120 428 155 50 57 64
120 429 155 51 58 65
121 428 154 52 58 66
121 428 155 51 57 65
121 429 154 52 58 66
121 429 155 52 58 66
121 430 153 50 57 65
121 431 152 49 57 65
121 431 153 49 57 65
120 430 154 49 56 64
120 430 155 50 57 65
120 431 154 48 56 64
120 431 155 48 56 64
121 430 154 50 57 65
121 431 154 48 56 64
122 428 153 51 58 65
122 429 152 51 58 66
122 429 153 51 58 66
123 428 152 51 58 66
123 428 153 51 58 65
123 429 152 51 58 66
122 428 154 52 59 66
122 430 152 49 57 65
122 430 153 51 58 66
122 431 152 49 57 65
123 430 152 50 58 66
120 428 156 50 56 64
120 429 156 50 57 64
124 424 152 48 55 62
124 424 153 49 55 63
124 425 152 49 56 64
124 426 152 51 57 65
124 427 152 51 58 66
115 432 159 47 55 63
115 433 159 48 56 64
114 435 159 49 56 65
115 434 159 50 57 65
115 435 158 49 57 65
115 435 159 49 56 65
113 439 159 46 53 62
115 437 157 45 52 61
114 436 159 47 55 64
114 437 159 46 54 63
115 436 158 48 55 64
115 436 159 47 55 64
115 437 158 46 54 62
115 437 159 47 55 63
115 438 157 48 54 62
115 439 157 51 56 63
114 438 159 46 53 62
114 439 158 48 54 62
114 439 159 45 53 61
115 438 158 46 53 61
115 439 158 47 54 61
119 432 155 48 56 65
119 433 154 48 56 64
119 433 155 47 56 64
119 435 153 47 54 61
118 434 155 48 56 65
118 435 154 47 54 62
118 435 155 46 55 63
119 434 154 47 55 64
119 434 155 49 57 65
119 435 154 46 54 62
117 432 157 49 57 65
117 433 156 48 56 65
117 433 157 48 57 65
116 432 158 49 57 65
116 432 159 48 56 64
116 433 158 49 57 66
116 433 159 48 56 65
117 432 158 49 57 65
117 433 158 49 57 66
116 434 157 49 57 66
116 435 157 48 56 65
117 434 156 48 56 65
117 434 157 49 57 66
117 435 156 47 55 64
116 434 158 49 57 66
116 434 159 49 57 65
116 435 158 49 57 65
118 432 156 48 56 65
118 432 157 48 56 65
118 433 156 48 56 65
119 432 156 49 56 65
118 434 156 47 56 65
118 435 156 47 55 64
117 437 155 47 53 61
117 438 155 57 61 68
117 439 155 64 68 74
119 436 153 51 56 63
119 437 152 62 66 72
119 437 153 58 62 69
118 436 154 47 54 62
118 436 155 46 54 62
118 437 154 52 58 65
118 437 155 48 54 62
119 436 154 48 55 63
118 439 153 58 62 68
119 438 152 60 64 70
119 438 153 62 66 72
119 439 152 55 60 66
119 439 153 58 62 69
118 438 154 62 66 72
118 438 155 55 60 67
118 439 154 62 66 73
116 436 156 47 55 64
116 436 157 47 55 64
116 437 156 46 54 62
116 437 157 47 55 63
117 436 156 46 54 63
117 437 156 47 53 61
116 436 158 49 56 65
116 438 156 51 57 64
116 438 157 49 55 62
116 439 156 58 63 69
116 439 157 53 58 65
113 440 159 45 53 61
113 441 159 50 56 64
113 442 159 58 62 69
113 443 159 55 60 66
115 440 157 60 64 70
115 441 157 61 65 70
114 440 158 52 58 64
114 440 159 47 54 62
114 441 158 59 63 69
114 441 159 55 60 67
115 440 158 56 60 67
115 441 158 61 64 70
115 442 157 53 57 63
115 443 157 50 55 61
114 442 158 57 61 67
114 442 159 58 62 68
114 443 158 52 57 63
114 443 159 54 59 65
115 442 158 55 60 66
115 443 158 50 55 62
113 444 159 51 56 63
113 445 159 51 57 64
113 446 159 55 60 67
113 447 159 58 62 69
115 444 157 52 57 63
115 445 157 56 61 67
114 444 158 50 55 62
114 444 159 49 55 62
114 445 158 52 58 64
114 445 159 51 57 65
115 444 158 50 55 62
115 446 157 57 62 69
114 446 158 56 61 68
114 446 159 55 60 67
114 447 159 57 63 70
117 440 155 63 66 72
117 441 155 54 59 65
117 442 155 49 54 61
117 443 155 52 57 63
118 440 153 55 60 66
118 441 153 51 57 64
119 440 152 53 59 65
119 440 153 54 59 66
119 441 152 53 59 66
119 441 153 51 57 65
118 440 154 57 61 68
118 441 154 51 56 63
118 442 153 52 57 65
118 443 153 57 62 68
119 442 152 56 61 69
119 442 153 53 59 66
119 443 152 55 61 69
119 443 153 57 62 69
118 442 154 50 55 62
118 443 154 55 60 66
116 440 156 64 67 73
116 440 157 60 64 69
116 441 156 59 63 68
117 441 156 54 58 64
116 442 156 50 55 61
116 443 156 50 55 61
117 444 154 56 61 68
117 444 155 57 62 68
117 445 154 56 62 70
117 445 155 57 62 69
118 444 153 55 61 68
118 445 153 55 62 70
119 444 152 54 61 70
119 444 153 54 61 68
118 444 154 56 61 67
118 445 154 55 62 70
116 444 156 54 59 65
116 445 156 58 63 70
116 446 156 55 61 69
121 434 151 51 56 63
121 435 151 57 61 67
123 433 149 52 58 65
122 432 151 48 56 65
122 433 151 49 56 63
123 432 150 48 55 64
123 432 151 48 56 64
123 433 150 48 55 62
123 434 149 62 65 71
123 435 149 67 69 74
122 434 150 57 61 67
122 434 151 50 56 63
122 435 150 65 68 73
122 435 151 61 65 70
123 434 150 55 60 66
121 436 151 64 67 72
121 437 150 54 58 64
121 437 151 60 63 68
120 438 151 53 58 64
120 439 151 53 58 64
121 438 150 52 57 62
121 438 151 53 58 64
121 439 150 52 57 63
121 439 151 52 57 64
122 436 149 60 63 68
122 437 149 53 57 62
123 436 148 57 60 65
123 436 149 61 64 69
123 437 148 50 55 60
123 437 149 52 56 61
122 436 150 64 67 72
122 437 150 55 59 64
122 438 149 50 55 60
122 439 149 53 58 64
123 438 148 51 56 61
123 439 148 56 60 66
122 438 150 51 55 61
122 439 150 52 57 63
125 432 147 53 58 64
125 433 147 61 64 70
125 434 147 62 64 69
125 435 146 51 54 60
125 435 147 55 58 63
127 432 145 64 67 73
127 433 145 62 66 71
126 432 147 55 59 66
126 433 146 62 66 71
126 433 147 61 64 70
127 432 146 61 64 70
127 433 146 64 66 72
126 435 145 48 53 59
127 434 145 54 58 64
127 435 144 48 53 60
127 435 145 49 54 60
126 434 146 58 61 66
126 434 147 63 65 70
126 435 146 51 54 60
124 432 149 48 55 63
124 433 148 56 60 66
124 433 149 51 57 64
125 432 148 50 55 62
125 433 148 58 62 68
124 432 150 48 55 64
124 434 148 64 67 71
124 434 149 60 64 70
124 435 148 63 65 70
125 434 148 63 65 70
124 436 147 51 55 60
124 437 147 52 56 61
125 436 146 50 54 60
125 436 147 51 55 60
125 437 146 52 57 63
125 437 147 52 56 61
125 438 145 53 58 65
125 439 145 54 60 67
124 438 147 56 60 66
124 439 146 54 59 66
124 439 147 56 61 67
125 438 146 55 60 66
125 439 146 54 60 67
126 436 145 48 53 59
126 437 144 54 59 66
126 437 145 53 58 64
127 436 144 49 55 62
127 436 145 47 52 58
127 437 144 53 59 66
126 436 146 49 54 60
126 438 144 52 58 66
126 438 145 53 58 65
126 439 144 52 59 67
126 439 145 52 59 67
127 438 144 56 62 70
127 439 144 54 62 70
124 436 148 54 58 63
124 437 148 51 55 60
124 438 148 53 57 63
120 432 153 48 55 63
120 433 153 48 55 63
121 432 152 48 56 64
121 432 153 48 56 64
121 433 152 49 55 63
121 433 153 47 55 63
120 432 154 48 56 64
120 433 154 48 56 64
120 434 152 47 53 61
120 434 153 47 54 62
120 435 152 51 56 62
120 435 153 48 54 61
121 434 152 48 54 61
121 435 152 55 59 65
122 432 152 48 56 64
122 433 152 49 56 64
120 436 152 57 61 67
120 437 152 61 65 71
121 436 152 60 63 69
120 438 152 56 61 67
120 439 152 53 58 65
120 440 151 53 58 65
120 441 151 57 62 69
121 440 150 56 60 67
121 440 151 54 59 65
121 441 150 57 62 69
121 441 151 58 63 70
120 442 151 56 62 69
120 443 151 56 63 72
121 442 150 55 62 70
121 442 151 56 62 70
121 443 150 56 65 73
121 443 151 56 63 71
122 440 149 57 61 68
122 441 148 52 59 67
122 441 149 54 60 67
123 440 148 56 61 68
123 441 148 52 59 67
122 442 148 52 60 69
122 442 149 53 61 70
122 443 148 52 62 72
122 443 149 54 64 73
123 442 148 50 59 68
123 443 148 51 61 71
120 444 151 55 63 73
125 440 145 53 60 68
125 441 145 49 58 67
124 440 146 54 60 68
124 440 147 54 60 67
124 441 146 50 58 67
124 441 147 51 59 67
125 440 146 54 60 68
125 441 146 49 58 67
124 442 147 48 57 67
125 442 146 48 57 67
126 440 144 50 59 68
126 440 145 52 59 68
126 441 144 49 57 67
126 441 145 48 57 66
127 440 144 54 62 71
127 441 144 51 59 69
120 440 152 53 58 65
120 441 152 55 61 68
120 442 152 57 62 70
120 443 152 56 62 70
120 444 152 55 63 72
103 430 175 47 57 67
103 431 175 48 57 67
111 416 167 47 56 65
111 419 167 45 53 62
111 420 167 46 54 63
111 421 167 46 54 62
111 422 167 47 54 63
111 423 167 47 55 63
105 416 174 48 57 67
105 416 175 48 57 67
105 417 175 48 57 67
105 418 174 48 57 67
105 418 175 47 56 66
105 419 174 48 57 67
105 419 175 47 57 66
106 416 173 48 57 66
106 417 173 48 57 67
107 416 172 47 56 66
107 416 173 47 56 66
107 417 172 47 56 66
107 417 173 48 57 66
106 416 174 48 57 67
106 417 174 48 57 67
106 418 173 48 57 67
106 419 173 48 57 66
107 418 172 47 57 67
107 418 173 48 57 67
107 419 172 47 56 66
107 419 173 48 57 67
106 418 174 49 58 67
106 419 174 48 57 67
105 420 174 47 56 66
105 420 175 47 57 66
105 421 174 46 56 66
105 421 175 47 56 66
104 422 175 47 56 66
104 423 175 48 57 66
105 422 174 45 55 64
105 422 175 46 56 66
105 423 174 45 55 64
105 423 175 46 56 65
106 420 173 47 56 66
106 421 173 48 56 66
107 420 172 48 57 66
107 420 173 47 56 66
107 421 172 48 57 66
107 421 173 48 57 66
106 420 174 47 57 66
106 421 174 46 56 65
106 422 173 47 56 66
106 423 173 46 55 65
107 422 172 47 56 65
107 422 173 47 56 65
107 423 172 47 55 65
107 423 173 46 55 64
106 422 174 46 55 65
106 423 174 45 55 64
108 416 171 48 57 67
108 417 171 47 57 67
109 416 170 48 57 67
109 416 171 48 57 67
109 417 170 48 58 67
109 417 171 48 58 67
108 418 171 48 57 67
108 419 171 47 57 67
109 418 170 49 58 67
109 418 171 49 58 68
109 419 170 47 56 66
109 419 171 47 57 66
110 416 168 48 57 66
110 416 169 48 57 67
110 417 168 48 57 66
110 417 169 48 57 67
111 416 168 47 56 65
111 417 168 47 56 65
110 418 168 47 56 65
110 418 169 48 57 66
110 419 169 47 56 65
111 418 168 47 56 65
111 419 168 46 55 64
108 416 172 48 57 67
108 417 172 47 57 66
108 418 172 47 57 67
108 419 172 47 56 66
108 420 171 48 57 67
108 421 171 48 57 66
109 420 170 47 56 66
109 421 170 47 56 65
109 422 169 46 55 65
109 423 169 47 56 65
108 422 171 47 56 65
108 423 170 48 56 66
108 423 171 47 56 65
109 422 170 46 55 65
109 423 170 47 56 65
110 420 169 47 56 65
110 421 169 47 55 65
111 420 168 47 55 64
111 421 168 47 55 64
110 422 169 47 55 64
110 423 168 47 55 64
110 423 169 47 56 65
111 422 168 47 55 64
111 423 168 47 55 64
108 420 172 48 57 66
108 421 172 48 57 66
108 422 172 47 56 65
111 424 167 46 54 63
111 425 167 46 54 63
110 427 167 45 53 62
111 426 166 45 53 62
111 426 167 45 53 62
111 427 166 45 53 62
111 427 167 45 53 62
110 428 167 45 53 61
110 429 167 46 54 62
111 428 166 46 54 62
111 428 167 45 53 61
111 429 166 46 54 62
111 431 165 47 55 63
110 430 166 45 53 61
110 430 167 45 53 61
110 431 166 46 54 63
110 431 167 45 53 62
111 430 166 46 54 62
111 431 166 46 54 62
107 425 171 47 56 65
107 426 171 48 56 66
107 427 171 46 55 64
104 424 175 48 57 67
104 425 175 48 57 66
105 424 174 46 55 64
105 424 175 47 56 65
105 425 174 46 55 64
105 425 175 47 56 65
105 426 173 46 55 64
105 427 173 47 55 64
104 426 175 47 56 65
104 427 175 47 56 65
105 426 174 47 55 65
105 427 174 47 56 65
106 424 173 46 55 64
106 425 173 45 54 64
107 424 172 46 55 65
107 425 172 47 55 65
106 426 172 47 56 65
106 426 173 46 55 64
106 427 172 47 55 64
106 427 173 46 55 64
107 426 172 47 56 65
107 427 172 46 55 64
107 428 171 45 54 63
107 429 170 45 54 63
107 429 171 46 54 63
106 431 171 45 54 63
107 430 170 45 54 63
107 430 171 46 54 63
107 431 170 44 53 62
107 431 171 45 54 62
105 428 173 46 54 64
105 429 173 46 55 64
104 428 174 47 56 65
104 428 175 47 56 65
104 429 174 46 55 64
104 429 175 46 55 65
105 428 174 47 55 64
105 429 174 46 55 64
105 430 172 48 56 65
105 430 173 47 56 65
105 431 172 47 55 64
105 431 173 47 55 64
104 430 174 47 56 65
104 430 175 47 56 66
104 431 174 47 56 65
104 431 175 47 56 66
105 430 174 47 55 64
106 428 172 46 54 63
106 428 173 46 55 64
106 429 172 46 55 63
107 428 172 45 54 63
106 430 172 47 55 64
106 431 172 46 54 63
109 424 169 48 56 65
109 425 169 46 55 65
108 424 170 47 56 65
108 424 171 47 56 65
108 425 170 47 56 65
108 425 171 47 56 65
109 424 170 48 56 65
109 425 170 47 56 65
108 427 169 44 53 62
109 426 169 45 54 63
109 427 168 44 53 62
109 427 169 45 53 62
108 426 170 46 55 65
108 426 171 47 56 65
108 427 170 45 54 63
108 427 171 46 55 65
110 424 168 47 56 65
110 424 169 48 56 65
110 425 168 47 55 64
110 425 169 47 55 64
111 424 168 47 55 64
110 426 168 45 53 62
110 426 169 45 54 63
110 427 168 44 53 62
108 428 169 44 53 62
108 429 169 45 54 63
109 428 168 45 53 62
109 428 169 45 53 62
109 429 168 45 53 61
109 429 169 45 53 62
108 428 170 45 53 62
108 429 170 45 54 63
108 430 169 45 54 62
108 431 169 44 53 62
109 430 168 45 53 61
109 431 168 45 53 62
108 430 170 45 54 63
108 431 170 44 53 62
110 428 168 45 53 61
110 429 168 46 53 61
103 416 177 48 58 69
103 417 177 48 59 69
102 416 178 53 63 73
102 416 179 53 63 73
102 417 178 52 62 72
102 417 179 53 62 73
103 416 178 51 61 72
103 417 178 51 61 71
103 418 177 48 58 69
103 419 177 48 58 68
102 418 178 51 61 71
102 418 179 53 62 72
102 419 178 50 60 70
102 419 179 51 61 71
103 418 178 50 60 70
103 419 178 49 59 69
101 416 180 51 60 70
101 416 181 49 58 68
101 417 180 52 61 71
101 417 181 51 60 69
100 416 182 48 57 67
100 416 183 47 56 65
100 417 182 50 58 68
100 417 183 49 57 66
101 416 182 48 57 67
100 418 181 51 60 69
100 419 181 50 58 68
101 418 180 53 62 71
101 418 181 52 61 70
101 419 180 51 60 70
101 419 181 50 59 68
100 418 182 51 59 68
100 418 183 50 58 67
100 419 182 49 58 67
100 419 183 47 56 65
102 416 180 52 61 71
102 417 180 53 62 72
103 420 177 48 58 68
103 421 177 47 57 67
102 420 178 49 59 69
102 420 179 49 59 69
102 421 178 49 58 68
102 421 179 49 59 69
103 420 178 49 59 69
103 421 178 48 58 69
103 422 176 48 57 66
103 422 177 47 56 66
103 423 176 47 57 66
103 423 177 48 57 67
102 422 178 48 58 68
102 422 179 48 58 68
102 423 178 49 59 69
102 423 179 48 58 68
100 420 181 49 58 68
100 421 181 49 58 67
101 420 180 48 58 68
101 420 181 49 58 68
101 421 180 48 58 68
101 421 181 49 58 68
100 420 182 48 57 67
100 420 183 47 56 65
100 421 182 48 57 67
100 421 183 47 56 65
100 422 181 48 57 67
100 423 181 47 56 66
101 422 180 47 57 67
101 422 181 49 58 68
101 423 180 46 56 67
101 423 181 47 56 66
100 422 182 48 57 67
100 422 183 46 55 65
100 423 182 47 56 66
100 423 183 46 56 65
99 416 184 47 55 64
99 416 185 46 54 63
99 417 184 47 56 65
99 417 185 47 55 64
98 416 187 46 54 64
98 417 187 45 54 63
99 416 186 44 53 63
99 416 187 45 54 63
99 417 186 47 55 64
99 417 187 45 54 63
99 418 184 48 56 65
99 418 185 47 56 65
99 419 184 46 54 64
99 419 185 46 55 64
98 418 187 45 54 63
98 419 187 45 53 62
99 418 186 46 54 63
99 418 187 45 54 63
99 419 186 44 53 62
99 419 187 44 53 62
97 416 190 44 53 63
97 416 191 45 54 63
97 417 190 45 54 63
97 417 191 45 54 63
97 418 190 44 53 63
97 418 191 45 54 63
97 419 190 44 53 62
97 419 191 45 54 63
98 416 188 46 54 64
98 416 189 45 54 63
98 417 188 45 54 63
98 417 189 45 54 63
98 418 188 46 54 63
98 418 189 45 54 63
98 419 188 45 54 63
98 419 189 45 54 63
99 420 184 45 54 64
99 420 185 44 53 62
99 421 184 44 53 63
99 421 185 44 53 62
98 420 187 43 52 61
98 421 187 45 53 63
99 420 186 44 53 62
99 420 187 43 52 62
99 421 186 44 53 62
99 421 187 45 54 63
99 422 184 45 54 64
99 422 185 44 54 63
99 423 184 45 54 64
99 423 185 45 54 64
98 422 187 45 54 63
98 423 187 47 56 66
99 422 186 45 54 63
99 422 187 45 54 63
99 423 186 46 55 65
97 420 190 44 53 62
97 420 191 44 53 62
97 421 190 43 53 62
97 421 191 44 53 62
97 422 189 43 52 62
97 423 189 44 54 63
96 423 191 45 54 64
97 422 190 43 53 62
97 422 191 45 54 63
97 423 190 44 53 63
97 423 191 45 54 63
98 420 188 44 53 62
98 420 189 44 54 63
98 421 188 44 53 63
98 421 189 44 53 63
98 422 188 44 53 62
98 422 189 44 53 62
98 423 188 46 55 65
98 423 189 45 54 64
100 416 184 47 56 64
100 417 184 48 56 65
100 418 184 49 57 66
100 419 184 46 55 65
100 420 184 45 54 63
100 421 184 44 54 63
99 427 183 45 55 65
99 428 183 45 54 64
99 429 183 45 54 64
99 430 183 45 54 63
99 431 183 45 54 64
101 426 179 47 57 68
101 427 179 46 57 67
103 424 177 49 58 68
103 425 176 50 58 67
103 425 177 51 60 69
102 424 178 51 60 70
102 424 179 50 59 70
102 425 178 51 61 71
102 425 179 49 59 69
102 426 177 48 58 68
102 427 177 49 59 69
103 426 176 48 57 67
103 426 177 50 59 69
103 427 176 48 57 67
103 427 177 49 59 69
102 426 178 49 59 69
102 426 179 47 58 69
102 427 178 47 57 68
102 427 179 46 57 67
100 425 181 48 57 67
101 424 180 48 57 67
101 424 181 46 56 66
101 425 180 48 58 68
101 425 181 47 57 66
100 424 182 46 55 65
100 424 183 45 55 65
100 425 182 46 55 65
100 425 183 45 55 65
100 426 181 48 57 66
100 427 181 47 55 65
101 426 180 48 58 68
101 426 181 49 58 67
101 427 180 47 57 66
101 427 181 48 57 67
100 426 182 48 57 66
100 426 183 46 55 65
100 427 182 46 55 65
100 427 183 46 55 64
101 428 179 47 57 67
101 429 179 47 57 67
101 430 178 48 57 67
101 430 179 47 57 67
101 431 178 48 57 67
101 431 179 48 57 66
102 428 177 50 59 69
102 429 177 51 60 69
103 428 176 48 57 67
103 428 177 50 59 69
103 429 176 48 57 67
103 429 177 51 60 69
102 428 178 49 59 69
102 428 179 47 57 68
102 429 178 50 59 69
102 430 176 49 58 68
102 430 177 50 59 69
102 431 176 49 58 69
102 431 177 49 58 68
103 430 176 48 58 68
103 431 176 49 58 68
102 430 178 49 58 68
102 431 178 49 58 68
100 428 181 47 56 65
100 429 180 49 57 66
100 429 181 47 55 65
101 428 180 48 57 67
101 429 180 49 58 67
100 428 182 45 54 64
100 428 183 45 54 63
100 429 182 44 53 62
100 429 183 45 54 63
100 430 180 47 56 65
100 430 181 46 55 64
100 431 180 47 55 64
100 431 181 45 54 63
101 430 180 48 57 67
101 431 180 48 57 66
100 430 182 45 53 62
100 431 182 45 53 63
97 427 187 46 55 65
99 424 184 46 55 64
99 424 185 45 54 64
99 425 184 45 54 64
99 425 185 45 54 64
98 424 186 46 56 66
98 424 187 47 56 66
98 425 186 46 56 66
98 425 187 46 56 65
99 424 186 46 55 65
99 425 186 46 55 65
98 427 185 45 54 64
99 426 184 45 54 64
99 426 185 46 55 64
99 427 184 46 55 65
99 427 185 45 55 64
98 426 186 46 55 65
98 426 187 46 55 65
98 427 186 46 55 65
98 427 187 46 55 65
97 424 189 45 54 63
97 425 188 45 54 64
97 425 189 45 54 64
96 424 191 45 54 64
96 425 191 45 54 64
97 424 190 45 54 63
97 424 191 45 54 64
97 425 190 45 54 64
97 425 191 46 55 64
97 426 188 45 54 64
97 426 189 45 54 64
97 427 188 45 54 64
97 427 189 45 54 63
96 426 191 44 53 63
96 427 190 44 53 63
96 427 191 45 53 62
97 426 190 45 54 64
97 427 190 45 54 63
98 424 188 46 55 65
98 425 188 46 55 65
98 426 188 45 54 64
97 428 187 44 54 63
97 429 187 45 54 64
97 430 187 46 55 65
97 431 187 46 55 65
98 428 185 45 55 65
98 429 185 45 55 65
99 428 184 45 55 64
99 428 185 45 55 65
99 429 184 46 55 64
99 429 185 46 55 65
98 428 186 46 55 65
98 428 187 46 55 65
98 429 186 46 55 65
98 429 187 45 55 64
98 430 185 46 55 65
98 431 185 48 57 66
99 430 184 46 55 64
99 430 185 46 55 65
99 431 184 47 56 65
98 430 186 46 55 65
98 430 187 46 55 64
98 431 186 48 57 66
98 431 187 47 56 65
97 428 188 45 54 64
97 428 189 45 54 63
97 429 188 45 54 63
97 429 189 46 55 64
96 428 190 44 54 63
96 428 191 45 53 62
96 429 190 45 54 64
96 429 191 45 54 63
96 430 189 46 55 64
96 431 189 46 55 65
97 430 188 46 55 64
97 430 189 46 55 64
97 431 188 47 56 65
97 431 189 47 56 65
96 430 190 45 54 63
96 430 191 45 54 63
96 431 190 45 54 64
96 431 191 45 54 63
100 424 184 45 55 65
100 425 184 44 54 64
104 416 176 47 57 67
104 417 176 47 57 67
104 418 176 47 57 67
104 418 177 47 57 67
104 419 176 48 57 67
104 419 177 47 57 67
104 420 176 48 57 67
104 420 177 48 58 67
104 421 176 48 57 67
104 422 176 48 57 67
104 423 176 48 57 67
104 424 176 49 57 67
104 425 176 49 58 67
104 426 176 47 56 66
104 427 176 47 57 66
103 432 175 47 56 66
103 433 175 47 56 66
103 434 175 47 56 66
103 435 175 48 57 66
103 436 174 47 56 66
103 436 175 48 57 67
103 437 174 47 57 67
103 437 175 48 57 67
103 438 174 49 58 69
103 438 175 48 58 68
103 439 174 48 59 69
103 439 175 48 58 69
103 440 173 48 59 69
103 441 173 49 59 70
102 440 175 49 59 70
102 441 175 48 59 70
103 440 174 49 59 70
103 440 175 48 59 70
103 441 174 49 59 70
103 441 175 48 59 70
103 442 173 50 60 71
103 443 173 50 60 71
102 442 175 47 58 70
102 443 175 49 59 70
103 442 174 49 60 71
103 443 174 49 60 71
103 444 172 49 59 70
103 444 173 49 59 70
103 445 172 50 60 70
103 445 173 49 59 70
102 444 175 48 59 70
102 445 175 47 58 69
103 444 174 48 59 70
103 445 174 49 60 71
103 446 172 50 60 70
103 446 173 50 60 70
103 447 172 49 59 69
103 447 173 48 58 69
102 446 175 47 58 69
102 447 175 47 58 69
103 446 174 49 59 70
103 447 174 48 58 69
109 432 167 46 54 62
109 433 167 46 54 63
109 434 167 46 54 63
109 435 166 46 55 64
109 435 167 47 55 64
111 432 165 46 54 62
111 433 164 46 53 62
111 433 165 46 54 62
110 432 166 46 54 63
110 432 167 46 53 62
110 433 166 46 54 63
110 433 167 46 54 63
111 432 166 47 54 63
111 433 166 46 54 62
110 434 165 46 54 63
110 435 165 46 54 63
111 434 164 45 53 62
111 434 165 45 54 62
111 435 164 46 54 62
111 435 165 46 54 63
110 434 166 46 54 63
110 435 166 46 54 63
111 436 163 48 56 64
111 437 163 49 57 65
110 439 163 48 56 65
111 438 163 48 56 65
111 439 162 48 56 65
111 439 163 48 56 65
109 437 165 48 56 65
108 436 167 47 55 64
108 437 167 47 56 64
109 436 166 46 55 64
109 436 167 47 55 64
109 437 166 47 55 64
109 437 167 47 56 64
109 438 165 48 56 65
109 439 165 49 57 66
108 438 167 48 56 65
108 439 166 50 58 66
108 439 167 48 57 65
109 438 166 48 56 65
109 439 166 50 58 66
110 436 165 47 55 64
110 437 164 49 57 66
110 437 165 48 56 65
111 436 164 47 55 63
111 436 165 46 54 63
111 437 164 48 56 64
110 436 166 46 55 64
110 438 164 49 57 66
110 438 165 49 57 65
110 439 164 49 57 66
110 439 165 48 56 65
106 432 171 44 52 62
106 433 171 43 52 61
107 432 170 43 52 61
107 432 171 44 52 61
107 433 170 44 53 62
107 433 171 44 52 61
107 434 169 45 54 63
107 435 169 47 55 64
106 434 171 44 53 62
106 435 170 44 53 62
106 435 171 44 52 62
107 434 170 44 53 62
107 434 171 44 52 62
107 435 170 45 54 63
104 432 173 46 55 64
104 433 173 46 55 64
105 432 172 46 54 64
105 432 173 46 55 64
105 433 172 46 55 64
105 433 173 46 55 64
104 432 174 46 55 64
104 432 175 47 56 66
104 433 174 46 55 64
104 434 173 47 55 64
104 435 173 47 55 65
105 434 172 46 55 64
105 434 173 47 55 65
105 435 172 45 54 64
105 435 173 47 55 65
104 434 174 47 55 65
104 435 174 47 56 65
106 432 172 45 54 63
106 433 172 44 53 62
106 434 172 45 54 63
106 435 172 44 53 62
105 437 171 45 55 65
105 438 171 46 56 65
105 439 171 47 56 65
106 437 169 45 54 63
107 436 168 48 56 64
107 436 169 46 55 64
107 437 168 46 55 64
107 437 169 45 54 63
106 436 170 44 53 63
106 436 171 44 53 63
106 437 170 44 54 63
106 437 171 45 54 64
107 436 170 45 54 63
106 438 169 45 54 63
106 439 169 45 54 64
107 438 168 46 55 64
107 438 169 45 54 63
107 439 168 47 55 64
107 439 169 45 54 64
106 438 170 45 54 64
106 439 170 45 55 64
104 436 173 47 56 66
104 437 172 47 57 67
104 437 173 46 56 66
105 436 172 45 55 64
105 437 172 46 56 65
104 436 174 47 56 66
104 437 174 47 57 67
104 438 172 47 57 67
104 438 173 47 57 68
104 439 172 49 58 69
104 439 173 49 59 69
105 438 172 47 57 66
105 439 172 48 57 67
104 438 174 48 58 68
108 432 168 46 54 63
108 432 169 45 53 62
108 433 168 46 54 63
108 433 169 45 53 62
109 432 168 46 54 63
109 433 168 46 54 63
108 432 170 43 52 61
108 434 168 46 54 63
108 434 169 45 54 63
108 435 168 47 55 64
108 435 169 46 55 64
109 434 168 46 54 63
108 436 168 48 56 65
108 437 168 47 55 64
108 438 168 47 55 64
107 440 167 47 56 65
107 441 167 47 56 65
107 442 166 47 56 65
107 442 167 48 56 66
107 443 166 47 56 65
107 443 167 47 56 65
107 444 166 47 56 65
107 444 167 46 55 65
107 445 166 47 55 64
107 445 167 47 56 65
107 446 166 46 54 62
107 446 167 47 54 63
107 447 166 51 57 65
107 447 167 48 54 63
110 440 163 48 56 65
110 441 163 47 55 64
111 440 162 48 56 65
111 440 163 48 56 65
111 441 162 46 54 63
111 441 163 47 55 64
110 442 163 48 56 64
110 443 163 49 56 64
111 442 162 48 55 63
111 442 163 48 55 64
111 443 162 53 58 66
109 440 165 48 57 66
109 441 164 48 56 66
109 441 165 48 57 66
108 440 166 50 58 66
108 440 167 48 56 65
108 441 166 48 56 65
108 441 167 47 56 65
109 440 166 49 57 66
109 441 166 48 57 66
108 443 165 48 56 65
109 442 164 48 56 65
109 442 165 48 56 65
109 443 164 49 56 65
109 443 165 48 56 65
108 442 166 47 56 65
108 443 166 47 56 65
110 440 164 48 56 65
110 441 164 48 56 65
110 442 164 48 56 65
111 445 161 54 59 66
110 444 163 54 59 66
110 445 163 59 64 70
111 444 162 59 63 70
111 445 162 59 63 70
111 446 161 52 58 65
110 446 163 58 62 69
110 447 162 48 54 61
110 447 163 51 57 64
111 446 162 54 59 65
111 447 162 50 56 63
108 444 165 48 56 65
108 445 165 47 54 63
109 444 164 49 56 64
109 444 165 49 56 65
109 445 164 52 58 65
109 445 165 48 55 63
108 444 166 48 56 65
108 445 166 47 55 64
108 446 165 52 58 65
108 447 165 57 62 69
109 446 164 58 62 69
109 446 165 55 60 67
109 447 164 56 60 67
109 447 165 56 61 68
108 446 166 47 55 63
108 447 166 54 60 67
110 445 164 56 61 68
105 440 170 47 56 65
105 440 171 47 56 66
105 441 170 47 56 66
105 441 171 47 57 66
105 443 169 49 58 68
104 442 171 47 57 68
104 443 171 49 58 69
105 442 170 48 57 67
105 442 171 47 57 67
105 443 170 49 58 68
105 443 171 48 58 68
106 440 169 46 55 65
106 441 168 48 57 66
106 441 169 47 57 66
107 440 168 47 56 65
107 440 169 46 55 65
107 441 168 47 56 66
106 440 170 46 55 65
106 441 170 46 56 65
106 442 168 48 57 67
106 442 169 48 57 67
106 443 168 47 57 66
106 443 169 49 58 68
107 442 168 48 57 66
104 440 172 48 58 68
104 440 173 48 58 69
104 441 172 47 58 68
104 441 173 48 59 69
105 440 172 47 57 67
104 442 172 49 59 69
104 443 172 49 59 69
105 444 169 48 58 68
105 445 169 47 56 66
104 444 171 49 59 69
104 445 171 49 58 69
105 444 170 48 58 68
105 444 171 48 58 69
105 445 170 47 57 68
105 445 171 49 59 69
105 446 169 48 57 66
105 447 169 48 57 67
104 446 171 48 57 68
104 447 170 47 57 67
104 447 171 48 58 68
105 446 170 47 57 67
105 447 170 48 57 67
106 444 168 46 55 65
106 444 169 47 56 66
106 445 168 48 56 65
106 445 169 47 56 65
106 446 168 49 56 65
106 446 169 49 57 66
106 447 168 47 54 63
106 447 169 48 56 66
104 444 172 49 59 70
104 445 172 50 60 70
104 446 172 49 59 69
104 447 172 48 58 69
99 432 182 45 54 63
99 432 183 46 55 64
99 433 182 46 55 64
99 433 183 47 56 65
99 434 182 47 56 66
99 434 183 47 56 66
99 435 182 47 56 66
99 435 183 48 58 68
99 436 182 46 56 67
99 436 183 48 58 68
99 437 182 46 56 67
99 437 183 46 56 67
99 438 182 47 57 67
99 438 183 47 57 67
99 439 182 48 57 68
99 439 183 47 57 67
101 433 177 47 57 67
100 433 179 48 57 66
101 432 178 48 57 67
101 432 179 48 57 66
101 433 178 47 57 67
101 433 179 48 57 67
101 435 177 47 57 67
100 434 179 48 57 66
100 435 179 47 56 66
101 434 178 47 57 67
101 434 179 48 58 67
101 435 178 47 57 67
101 435 179 47 57 67
102 432 176 49 58 68
102 432 177 48 58 68
102 433 176 49 58 68
102 433 177 48 58 67
103 432 176 48 58 68
102 434 176 48 57 67
102 434 177 47 57 67
102 435 176 48 57 67
102 435 177 47 56 66
100 432 180 48 56 65
100 432 181 46 54 64
100 433 180 48 56 65
100 433 181 47 55 64
101 432 180 48 56 65
100 432 182 45 54 63
100 433 182 46 55 64
100 434 180 48 56 66
100 434 181 47 56 65
100 435 180 47 56 66
100 435 181 45 55 65
100 434 182 47 56 65
100 436 179 46 56 66
100 437 179 46 56 67
101 436 178 47 57 67
101 436 179 46 56 67
101 437 178 47 57 67
101 437 179 45 56 66
101 439 177 47 58 68
100 438 179 47 57 68
100 439 179 46 57 67
101 438 178 47 58 68
101 438 179 47 57 68
101 439 178 46 57 68
101 439 179 46 57 67
102 436 176 49 58 68
102 436 177 48 58 67
102 437 176 48 58 68
102 437 177 49 58 68
102 438 176 48 58 68
102 438 177 49 59 69
102 439 176 48 58 69
102 439 177 48 58 68
100 436 180 47 56 66
100 436 181 46 55 65
100 437 180 46 56 66
100 437 181 46 56 66
100 438 180 47 57 67
100 438 181 47 57 67
100 439 180 47 57 68
100 439 181 48 58 68
97 432 187 46 55 64
97 433 187 46 55 65
97 434 187 45 54 64
97 435 187 45 54 64
98 432 185 48 57 66
98 433 184 48 57 66
98 433 185 48 56 66
99 432 184 48 56 66
99 433 184 47 56 66
98 432 186 47 56 65
98 432 187 47 56 65
98 433 186 47 56 66
98 433 187 46 55 65
98 434 184 48 57 67
98 434 185 48 57 66
98 435 184 49 58 67
98 435 185 48 57 67
99 434 184 48 57 67
99 435 184 49 58 67
98 434 186 46 55 65
98 434 187 45 54 64
98 435 186 46 55 65
98 435 187 44 54 64
96 432 189 46 55 65
96 433 189 46 55 65
97 432 188 46 55 65
97 432 189 46 55 65
97 433 188 46 55 65
97 433 189 46 55 65
96 432 190 46 54 64
96 432 191 45 54 62
96 433 190 46 55 64
96 433 191 45 53 62
96 434 189 44 53 63
96 435 189 44 53 62
97 434 188 45 54 64
97 434 189 44 53 63
97 435 188 45 54 63
97 435 189 43 53 62
96 434 190 44 53 62
97 436 187 45 54 64
97 437 186 45 55 65
97 437 187 45 54 64
97 438 186 46 56 66
97 438 187 46 56 65
97 439 186 47 57 67
98 436 184 47 57 67
98 436 185 46 56 65
98 437 184 47 56 66
98 437 185 45 55 65
98 436 186 45 55 64
98 437 186 44 54 64
98 438 184 47 56 66
98 438 185 46 55 65
98 439 184 46 56 67
98 439 185 46 56 66
98 438 186 45 56 66
98 439 186 46 56 67
96 437 188 45 55 64
97 436 188 45 54 64
97 437 188 44 54 63
99 440 181 50 59 70
99 441 181 49 59 70
98 440 183 47 57 67
99 440 182 48 58 68
99 440 183 47 58 68
99 441 182 47 58 69
99 441 183 47 58 69
99 442 182 46 58 69
99 442 183 46 57 69
99 443 182 46 58 69
99 443 183 47 58 69
99 444 182 47 58 70
99 444 183 48 59 71
101 440 177 47 58 69
101 441 177 47 58 69
100 440 179 46 57 68
100 441 179 48 58 69
101 440 178 46 57 68
101 440 179 46 57 68
101 441 178 47 57 68
101 441 179 48 59 69
101 442 177 48 58 69
101 443 176 48 59 70
101 443 177 48 58 69
100 442 179 47 58 69
100 443 179 48 59 70
101 442 178 47 58 68
101 442 179 47 58 69
101 443 178 47 57 68
101 443 179 48 58 69
102 440 176 49 59 70
102 440 177 48 58 69
102 441 176 48 59 69
102 442 176 47 58 69
102 443 176 48 58 69
100 440 180 47 58 68
100 440 181 50 60 70
100 441 180 48 58 69
100 441 181 50 60 70
100 442 180 49 60 70
100 442 181 48 59 70
100 443 180 50 60 70
100 443 181 48 59 70
100 443 182 47 58 69
101 444 176 48 59 70
101 444 177 48 58 69
101 445 177 47 58 69
100 445 179 48 59 70
101 444 178 47 58 68
101 444 179 48 59 70
101 445 178 47 58 69
101 445 179 48 58 69
101 446 177 49 59 70
101 447 177 50 60 71
101 446 178 50 60 71
101 446 179 49 59 70
101 447 178 51 61 71
101 447 179 50 60 71
102 444 176 47 58 69
102 445 176 47 58 69
102 446 176 48 59 70
102 447 176 48 59 70
102 447 177 50 60 71
100 444 180 49 59 70
100 444 181 48 59 70
100 445 180 48 59 70
100 445 181 48 59 70
100 444 182 47 59 70
100 445 182 47 59 70
100 445 183 46 58 70
100 446 180 47 59 70
100 446 181 47 59 70
100 447 180 48 59 70
100 447 181 48 60 71
101 447 180 48 60 71
100 446 182 47 59 70
97 440 186 48 58 69
98 440 184 47 57 67
98 440 185 46 57 67
98 441 184 47 58 68
98 441 185 47 57 68
99 441 184 48 58 69
98 440 186 47 57 68
98 442 184 47 58 69
98 443 184 46 57 68
99 442 184 47 58 69
99 443 184 47 58 69
115 416 163 47 56 66
115 417 163 48 56 66
115 418 163 48 57 66
115 419 163 47 56 65
113 416 165 46 55 64
113 417 165 45 54 63
112 416 166 47 55 64
112 416 167 47 55 64
112 417 166 45 54 63
112 417 167 46 55 64
113 416 166 46 55 64
113 417 166 45 54 63
113 418 165 46 54 63
113 419 165 45 54 62
112 418 166 45 53 62
112 418 167 45 54 63
112 419 166 44 53 62
112 419 167 45 53 62
113 418 166 44 53 62
113 419 166 44 53 62
114 416 164 47 56 65
114 417 164 47 55 64
114 418 164 46 55 64
114 418 165 46 55 64
114 419 164 46 54 64
114 419 165 45 54 63
115 420 162 46 55 64
115 420 163 45 54 64
115 421 162 45 54 64
115 421 163 45 54 63
114 423 163 45 53 62
115 422 162 46 54 64
115 422 163 45 54 63
115 423 162 46 54 63
115 423 163 45 53 62
113 420 165 44 53 62
113 421 165 44 53 61
112 420 166 45 53 62
112 420 167 46 53 62
112 421 166 44 53 61
112 421 167 46 53 62
113 420 166 44 53 61
113 421 166 44 52 61
113 422 165 44 53 61
113 423 165 45 53 62
112 422 166 44 52 61
112 422 167 46 54 62
112 423 166 45 53 62
112 423 167 46 54 63
114 420 164 45 54 63
114 420 165 45 54 63
114 421 164 45 53 62
114 421 165 45 53 62
114 422 164 45 53 62
114 422 165 45 53 62
114 423 164 45 53 62
114 423 165 44 52 61
116 416 161 46 56 66
116 417 161 47 56 66
117 416 161 47 56 66
117 417 161 47 56 66
116 416 162 46 56 65
116 417 162 47 56 66
116 418 161 47 56 66
116 419 161 46 55 65
117 418 161 46 56 65
117 419 160 46 56 66
117 419 161 46 55 65
116 418 162 47 56 66
116 419 162 47 56 65
118 416 160 47 57 67
118 417 160 47 57 67
118 418 160 46 56 65
118 419 160 46 56 66
116 420 161 45 55 65
116 421 161 46 55 65
117 420 160 46 56 66
117 420 161 45 55 65
117 421 160 46 55 65
117 421 161 45 55 65
116 420 162 46 55 65
116 421 162 46 55 64
116 422 161 46 55 64
116 423 161 46 55 64
117 422 160 45 54 64
117 422 161 45 54 64
117 423 160 46 55 64
117 423 161 46 55 64
116 422 162 46 55 64
116 423 162 46 55 63
118 420 160 47 56 66
118 421 160 46 56 65
118 422 160 45 55 64
118 423 160 46 54 64
114 424 163 45 53 62
114 425 163 45 53 62
115 424 162 45 53 61
115 424 163 45 53 61
115 425 162 44 52 61
115 425 163 45 53 61
114 426 163 44 52 61
114 427 162 45 53 61
114 427 163 44 52 61
115 426 162 45 53 61
115 426 163 44 52 61
115 427 162 45 53 61
113 424 165 45 53 61
113 425 165 44 52 61
112 424 166 46 54 62
112 425 166 45 53 62
112 427 165 44 52 61
113 426 164 45 53 61
113 426 165 44 52 61
113 427 164 44 52 61
113 427 165 44 52 61
112 426 166 44 53 61
112 427 166 44 53 62
114 424 164 45 53 62
114 425 164 45 53 61
114 426 164 45 53 61
114 427 164 44 53 61
113 429 163 45 53 61
113 430 163 46 54 62
113 431 162 47 54 62
113 431 163 46 54 62
115 428 161 46 54 62
115 429 161 47 54 62
114 428 162 45 53 62
114 428 163 44 53 61
114 429 162 45 53 62
114 429 163 45 53 62
115 428 162 46 54 62
115 429 162 46 54 62
114 431 161 47 55 63
115 430 160 48 55 63
115 430 161 47 54 62
115 431 160 47 54 62
115 431 161 47 55 63
114 430 162 46 54 62
114 430 163 46 53 62
114 431 162 47 54 62
115 430 162 46 54 62
112 428 165 45 53 61
112 429 165 45 53 61
113 428 164 44 53 61
113 428 165 45 53 61
113 429 164 45 53 61
112 428 166 46 53 62
112 429 166 47 54 62
112 430 164 46 54 62
112 430 165 47 54 62
112 431 164 46 53 61
112 431 165 47 55 62
113 430 164 46 53 62
116 424 161 46 54 63
116 425 161 46 54 62
117 424 160 46 54 63
117 424 161 46 54 63
117 425 160 47 55 63
116 424 162 46 54 62
116 425 162 45 53 61
116 426 161 46 54 62
116 427 160 47 54 63
116 427 161 46 54 62
117 426 160 47 55 63
117 427 160 48 55 63
116 426 162 45 53 61
116 428 160 48 55 62
116 428 161 47 54 62
116 429 160 48 54 62
116 430 160 48 55 63
112 432 163 46 53 61
112 433 163 45 53 61
113 432 162 46 54 62
113 432 163 46 54 62
113 433 162 46 54 62
113 433 163 46 53 62
113 434 161 48 56 64
113 435 161 49 56 65
112 434 163 46 54 63
112 435 163 47 55 63
113 434 162 47 55 63
113 434 163 46 54 62
113 435 162 48 56 64
114 432 161 47 54 62
114 433 160 48 55 63
114 433 161 47 55 63
115 432 160 47 54 62
115 433 160 47 55 63
114 432 162 46 54 62
114 433 162 46 54 62
114 434 160 49 56 65
114 434 161 48 56 64
114 435 160 49 56 65
114 435 161 49 57 65
115 434 160 49 57 65
112 432 164 46 54 62
112 433 164 46 54 62
112 434 164 46 54 62
112 437 161 47 55 64
113 436 161 49 56 65
113 437 160 46 55 64
113 437 161 47 55 64
112 436 162 48 56 65
112 436 163 48 56 65
112 437 162 48 56 65
112 437 163 49 57 65
113 436 162 48 56 65
112 438 161 47 55 64
112 439 161 46 55 63
113 438 160 46 54 63
113 438 161 46 55 64
113 439 160 46 54 63
112 438 162 48 56 65
112 439 162 47 55 64
114 436 160 48 56 65
114 437 160 46 55 64
112 440 161 46 54 63
112 441 160 49 55 63
112 441 161 46 54 62
113 440 160 45 53 62
113 441 160 47 54 62
112 440 162 47 55 64
112 442 160 55 60 67
112 442 161 50 57 64
112 443 160 58 63 69
112 443 161 57 61 68
113 442 160 56 61 68
113 443 160 57 62 68
112 444 160 56 61 68
112 444 161 58 63 69
112 445 160 53 58 65
112 445 161 55 60 67
113 444 160 55 60 66
113 445 160 53 58 65
112 446 160 54 59 67
112 446 161 52 58 65
112 447 160 56 61 68
112 447 161 53 58 65
113 446 160 54 60 67
113 447 160 58 62 69
95 403 196 43 51 60
95 403 197 43 51 59
93 404 198 43 50 57
93 405 198 42 50 59
93 405 199 43 50 58
93 406 198 40 49 59
93 406 199 40 49 59
93 407 198 41 51 61
93 407 199 41 51 61
94 404 197 43 52 60
94 405 197 42 50 59
95 404 196 43 52 60
95 404 197 43 51 60
95 405 196 43 52 60
95 405 197 43 51 60
94 404 198 43 50 58
94 405 198 42 50 58
94 406 197 41 51 60
94 407 197 44 53 61
95 406 196 45 53 61
95 406 197 42 51 60
95 407 196 46 53 62
95 407 197 45 53 61
94 406 198 40 50 59
94 407 198 41 51 61
91 407 203 42 51 60
91 407 204 44 53 62
92 405 200 44 52 60
93 405 200 44 52 61
92 406 200 44 53 62
92 406 201 45 53 63
92 407 200 43 53 62
92 407 201 43 52 62
93 406 200 43 52 62
93 407 200 42 52 62
92 406 202 44 52 62
92 407 202 43 51 61
92 407 203 42 51 60
95 408 195 47 55 63
95 409 195 47 55 63
95 410 195 44 52 61
95 411 195 45 53 62
93 408 198 39 50 60
93 408 199 40 50 60
93 409 198 41 50 59
93 409 199 40 49 58
93 410 198 41 50 58
93 410 199 42 50 59
93 411 198 41 50 58
93 411 199 41 49 57
94 408 197 44 52 61
94 409 197 43 51 59
95 408 196 45 53 62
95 408 197 44 52 61
95 409 196 45 53 62
95 409 197 44 52 61
94 408 198 40 50 60
94 409 198 42 51 60
94 410 197 41 49 58
94 411 197 42 50 58
95 410 196 44 52 61
95 411 196 44 52 61
94 410 198 40 49 58
94 411 198 42 50 59
95 412 195 45 53 62
95 413 195 44 53 63
95 414 195 45 54 64
95 415 195 46 55 64
93 412 198 41 49 58
93 412 199 41 49 58
93 413 198 42 50 59
93 413 199 41 49 58
93 414 198 42 50 59
93 414 199 42 50 58
93 415 198 42 51 60
93 415 199 44 52 60
94 412 197 40 48 57
94 413 197 39 48 57
95 412 196 43 51 60
95 413 196 42 51 60
94 412 198 40 49 57
94 413 198 41 49 58
94 414 197 41 49 57
94 415 197 44 51 60
95 414 196 44 52 61
95 414 197 43 51 60
95 415 196 46 54 63
94 414 198 41 50 59
94 415 198 42 51 60
91 408 203 41 50 59
91 408 204 43 51 60
91 408 205 44 52 62
91 409 204 42 51 60
91 409 205 44 53 62
91 410 205 47 55 64
91 410 206 47 55 64
92 408 200 42 52 62
92 408 201 43 52 61
92 409 200 41 50 60
92 409 201 43 51 60
93 408 200 41 51 60
93 409 200 40 50 59
92 408 202 41 50 59
92 408 203 41 50 58
92 409 202 41 50 58
92 409 203 43 50 59
92 410 201 42 50 59
92 411 201 43 51 60
93 410 200 41 50 59
93 411 200 41 49 58
92 410 202 42 50 59
92 410 203 44 51 59
92 411 202 44 51 60
92 411 203 44 52 60
92 408 204 42 50 59
92 409 204 44 52 61
92 409 205 46 54 63
92 410 204 46 54 62
92 410 205 47 55 64
92 411 204 45 53 62
92 411 205 46 55 63
92 410 206 47 55 64
92 410 207 45 53 62
92 411 206 46 54 63
92 412 201 43 51 60
93 412 200 41 50 59
93 412 201 42 51 60
93 413 200 42 51 60
93 413 201 42 51 60
92 412 202 43 52 60
92 412 203 45 52 61
92 413 202 42 51 60
92 413 203 45 53 62
93 413 202 43 51 60
93 414 200 44 52 61
93 414 201 43 52 61
93 415 200 45 53 61
93 415 201 45 53 61
92 414 202 44 52 61
92 414 203 44 53 62
92 415 202 44 52 61
92 415 203 44 53 62
93 414 202 43 51 60
93 415 202 43 51 60
92 412 204 45 54 62
92 412 205 44 52 62
92 413 204 46 54 63
92 413 205 44 53 62
92 412 206 44 52 61
92 414 204 46 54 63
95 416 195 45 54 63
95 417 195 45 54 63
95 418 195 45 54 63
95 419 195 45 54 63
93 416 198 43 52 61
93 416 199 44 52 61
93 417 198 43 51 60
93 417 199 45 53 62
93 418 199 44 53 62
93 419 199 44 52 61
94 416 197 43 51 59
94 417 197 43 51 60
95 416 196 44 53 61
95 416 197 43 51 59
95 417 196 44 53 62
95 417 197 44 52 60
94 416 198 42 51 60
94 417 198 43 51 60
94 418 197 43 52 61
94 419 197 42 51 59
95 418 196 44 53 62
95 418 197 43 52 61
95 419 196 44 52 62
95 419 197 42 51 60
94 418 198 43 52 60
94 419 198 43 51 60
94 419 199 43 51 60
95 420 195 44 53 62
95 421 194 44 52 61
95 421 195 43 52 61
95 422 194 44 52 60
95 422 195 43 51 60
95 423 194 44 52 60
95 423 195 44 52 60
93 420 199 44 52 61
95 420 196 42 51 60
95 420 197 42 50 59
95 421 196 42 51 60
95 421 197 42 50 59
94 420 198 43 51 59
94 420 199 43 52 60
94 421 198 42 50 59
94 421 199 43 51 60
95 422 196 41 50 59
95 422 197 41 50 58
95 423 196 41 50 59
95 423 197 42 51 60
94 422 198 42 51 59
94 422 199 43 51 60
94 423 198 44 52 61
93 416 200 44 52 61
93 416 201 44 52 60
93 417 200 45 53 62
93 417 201 43 51 60
92 416 203 44 53 62
92 417 202 43 52 61
93 416 202 43 52 61
93 416 203 44 52 62
93 417 202 43 52 60
93 418 200 44 53 62
93 418 201 42 51 60
93 419 200 43 52 60
93 419 201 42 51 60
93 420 200 43 51 60
95 424 194 44 52 60
95 424 195 44 51 60
95 425 194 43 51 60
95 425 195 43 51 59
95 426 193 43 51 60
95 427 193 43 51 60
95 426 194 42 51 59
95 426 195 42 50 59
95 427 194 43 51 60
95 427 195 41 50 59
95 424 196 42 50 59
95 424 197 43 51 60
95 425 196 42 51 60
95 425 197 44 52 61
95 426 196 42 51 60
95 428 192 44 52 61
95 428 193 43 52 60
95 429 192 44 53 61
95 429 193 44 52 61
95 428 194 43 51 60
95 429 194 43 51 60
95 430 192 44 52 61
95 430 193 42 51 60
95 431 192 43 52 61
97 401 192 43 52 61
97 401 193 44 52 61
97 402 192 42 51 60
97 402 193 42 50 59
97 403 192 42 51 60
97 403 193 42 50 59
96 402 194 43 51 59
96 402 195 43 51 60
96 403 194 42 50 59
96 403 195 44 52 60
97 402 194 42 50 59
97 403 194 41 50 58
98 401 192 42 52 61
98 402 192 42 51 60
98 403 192 43 51 60
97 404 192 43 52 61
97 404 193 44 52 61
